# .PCD v0.7 - Point Cloud Data file format
VERSION 0.7
FIELDS x y z
SIZE 4 4 4
TYPE F F F
COUNT 1 1 1
WIDTH 1930
HEIGHT 1
VIEWPOINT 0 0 0 1 0 0 0
POINTS 1930
DATA ascii
67.800003 5.0999999 0.2112
67.800003 5.1500001 0.212
67.800003 5.1999998 0.2088
67.800003 5.25 0.2088
67.800003 5.3000002 0.20640001
67.800003 5.3499999 0.20720001
67.800003 5.4000001 0.20720001
67.800003 5.4499998 0.20559999
67.800003 5.5 0.204
67.800003 5.5500002 0.20479999
67.800003 5.5999999 0.20479999
67.800003 5.6500001 0.208
67.800003 5.6999998 0.2008
67.800003 5.75 0.204
67.800003 5.8000002 0.20479999
67.800003 5.8499999 0.19840001
67.800003 5.9000001 0.19840001
67.800003 5.9499998 0.1992
67.800003 6 0.2
67.800003 6.0500002 0.2008
67.800003 6.0999999 0.19840001
67.800003 6.1500001 0.19840001
67.800003 6.1999998 0.19840001
67.800003 6.25 0.19840001
67.800003 6.3000002 0.1992
67.800003 6.3499999 0.1936
67.800003 6.4000001 0.1928
67.800003 6.4499998 0.19599999
67.800003 6.5 0.19840001
67.800003 6.5500002 0.1928
67.800003 6.5999999 0.1856
67.800003 6.6500001 0.18719999
67.800003 6.6999998 0.18960001
67.800003 6.75 0.192
67.800003 6.8000002 0.1904
67.800003 6.8499999 0.18799999
67.800003 6.9000001 0.18960001
67.800003 6.9499998 0.1928
67.800003 7 0.18799999
67.800003 7.0500002 0.1864
67.800003 7.0999999 0.18880001
67.800003 7.1500001 0.1848
67.800003 7.1999998 0.1864
67.800003 7.25 0.208
67.800003 7.3000002 0.2296
67.800003 7.3499999 0.2216
67.800003 7.4000001 0.1928
67.800003 7.4499998 0.18080001
67.800003 7.5 0.18080001
67.800003 7.5500002 0.17039999
67.800003 7.5999999 0.15440001
67.800003 7.6500001 0.16
67.800003 7.6999998 0.16240001
67.800003 7.75 0.16
67.800003 7.8000002 0.1592
67.800003 7.8499999 0.1656
67.800003 7.9000001 0.1688
67.800003 7.9499998 0.16159999
67.800003 8 0.1592
67.800003 8.0500002 0.1608
67.800003 8.1000004 0.1648
67.800003 8.1499996 0.16159999
67.800003 8.1999998 0.164
67.800003 8.25 0.16
67.800003 8.3000002 0.16320001
67.800003 8.3500004 0.1584
67.800003 8.3999996 0.1592
67.800003 8.4499998 0.168
67.800003 8.5 0.1656
67.800003 8.5500002 0.1608
67.800003 8.6000004 0.1576
67.800003 8.6499996 0.16159999
67.800003 8.6999998 0.16240001
67.800003 8.75 0.16159999
67.800003 8.8000002 0.1568
67.800003 8.8500004 0.1488
67.800003 8.8999996 0.1488
67.800003 8.9499998 0.1504
67.800003 9 0.1512
67.800003 9.0500002 0.152
67.800003 9.1000004 0.1464
67.800003 9.1499996 0.14399999
67.800003 9.1999998 0.15360001
67.800003 9.25 0.152
67.800003 9.3000002 0.15279999
67.800003 9.3500004 0.1568
67.800003 9.3999996 0.152
67.800003 9.4499998 0.15360001
67.800003 9.5 0.1584
67.800003 9.5500002 0.15360001
67.800003 9.6000004 0.152
67.800003 9.6499996 0.15440001
67.800003 9.6999998 0.15440001
67.800003 9.75 0.1592
67.800003 9.8000002 0.1576
67.800003 9.8500004 0.1576
67.800003 9.8999996 0.1576
67.800003 9.9499998 0.15440001
67.800003 10 0.15440001
67.800003 10.05 0.1576
67.800003 10.1 0.1496
67.800003 10.15 0.156
67.800003 10.2 0.1608
67.800003 10.25 0.1584
67.800003 10.3 0.1664
67.800003 10.35 0.1576
67.800003 10.4 0.1256
67.800003 10.45 0.43279999
67.800003 10.5 0.73680001
67.800003 10.55 0.73199999
67.800003 10.6 0.87040001
67.800003 10.65 0.86080003
67.800003 10.7 0.87120003
67.800003 10.75 0.8624
67.800003 10.8 0.8448
67.800003 10.85 0.80479997
67.800003 10.9 0.76880002
67.800003 10.95 0.72479999
67.800003 11 0.67919999
67.800003 11.05 0.63279998
67.800003 11.1 0.56720001
67.800003 11.15 0.53119999
67.800003 11.2 0.46560001
67.800003 11.25 0.412
68 0 0.27599999
68 0.050000001 0.27360001
68 0.1 0.28
68 0.15000001 0.27919999
68 0.2 0.27520001
68 0.25 0.27680001
68 0.30000001 0.2816
68 0.34999999 0.28
68 0.40000001 0.27360001
68 0.44999999 0.28479999
68 0.5 0.28
68 0.55000001 0.27759999
68 0.60000002 0.27680001
68 0.64999998 0.26800001
68 0.69999999 0.26719999
68 0.75 0.2656
68 0.80000001 0.26719999
68 0.85000002 0.27520001
68 0.89999998 0.28639999
68 0.94999999 0.27200001
68 1 0.27520001
68 1.05 0.2656
68 1.1 0.2656
68 1.15 0.25999999
68 1.2 0.25999999
68 1.25 0.26320001
68 1.3 0.25760001
68 1.35 0.25040001
68 1.4 0.23999999
68 1.45 0.248
68 1.5 0.244
68 1.55 0.248
68 1.6 0.24160001
68 1.65 0.2464
68 1.7 0.24240001
68 1.75 0.25279999
68 1.8 0.25119999
68 1.85 0.2552
68 1.9 0.26879999
68 1.95 0.38159999
68 2 0.2552
68 2.05 0.25440001
68 2.0999999 0.2568
68 2.1500001 0.25839999
68 2.2 0.252
68 2.25 0.252
68 2.3 0.25600001
68 2.3499999 0.25279999
68 2.4000001 0.24879999
68 2.45 0.2552
68 2.5 0.244
68 2.55 0.2456
68 2.5999999 0.2448
68 2.6500001 0.2456
68 2.7 0.2456
68 2.75 0.2448
68 2.8 0.24160001
68 2.8499999 0.2352
68 2.9000001 0.22400001
68 2.95 0.2272
68 3 0.2352
68 3.05 0.2288
68 3.0999999 0.2384
68 3.1500001 0.23280001
68 3.2 0.2384
68 3.25 0.24079999
68 3.3 0.2256
68 3.3499999 0.22480001
68 3.4000001 0.2256
68 3.45 0.2288
68 3.5 0.2304
68 3.55 0.23119999
68 3.5999999 0.22480001
68 3.6500001 0.2264
68 3.7 0.2296
68 3.75 0.23360001
68 3.8 0.2296
68 3.8499999 0.24079999
68 3.9000001 0.23199999
68 3.95 0.2176
68 4 0.2184
68 4.0500002 0.22
68 4.0999999 0.2184
68 4.1500001 0.2296
68 4.1999998 0.2264
68 4.25 0.228
68 4.3000002 0.2168
68 4.3499999 0.21520001
68 4.4000001 0.2128
68 4.4499998 0.212
68 4.5 0.21520001
68 4.5500002 0.21439999
68 4.5999999 0.21359999
68 4.6500001 0.22400001
68 4.6999998 0.21359999
68 4.75 0.2096
68 4.8000002 0.2096
68 4.8499999 0.2128
68 4.9000001 0.21359999
68 4.9499998 0.2128
68 5 0.2112
68 5.0500002 0.21520001
68 5.0999999 0.208
68 5.1500001 0.212
68 5.1999998 0.2104
68 5.25 0.2112
68 5.3000002 0.20559999
68 5.3499999 0.20559999
68 5.4000001 0.20640001
68 5.4499998 0.212
68 5.5 0.20640001
68 5.5500002 0.20720001
68 5.5999999 0.20479999
68 5.6500001 0.2032
68 5.6999998 0.19679999
68 5.75 0.1936
68 5.8000002 0.2008
68 5.8499999 0.20479999
68 5.9000001 0.2024
68 5.9499998 0.204
68 6 0.2016
68 6.0500002 0.1944
68 6.0999999 0.1992
68 6.1500001 0.2
68 6.1999998 0.19840001
68 6.25 0.1992
68 6.3000002 0.1992
68 6.3499999 0.19679999
68 6.4000001 0.19760001
68 6.4499998 0.2016
68 6.5 0.19760001
68 6.5500002 0.1936
68 6.5999999 0.192
68 6.6500001 0.1944
68 6.6999998 0.19679999
68 6.75 0.1912
68 6.8000002 0.1912
68 6.8499999 0.19599999
68 6.9000001 0.18960001
68 6.9499998 0.18880001
68 7 0.1904
68 7.0500002 0.18880001
68 7.0999999 0.18799999
68 7.1500001 0.18719999
68 7.1999998 0.1848
68 7.25 0.18799999
68 7.3000002 0.1816
68 7.3499999 0.1824
68 7.4000001 0.1816
68 7.4499998 0.176
68 7.5 0.1736
68 7.5500002 0.1664
68 7.5999999 0.1552
68 7.6500001 0.1584
68 7.6999998 0.16240001
68 7.75 0.1608
68 7.8000002 0.16
68 7.8499999 0.1672
68 7.9000001 0.17120001
68 7.9499998 0.1696
68 8 0.1576
68 8.0500002 0.1648
68 8.1000004 0.1672
68 8.1499996 0.164
68 8.1999998 0.1656
68 8.25 0.1584
68 8.3000002 0.1608
68 8.3500004 0.164
68 8.3999996 0.1656
68 8.4499998 0.16240001
68 8.5 0.16240001
68 8.5500002 0.1656
68 8.6000004 0.1736
68 8.6499996 0.18000001
68 8.6999998 0.1672
68 8.75 0.15440001
68 8.8000002 0.1552
68 8.8500004 0.1568
68 8.8999996 0.152
68 8.9499998 0.1576
68 9 0.15279999
68 9.0500002 0.1512
68 9.1000004 0.1512
68 9.1499996 0.1496
68 9.1999998 0.156
68 9.25 0.16
68 9.3000002 0.15279999
68 9.3500004 0.1512
68 9.3999996 0.1576
68 9.4499998 0.1592
68 9.5 0.156
68 9.5500002 0.16159999
68 9.6000004 0.15440001
68 9.6499996 0.1592
68 9.6999998 0.1576
68 9.75 0.1576
68 9.8000002 0.1552
68 9.8500004 0.1608
68 9.8999996 0.16
68 9.9499998 0.1584
68 10 0.15440001
68 10.05 0.1576
68 10.1 0.1592
68 10.15 0.16159999
68 10.2 0.1584
68 10.25 0.112
68 10.3 0.29840001
68 10.35 0.73199999
68 10.4 0.73439997
68 10.45 0.86879998
68 10.5 0.87040001
68 10.55 0.87360001
68 10.6 0.8696
68 10.65 0.84560001
68 10.7 0.83039999
68 10.75 0.78079998
68 10.8 0.73760003
68 10.85 0.69999999
68 10.9 0.6408
68 10.95 0.588
68 11 0.54799998
68 11.05 0.49680001
68 11.1 0.43279999
68 11.15 0.37040001
68 11.2 0.308
68 11.25 0.2448
68 11.3 0.18799999
68 11.35 0.1152
68.199997 0 0.28479999
68.199997 0.050000001 0.292
68.199997 0.1 0.29440001
68.199997 0.15000001 0.29280001
68.199997 0.2 0.29679999
68.199997 0.25 0.29280001
68.199997 0.30000001 0.28960001
68.199997 0.34999999 0.29359999
68.199997 0.40000001 0.2904
68.199997 0.44999999 0.2816
68.199997 0.5 0.28639999
68.199997 0.55000001 0.2784
68.199997 0.60000002 0.28400001
68.199997 0.64999998 0.26800001
68.199997 0.69999999 0.27520001
68.199997 0.75 0.28
68.199997 0.80000001 0.2744
68.199997 0.85000002 0.2696
68.199997 0.89999998 0.27599999
68.199997 0.94999999 0.2656
68.199997 1 0.28560001
68.199997 1.05 0.28479999
68.199997 1.1 0.2712
68.199997 1.15 0.264
68.199997 1.2 0.25279999
68.199997 1.25 0.2376
68.199997 1.3 0.24959999
68.199997 1.35 0.2624
68.199997 1.4 0.25119999
68.199997 1.45 0.2568
68.199997 1.5 0.25920001
68.199997 1.55 0.248
68.199997 1.6 0.25600001
68.199997 1.65 0.2464
68.199997 1.7 0.2432
68.199997 1.75 0.248
68.199997 1.8 0.24959999
68.199997 1.85 0.25999999
68.199997 1.9 0.25760001
68.199997 1.95 0.25119999
68.199997 2 0.25999999
68.199997 2.05 0.2552
68.199997 2.0999999 0.25040001
68.199997 2.1500001 0.25040001
68.199997 2.2 0.2432
68.199997 2.25 0.252
68.199997 2.3 0.2384
68.199997 2.3499999 0.2352
68.199997 2.4000001 0.244
68.199997 2.45 0.2392
68.199997 2.5 0.2352
68.199997 2.55 0.2392
68.199997 2.5999999 0.244
68.199997 2.6500001 0.2368
68.199997 2.7 0.2376
68.199997 2.75 0.23999999
68.199997 2.8 0.2384
68.199997 2.8499999 0.2368
68.199997 2.9000001 0.24079999
68.199997 2.95 0.23999999
68.199997 3 0.23199999
68.199997 3.05 0.2344
68.199997 3.0999999 0.2368
68.199997 3.1500001 0.23199999
68.199997 3.2 0.2344
68.199997 3.25 0.23199999
68.199997 3.3 0.23360001
68.199997 3.3499999 0.23199999
68.199997 3.4000001 0.2288
68.199997 3.45 0.2304
68.199997 3.5 0.2296
68.199997 3.55 0.2272
68.199997 3.5999999 0.2256
68.199997 3.6500001 0.23280001
68.199997 3.7 0.228
68.199997 3.75 0.2288
68.199997 3.8 0.22319999
68.199997 3.8499999 0.2256
68.199997 3.9000001 0.22319999
68.199997 3.95 0.22
68.199997 4 0.2288
68.199997 4.0500002 0.2344
68.199997 4.0999999 0.22
68.199997 4.1500001 0.22400001
68.199997 4.1999998 0.2192
68.199997 4.25 0.2216
68.199997 4.3000002 0.2176
68.199997 4.3499999 0.2168
68.199997 4.4000001 0.21520001
68.199997 4.4499998 0.2208
68.199997 4.5 0.2192
68.199997 4.5500002 0.21439999
68.199997 4.5999999 0.21439999
68.199997 4.6500001 0.2128
68.199997 4.6999998 0.21359999
68.199997 4.75 0.21359999
68.199997 4.8000002 0.2168
68.199997 4.8499999 0.21520001
68.199997 4.9000001 0.21600001
68.199997 4.9499998 0.208
68.199997 5 0.212
68.199997 5.0500002 0.2104
68.199997 5.0999999 0.20720001
68.199997 5.1500001 0.2088
68.199997 5.1999998 0.2088
68.199997 5.25 0.2104
68.199997 5.3000002 0.20640001
68.199997 5.3499999 0.20640001
68.199997 5.4000001 0.20720001
68.199997 5.4499998 0.20720001
68.199997 5.5 0.20720001
68.199997 5.5500002 0.208
68.199997 5.5999999 0.20559999
68.199997 5.6500001 0.208
68.199997 5.6999998 0.2032
68.199997 5.75 0.204
68.199997 5.8000002 0.20720001
68.199997 5.8499999 0.2008
68.199997 5.9000001 0.204
68.199997 5.9499998 0.20479999
68.199997 6 0.2016
68.199997 6.0500002 0.2024
68.199997 6.0999999 0.2008
68.199997 6.1500001 0.19760001
68.199997 6.1999998 0.19679999
68.199997 6.25 0.1944
68.199997 6.3000002 0.192
68.199997 6.3499999 0.1928
68.199997 6.4000001 0.19599999
68.199997 6.4499998 0.1936
68.199997 6.5 0.1912
68.199997 6.5500002 0.1944
68.199997 6.5999999 0.1912
68.199997 6.6500001 0.1928
68.199997 6.6999998 0.1904
68.199997 6.75 0.192
68.199997 6.8000002 0.1936
68.199997 6.8499999 0.1992
68.199997 6.9000001 0.1944
68.199997 6.9499998 0.1928
68.199997 7 0.192
68.199997 7.0500002 0.192
68.199997 7.0999999 0.1912
68.199997 7.1500001 0.18799999
68.199997 7.1999998 0.18960001
68.199997 7.25 0.1856
68.199997 7.3000002 0.18799999
68.199997 7.3499999 0.192
68.199997 7.4000001 0.1904
68.199997 7.4499998 0.1824
68.199997 7.5 0.18080001
68.199997 7.5500002 0.1584
68.199997 7.5999999 0.156
68.199997 7.6500001 0.164
68.199997 7.6999998 0.164
68.199997 7.75 0.164
68.199997 7.8000002 0.1608
68.199997 7.8499999 0.1608
68.199997 7.9000001 0.16240001
68.199997 7.9499998 0.1584
68.199997 8 0.1608
68.199997 8.0500002 0.164
68.199997 8.1000004 0.1648
68.199997 8.1499996 0.1648
68.199997 8.1999998 0.156
68.199997 8.25 0.164
68.199997 8.3000002 0.16240001
68.199997 8.3500004 0.16320001
68.199997 8.3999996 0.1648
68.199997 8.4499998 0.1664
68.199997 8.5 0.156
68.199997 8.5500002 0.15279999
68.199997 8.6000004 0.1592
68.199997 8.6499996 0.1576
68.199997 8.6999998 0.1648
68.199997 8.75 0.1664
68.199997 8.8000002 0.1608
68.199997 8.8500004 0.16240001
68.199997 8.8999996 0.1576
68.199997 8.9499998 0.1608
68.199997 9 0.16
68.199997 9.0500002 0.1552
68.199997 9.1000004 0.1608
68.199997 9.1499996 0.16159999
68.199997 9.1999998 0.1672
68.199997 9.25 0.16
68.199997 9.3000002 0.1568
68.199997 9.3500004 0.1592
68.199997 9.3999996 0.1648
68.199997 9.4499998 0.164
68.199997 9.5 0.1576
68.199997 9.5500002 0.1584
68.199997 9.6000004 0.16159999
68.199997 9.6499996 0.15360001
68.199997 9.6999998 0.156
68.199997 9.75 0.15360001
68.199997 9.8000002 0.16159999
68.199997 9.8500004 0.164
68.199997 9.8999996 0.1584
68.199997 9.9499998 0.1664
68.199997 10 0.1672
68.199997 10.05 0.1424
68.199997 10.1 0.1112
68.199997 10.15 0.3224
68.199997 10.2 0.7392
68.199997 10.25 0.74000001
68.199997 10.3 0.87519997
68.199997 10.35 0.86879998
68.199997 10.4 0.87040001
68.199997 10.45 0.86879998
68.199997 10.5 0.86080003
68.199997 10.55 0.82800001
68.199997 10.6 0.78640002
68.199997 10.65 0.74959999
68.199997 10.7 0.69999999
68.199997 10.75 0.65759999
68.199997 10.8 0.60640001
68.199997 10.85 0.57200003
68.199997 10.9 0.49680001
68.199997 10.95 0.46399999
68.199997 11 0.3928
68.400002 0 0.28080001
68.400002 0.050000001 0.29359999
68.400002 0.1 0.29679999
68.400002 0.15000001 0.29840001
68.400002 0.2 0.29840001
68.400002 0.25 0.29840001
68.400002 0.30000001 0.29359999
68.400002 0.34999999 0.2976
68.400002 0.40000001 0.28479999
68.400002 0.44999999 0.28960001
68.400002 0.5 0.30320001
68.400002 0.55000001 0.29120001
68.400002 0.60000002 0.2816
68.400002 0.64999998 0.26480001
68.400002 0.69999999 0.26719999
68.400002 0.75 0.26719999
68.400002 0.80000001 0.2696
68.400002 0.85000002 0.2608
68.400002 0.89999998 0.2712
68.400002 0.94999999 0.26800001
68.400002 1 0.2696
68.400002 1.05 0.26480001
68.400002 1.1 0.25279999
68.400002 1.15 0.25040001
68.400002 1.2 0.25119999
68.400002 1.25 0.25119999
68.400002 1.3 0.25279999
68.400002 1.35 0.2464
68.400002 1.4 0.25040001
68.400002 1.45 0.25440001
68.400002 1.5 0.25040001
68.400002 1.55 0.248
68.400002 1.6 0.25279999
68.400002 1.65 0.252
68.400002 1.7 0.25279999
68.400002 1.75 0.2472
68.400002 1.8 0.24879999
68.400002 1.85 0.244
68.400002 1.9 0.24959999
68.400002 1.95 0.2472
68.400002 2 0.2568
68.400002 2.05 0.24240001
68.400002 2.0999999 0.24079999
68.400002 2.1500001 0.24160001
68.400002 2.2 0.24240001
68.400002 2.25 0.248
68.400002 2.3 0.2464
68.400002 2.3499999 0.2448
68.400002 2.4000001 0.24079999
68.400002 2.45 0.244
68.400002 2.5 0.23280001
68.400002 2.55 0.23360001
68.400002 2.5999999 0.2432
68.400002 2.6500001 0.2352
68.400002 2.7 0.23280001
68.400002 2.75 0.236
68.400002 2.8 0.2376
68.400002 2.8499999 0.23999999
68.400002 2.9000001 0.23999999
68.400002 2.95 0.23119999
68.400002 3 0.2376
68.400002 3.05 0.23360001
68.400002 3.0999999 0.2376
68.400002 3.1500001 0.2344
68.400002 3.2 0.23280001
68.400002 3.25 0.22480001
68.400002 3.3 0.2376
68.400002 3.3499999 0.2288
68.400002 3.4000001 0.2304
68.400002 3.45 0.23199999
68.400002 3.5 0.23119999
68.400002 3.55 0.2376
68.400002 3.5999999 0.23119999
68.400002 3.6500001 0.23119999
68.400002 3.7 0.2288
68.400002 3.75 0.2272
68.400002 3.8 0.2344
68.400002 3.8499999 0.2272
68.400002 3.9000001 0.22480001
68.400002 3.95 0.2192
68.400002 4 0.22239999
68.400002 4.0500002 0.2184
68.400002 4.0999999 0.2184
68.400002 4.1500001 0.2184
68.400002 4.1999998 0.2192
68.400002 4.25 0.2192
68.400002 4.3000002 0.21600001
68.400002 4.3499999 0.2176
68.400002 4.4000001 0.2176
68.400002 4.4499998 0.2184
68.400002 4.5 0.22
68.400002 4.5500002 0.21439999
68.400002 4.5999999 0.2184
68.400002 4.6500001 0.2128
68.400002 4.6999998 0.2128
68.400002 4.75 0.2112
68.400002 4.8000002 0.212
68.400002 4.8499999 0.212
68.400002 4.9000001 0.2112
68.400002 4.9499998 0.2128
68.400002 5 0.212
68.400002 5.0500002 0.2192
68.400002 5.0999999 0.2112
68.400002 5.1500001 0.212
68.400002 5.1999998 0.212
68.400002 5.25 0.21359999
68.400002 5.3000002 0.208
68.400002 5.3499999 0.2104
68.400002 5.4000001 0.2104
68.400002 5.4499998 0.20720001
68.400002 5.5 0.20640001
68.400002 5.5500002 0.20479999
68.400002 5.5999999 0.2024
68.400002 5.6500001 0.20479999
68.400002 5.6999998 0.2024
68.400002 5.75 0.20559999
68.400002 5.8000002 0.20559999
68.400002 5.8499999 0.2016
68.400002 5.9000001 0.19840001
68.400002 5.9499998 0.1992
68.400002 6 0.1992
68.400002 6.0500002 0.1992
68.400002 6.0999999 0.19760001
68.400002 6.1500001 0.1952
68.400002 6.1999998 0.19760001
68.400002 6.25 0.1952
68.400002 6.3000002 0.1912
68.400002 6.3499999 0.1944
68.400002 6.4000001 0.1944
68.400002 6.4499998 0.1936
68.400002 6.5 0.1904
68.400002 6.5500002 0.18880001
68.400002 6.5999999 0.1912
68.400002 6.6500001 0.18960001
68.400002 6.6999998 0.1904
68.400002 6.75 0.18799999
68.400002 6.8000002 0.1816
68.400002 6.8499999 0.18719999
68.400002 6.9000001 0.18719999
68.400002 6.9499998 0.18799999
68.400002 7 0.18719999
68.400002 7.0500002 0.18719999
68.400002 7.0999999 0.17919999
68.400002 7.1500001 0.18799999
68.400002 7.1999998 0.1856
68.400002 7.25 0.17839999
68.400002 7.3000002 0.18080001
68.400002 7.3499999 0.1864
68.400002 7.4000001 0.1856
68.400002 7.4499998 0.17839999
68.400002 7.5 0.18000001
68.400002 7.5500002 0.15279999
68.400002 7.5999999 0.1592
68.400002 7.6500001 0.1608
68.400002 7.6999998 0.16
68.400002 7.75 0.1664
68.400002 7.8000002 0.168
68.400002 7.8499999 0.1664
68.400002 7.9000001 0.1696
68.400002 7.9499998 0.16320001
68.400002 8 0.1664
68.400002 8.0500002 0.1648
68.400002 8.1000004 0.1664
68.400002 8.1499996 0.16240001
68.400002 8.1999998 0.1608
68.400002 8.25 0.16240001
68.400002 8.3000002 0.1648
68.400002 8.3500004 0.1608
68.400002 8.3999996 0.1648
68.400002 8.4499998 0.1576
68.400002 8.5 0.16
68.400002 8.5500002 0.16159999
68.400002 8.6000004 0.16
68.400002 8.6499996 0.1608
68.400002 8.6999998 0.1584
68.400002 8.75 0.164
68.400002 8.8000002 0.1568
68.400002 8.8500004 0.1584
68.400002 8.8999996 0.16320001
68.400002 8.9499998 0.16
68.400002 9 0.16240001
68.400002 9.0500002 0.16320001
68.400002 9.1000004 0.1608
68.400002 9.1499996 0.16159999
68.400002 9.1999998 0.1728
68.400002 9.25 0.1568
68.400002 9.3000002 0.1664
68.400002 9.3500004 0.1592
68.400002 9.3999996 0.16240001
68.400002 9.4499998 0.1608
68.400002 9.5 0.1552
68.400002 9.5500002 0.164
68.400002 9.6000004 0.1592
68.400002 9.6499996 0.1608
68.400002 9.6999998 0.16240001
68.400002 9.75 0.1648
68.400002 9.8000002 0.16320001
68.400002 9.8500004 0.1648
68.400002 9.8999996 0.1512
68.400002 9.9499998 0.148
68.400002 10 0.62080002
68.400002 10.05 0.7288
68.400002 10.1 0.7392
68.400002 10.15 0.87040001
68.400002 10.2 0.8696
68.400002 10.25 0.8768
68.400002 10.3 0.86559999
68.400002 10.35 0.84719998
68.400002 10.4 0.81199998
68.400002 10.45 0.78320003
68.400002 10.5 0.75199997
68.400002 10.55 0.70319998
68.400002 10.6 0.65920001
68.400002 10.65 0.60720003
68.400002 10.7 0.58399999
68.400002 10.75 0.53039998
68.400002 10.8 0.46799999
68.400002 10.85 0.4032
68.400002 10.9 0.35440001
68.599998 0 0.2888
68.599998 0.050000001 0.2904
68.599998 0.1 0.29840001
68.599998 0.15000001 0.29679999
68.599998 0.2 0.28960001
68.599998 0.25 0.29519999
68.599998 0.30000001 0.28960001
68.599998 0.34999999 0.28639999
68.599998 0.40000001 0.28080001
68.599998 0.44999999 0.2816
68.599998 0.5 0.28400001
68.599998 0.55000001 0.2816
68.599998 0.60000002 0.2696
68.599998 0.64999998 0.26800001
68.599998 0.69999999 0.26879999
68.599998 0.75 0.28
68.599998 0.80000001 0.26640001
68.599998 0.85000002 0.2784
68.599998 0.89999998 0.27759999
68.599998 0.94999999 0.27360001
68.599998 1 0.26879999
68.599998 1.05 0.2784
68.599998 1.1 0.27520001
68.599998 1.15 0.26719999
68.599998 1.2 0.26640001
68.599998 1.25 0.26640001
68.599998 1.3 0.264
68.599998 1.35 0.26159999
68.599998 1.4 0.26320001
68.599998 1.45 0.2608
68.599998 1.5 0.2608
68.599998 1.55 0.2608
68.599998 1.6 0.25920001
68.599998 1.65 0.25839999
68.599998 1.7 0.25839999
68.599998 1.75 0.2552
68.599998 1.8 0.25600001
68.599998 1.85 0.25760001
68.599998 1.9 0.2536
68.599998 1.95 0.2536
68.599998 2 0.252
68.599998 2.05 0.2536
68.599998 2.0999999 0.24959999
68.599998 2.1500001 0.2536
68.599998 2.2 0.25440001
68.599998 2.25 0.24879999
68.599998 2.3 0.248
68.599998 2.3499999 0.2472
68.599998 2.4000001 0.24959999
68.599998 2.45 0.25119999
68.599998 2.5 0.248
68.599998 2.55 0.252
68.599998 2.5999999 0.24959999
68.599998 2.6500001 0.2448
68.599998 2.7 0.2456
68.599998 2.75 0.24959999
68.599998 2.8 0.2448
68.599998 2.8499999 0.248
68.599998 2.9000001 0.2464
68.599998 2.95 0.24879999
68.599998 3 0.248
68.599998 3.05 0.2448
68.599998 3.0999999 0.2456
68.599998 3.1500001 0.24879999
68.599998 3.2 0.24959999
68.599998 3.25 0.2472
68.599998 3.3 0.24879999
68.599998 3.3499999 0.24879999
68.599998 3.4000001 0.248
68.599998 3.45 0.2448
68.599998 3.5 0.24879999
68.599998 3.55 0.2464
68.599998 3.5999999 0.24079999
68.599998 3.6500001 0.2376
68.599998 3.7 0.23199999
68.599998 3.75 0.2392
68.599998 3.8 0.25040001
68.599998 3.8499999 0.2456
68.599998 3.9000001 0.2368
68.599998 3.95 0.2384
68.599998 4 0.23999999
68.599998 4.0500002 0.22480001
68.599998 4.0999999 0.2288
68.599998 4.1500001 0.2352
68.599998 4.1999998 0.23119999
68.599998 4.25 0.228
68.599998 4.3000002 0.2176
68.599998 4.3499999 0.2184
68.599998 4.4000001 0.2208
68.599998 4.4499998 0.21520001
68.599998 4.5 0.21359999
68.599998 4.5500002 0.21439999
68.599998 4.5999999 0.22
68.599998 4.6500001 0.2168
68.599998 4.6999998 0.21439999
68.599998 4.75 0.2128
68.599998 4.8000002 0.21520001
68.599998 4.8499999 0.212
68.599998 4.9000001 0.212
68.599998 4.9499998 0.20640001
68.599998 5 0.2128
68.599998 5.0500002 0.212
68.599998 5.0999999 0.212
68.599998 5.1500001 0.208
68.599998 5.1999998 0.20640001
68.599998 5.25 0.212
68.599998 5.3000002 0.208
68.599998 5.3499999 0.2088
68.599998 5.4000001 0.204
68.599998 5.4499998 0.20479999
68.599998 5.5 0.20640001
68.599998 5.5500002 0.208
68.599998 5.5999999 0.2088
68.599998 5.6500001 0.2032
68.599998 5.6999998 0.20479999
68.599998 5.75 0.2024
68.599998 5.8000002 0.20479999
68.599998 5.8499999 0.2016
68.599998 5.9000001 0.2008
68.599998 5.9499998 0.2032
68.599998 6 0.2016
68.599998 6.0500002 0.1952
68.599998 6.0999999 0.2
68.599998 6.1500001 0.19840001
68.599998 6.1999998 0.19760001
68.599998 6.25 0.19679999
68.599998 6.3000002 0.1944
68.599998 6.3499999 0.1944
68.599998 6.4000001 0.1912
68.599998 6.4499998 0.18960001
68.599998 6.5 0.1936
68.599998 6.5500002 0.1904
68.599998 6.5999999 0.1912
68.599998 6.6500001 0.18960001
68.599998 6.6999998 0.18719999
68.599998 6.75 0.18960001
68.599998 6.8000002 0.18880001
68.599998 6.8499999 0.1824
68.599998 6.9000001 0.1832
68.599998 6.9499998 0.1848
68.599998 7 0.1816
68.599998 7.0500002 0.18000001
68.599998 7.0999999 0.1824
68.599998 7.1500001 0.1848
68.599998 7.1999998 0.18000001
68.599998 7.25 0.184
68.599998 7.3000002 0.1816
68.599998 7.3499999 0.1776
68.599998 7.4000001 0.17839999
68.599998 7.4499998 0.184
68.599998 7.5 0.184
68.599998 7.5500002 0.156
68.599998 7.5999999 0.15360001
68.599998 7.6500001 0.16240001
68.599998 7.6999998 0.1688
68.599998 7.75 0.164
68.599998 7.8000002 0.17039999
68.599998 7.8499999 0.1688
68.599998 7.9000001 0.168
68.599998 7.9499998 0.1664
68.599998 8 0.16320001
68.599998 8.0500002 0.1608
68.599998 8.1000004 0.16159999
68.599998 8.1499996 0.168
68.599998 8.1999998 0.16159999
68.599998 8.25 0.1584
68.599998 8.3000002 0.164
68.599998 8.3500004 0.1592
68.599998 8.3999996 0.1576
68.599998 8.4499998 0.164
68.599998 8.5 0.1656
68.599998 8.5500002 0.1656
68.599998 8.6000004 0.1576
68.599998 8.6499996 0.1584
68.599998 8.6999998 0.16240001
68.599998 8.75 0.1664
68.599998 8.8000002 0.1656
68.599998 8.8500004 0.1608
68.599998 8.8999996 0.16320001
68.599998 8.9499998 0.17200001
68.599998 9 0.1664
68.599998 9.0500002 0.164
68.599998 9.1000004 0.1552
68.599998 9.1499996 0.15360001
68.599998 9.1999998 0.1496
68.599998 9.25 0.15279999
68.599998 9.3000002 0.1592
68.599998 9.3500004 0.17039999
68.599998 9.3999996 0.1608
68.599998 9.4499998 0.1608
68.599998 9.5 0.1656
68.599998 9.5500002 0.1568
68.599998 9.6000004 0.1568
68.599998 9.6499996 0.164
68.599998 9.6999998 0.156
68.599998 9.75 0.14480001
68.599998 9.8000002 0.2696
68.599998 9.8500004 0.74479997
68.599998 9.8999996 0.74080002
68.599998 9.9499998 0.76160002
68.599998 10 0.87599999
68.599998 10.05 0.8696
68.599998 10.1 0.87040001
68.599998 10.15 0.85839999
68.599998 10.2 0.8344
68.599998 10.25 0.80879998
68.599998 10.3 0.77999997
68.599998 10.35 0.73360002
68.599998 10.4 0.7008
68.599998 10.45 0.64560002
68.599998 10.5 0.60879999
68.599998 10.55 0.56160003
68.599998 10.6 0.51440001
68.599998 10.65 0.47279999
68.599998 10.7 0.42559999
68.599998 10.75 0.3712
68.599998 10.8 0.30320001
68.599998 10.85 0.2536
68.800003 0 0.264
68.800003 0.050000001 0.26719999
68.800003 0.1 0.26640001
68.800003 0.15000001 0.2568
68.800003 0.2 0.26480001
68.800003 0.25 0.26800001
68.800003 0.30000001 0.2624
68.800003 0.34999999 0.27039999
68.800003 0.40000001 0.264
68.800003 0.44999999 0.27919999
68.800003 0.5 0.2744
68.800003 0.55000001 0.2816
68.800003 0.60000002 0.27520001
68.800003 0.64999998 0.27680001
68.800003 0.69999999 0.2696
68.800003 0.75 0.2696
68.800003 0.80000001 0.2696
68.800003 0.85000002 0.2696
68.800003 0.89999998 0.2696
68.800003 0.94999999 0.2656
68.800003 1 0.26640001
68.800003 1.05 0.26640001
68.800003 1.1 0.2656
68.800003 1.15 0.2624
68.800003 1.2 0.26159999
68.800003 1.25 0.2608
68.800003 1.3 0.2608
68.800003 1.35 0.25999999
68.800003 1.4 0.25920001
68.800003 1.45 0.2608
68.800003 1.5 0.25920001
68.800003 1.55 0.2624
68.800003 1.6 0.2608
68.800003 1.65 0.25760001
68.800003 1.7 0.2568
68.800003 1.75 0.25440001
68.800003 1.8 0.25440001
68.800003 1.85 0.25760001
68.800003 1.9 0.2536
68.800003 1.95 0.2536
68.800003 2 0.25119999
68.800003 2.05 0.252
68.800003 2.0999999 0.252
68.800003 2.1500001 0.25040001
68.800003 2.2 0.25040001
68.800003 2.25 0.25440001
68.800003 2.3 0.25040001
68.800003 2.3499999 0.24879999
68.800003 2.4000001 0.24959999
68.800003 2.45 0.25119999
68.800003 2.5 0.25040001
68.800003 2.55 0.25119999
68.800003 2.5999999 0.25119999
68.800003 2.6500001 0.248
68.800003 2.7 0.25040001
68.800003 2.75 0.252
68.800003 2.8 0.24959999
68.800003 2.8499999 0.25040001
68.800003 2.9000001 0.24959999
68.800003 2.95 0.24959999
68.800003 3 0.248
68.800003 3.05 0.24879999
68.800003 3.0999999 0.248
68.800003 3.1500001 0.24879999
68.800003 3.2 0.248
68.800003 3.25 0.24879999
68.800003 3.3 0.25920001
68.800003 3.3499999 0.25279999
68.800003 3.4000001 0.25600001
68.800003 3.45 0.25920001
68.800003 3.5 0.25040001
68.800003 3.55 0.2456
68.800003 3.5999999 0.2456
68.800003 3.6500001 0.2464
68.800003 3.7 0.24959999
68.800003 3.75 0.248
68.800003 3.8 0.252
68.800003 3.8499999 0.24879999
68.800003 3.9000001 0.2464
68.800003 3.95 0.2448
68.800003 4 0.24240001
68.800003 4.0500002 0.24079999
68.800003 4.0999999 0.24079999
68.800003 4.1500001 0.2448
68.800003 4.1999998 0.24079999
68.800003 4.25 0.2368
68.800003 4.3000002 0.2304
68.800003 4.3499999 0.23280001
68.800003 4.4000001 0.2184
68.800003 4.4499998 0.22239999
68.800003 4.5 0.2168
68.800003 4.5500002 0.22
68.800003 4.5999999 0.2192
68.800003 4.6500001 0.2168
68.800003 4.6999998 0.21359999
68.800003 4.75 0.21600001
68.800003 4.8000002 0.21359999
68.800003 4.8499999 0.212
68.800003 4.9000001 0.2112
68.800003 4.9499998 0.2168
68.800003 5 0.21520001
68.800003 5.0500002 0.2096
68.800003 5.0999999 0.2104
68.800003 5.1500001 0.208
68.800003 5.1999998 0.2088
68.800003 5.25 0.2184
68.800003 5.3000002 0.212
68.800003 5.3499999 0.20640001
68.800003 5.4000001 0.2032
68.800003 5.4499998 0.2104
68.800003 5.5 0.20640001
68.800003 5.5500002 0.20479999
68.800003 5.5999999 0.20479999
68.800003 5.6500001 0.2008
68.800003 5.6999998 0.204
68.800003 5.75 0.19840001
68.800003 5.8000002 0.2032
68.800003 5.8499999 0.204
68.800003 5.9000001 0.19840001
68.800003 5.9499998 0.19679999
68.800003 6 0.19599999
68.800003 6.0500002 0.1928
68.800003 6.0999999 0.1992
68.800003 6.1500001 0.19840001
68.800003 6.1999998 0.19679999
68.800003 6.25 0.19599999
68.800003 6.3000002 0.1904
68.800003 6.3499999 0.19679999
68.800003 6.4000001 0.18960001
68.800003 6.4499998 0.1912
68.800003 6.5 0.19679999
68.800003 6.5500002 0.1904
68.800003 6.5999999 0.19760001
68.800003 6.6500001 0.2
68.800003 6.6999998 0.1936
68.800003 6.75 0.192
68.800003 6.8000002 0.18799999
68.800003 6.8499999 0.1912
68.800003 6.9000001 0.1904
68.800003 6.9499998 0.18799999
68.800003 7 0.1816
68.800003 7.0500002 0.18000001
68.800003 7.0999999 0.192
68.800003 7.1500001 0.184
68.800003 7.1999998 0.1832
68.800003 7.25 0.18080001
68.800003 7.3000002 0.1816
68.800003 7.3499999 0.1768
68.800003 7.4000001 0.17919999
68.800003 7.4499998 0.18080001
68.800003 7.5 0.18080001
68.800003 7.5500002 0.1568
68.800003 7.5999999 0.16320001
68.800003 7.6500001 0.16
68.800003 7.6999998 0.16159999
68.800003 7.75 0.1648
68.800003 7.8000002 0.1672
68.800003 7.8499999 0.1648
68.800003 7.9000001 0.16240001
68.800003 7.9499998 0.164
68.800003 8 0.1576
68.800003 8.0500002 0.16320001
68.800003 8.1000004 0.1608
68.800003 8.1499996 0.16159999
68.800003 8.1999998 0.16159999
68.800003 8.25 0.164
68.800003 8.3000002 0.1576
68.800003 8.3500004 0.1648
68.800003 8.3999996 0.1648
68.800003 8.4499998 0.16
68.800003 8.5 0.16320001
68.800003 8.5500002 0.16
68.800003 8.6000004 0.16159999
68.800003 8.6499996 0.16
68.800003 8.6999998 0.17039999
68.800003 8.75 0.1592
68.800003 8.8000002 0.15360001
68.800003 8.8500004 0.1584
68.800003 8.8999996 0.1664
68.800003 8.9499998 0.1688
68.800003 9 0.16320001
68.800003 9.0500002 0.16
68.800003 9.1000004 0.1568
68.800003 9.1499996 0.164
68.800003 9.1999998 0.1696
68.800003 9.25 0.1664
68.800003 9.3000002 0.1672
68.800003 9.3500004 0.16320001
68.800003 9.3999996 0.16240001
68.800003 9.4499998 0.1664
68.800003 9.5 0.1584
68.800003 9.5500002 0.1248
68.800003 9.6000004 0.056000002
68.800003 9.6499996 0.72479999
68.800003 9.6999998 0.73760003
68.800003 9.75 0.8168
68.800003 9.8000002 0.87199998
68.800003 9.8500004 0.87279999
68.800003 9.8999996 0.87199998
68.800003 9.9499998 0.87279999
68.800003 10 0.84719998
68.800003 10.05 0.82239997
68.800003 10.1 0.79680002
68.800003 10.15 0.764
68.800003 10.2 0.72399998
68.800003 10.25 0.68000001
68.800003 10.3 0.63200003
68.800003 10.35 0.60399997
68.800003 10.4 0.55519998
69 0 0.2656
69 0.050000001 0.26480001
69 0.1 0.264
69 0.15000001 0.26480001
69 0.2 0.2608
69 0.25 0.26480001
69 0.30000001 0.26640001
69 0.34999999 0.26879999
69 0.40000001 0.2696
69 0.44999999 0.26879999
69 0.5 0.2728
69 0.55000001 0.27680001
69 0.60000002 0.27680001
69 0.64999998 0.27200001
69 0.69999999 0.2728
69 0.75 0.2712
69 0.80000001 0.26800001
69 0.85000002 0.26879999
69 0.89999998 0.26719999
69 0.94999999 0.26879999
69 1 0.26719999
69 1.05 0.26480001
69 1.1 0.26480001
69 1.15 0.26159999
69 1.2 0.2608
69 1.25 0.25999999
69 1.3 0.25839999
69 1.35 0.25999999
69 1.4 0.25999999
69 1.45 0.2608
69 1.5 0.25839999
69 1.55 0.25920001
69 1.6 0.25920001
69 1.65 0.2568
69 1.7 0.25600001
69 1.75 0.25440001
69 1.8 0.25440001
69 1.85 0.25279999
69 1.9 0.2536
69 1.95 0.25279999
69 2 0.25279999
69 2.05 0.252
69 2.0999999 0.2464
69 2.1500001 0.25440001
69 2.2 0.2552
69 2.25 0.24959999
69 2.3 0.25119999
69 2.3499999 0.25040001
69 2.4000001 0.252
69 2.45 0.25119999
69 2.5 0.25040001
69 2.55 0.252
69 2.5999999 0.25279999
69 2.6500001 0.25040001
69 2.7 0.2536
69 2.75 0.25040001
69 2.8 0.24879999
69 2.8499999 0.2448
69 2.9000001 0.2448
69 2.95 0.24959999
69 3 0.24959999
69 3.05 0.248
69 3.0999999 0.24879999
69 3.1500001 0.2464
69 3.2 0.2472
69 3.25 0.2472
69 3.3 0.2464
69 3.3499999 0.2448
69 3.4000001 0.2448
69 3.45 0.24240001
69 3.5 0.2552
69 3.55 0.27520001
69 3.5999999 0.25040001
69 3.6500001 0.244
69 3.7 0.2376
69 3.75 0.25040001
69 3.8 0.248
69 3.8499999 0.2456
69 3.9000001 0.2432
69 3.95 0.23280001
69 4 0.2464
69 4.0500002 0.244
69 4.0999999 0.2464
69 4.1500001 0.24879999
69 4.1999998 0.2448
69 4.25 0.24879999
69 4.3000002 0.2744
69 4.3499999 0.2376
69 4.4000001 0.23199999
69 4.4499998 0.2264
69 4.5 0.2192
69 4.5500002 0.23119999
69 4.5999999 0.2288
69 4.6500001 0.23360001
69 4.6999998 0.21439999
69 4.75 0.228
69 4.8000002 0.2216
69 4.8499999 0.22400001
69 4.9000001 0.2208
69 4.9499998 0.21359999
69 5 0.21520001
69 5.0500002 0.21520001
69 5.0999999 0.21359999
69 5.1500001 0.2128
69 5.1999998 0.2104
69 5.25 0.2096
69 5.3000002 0.208
69 5.3499999 0.2104
69 5.4000001 0.2104
69 5.4499998 0.20559999
69 5.5 0.204
69 5.5500002 0.20479999
69 5.5999999 0.2032
69 5.6500001 0.2024
69 5.6999998 0.2
69 5.75 0.20640001
69 5.8000002 0.208
69 5.8499999 0.2016
69 5.9000001 0.2016
69 5.9499998 0.2016
69 6 0.19760001
69 6.0500002 0.1992
69 6.0999999 0.2024
69 6.1500001 0.2032
69 6.1999998 0.1944
69 6.25 0.1912
69 6.3000002 0.20479999
69 6.3499999 0.1928
69 6.4000001 0.1928
69 6.4499998 0.1936
69 6.5 0.1936
69 6.5500002 0.19679999
69 6.5999999 0.19679999
69 6.6500001 0.20479999
69 6.6999998 0.2024
69 6.75 0.19760001
69 6.8000002 0.1936
69 6.8499999 0.1904
69 6.9000001 0.1864
69 6.9499998 0.1824
69 7 0.18880001
69 7.0500002 0.18080001
69 7.0999999 0.184
69 7.1500001 0.1864
69 7.1999998 0.1832
69 7.25 0.17839999
69 7.3000002 0.184
69 7.3499999 0.176
69 7.4000001 0.184
69 7.4499998 0.1768
69 7.5 0.1824
69 7.5500002 0.15279999
69 7.5999999 0.16240001
69 7.6500001 0.1664
69 7.6999998 0.16
69 7.75 0.168
69 7.8000002 0.164
69 7.8499999 0.16320001
69 7.9000001 0.168
69 7.9499998 0.16240001
69 8 0.16240001
69 8.0500002 0.164
69 8.1000004 0.1608
69 8.1499996 0.16240001
69 8.1999998 0.1672
69 8.25 0.168
69 8.3000002 0.16240001
69 8.3500004 0.1664
69 8.3999996 0.1584
69 8.4499998 0.16
69 8.5 0.1768
69 8.5500002 0.17200001
69 8.6000004 0.176
69 8.6499996 0.168
69 8.6999998 0.1664
69 8.75 0.16240001
69 8.8000002 0.1568
69 8.8500004 0.1656
69 8.8999996 0.1664
69 8.9499998 0.1672
69 9 0.1664
69 9.0500002 0.1688
69 9.1000004 0.1584
69 9.1499996 0.1672
69 9.1999998 0.17120001
69 9.25 0.1664
69 9.3000002 0.1664
69 9.3500004 0.14560001
69 9.3999996 0.099200003
69 9.4499998 0.70719999
69 9.5 0.74000001
69 9.5500002 0.79519999
69 9.6000004 0.87599999
69 9.6499996 0.87840003
69 9.6999998 0.87120003
69 9.75 0.87279999
69 9.8000002 0.85600001
69 9.8500004 0.82880002
69 9.8999996 0.80400002
69 9.9499998 0.77280003
69 10 0.73839998
69 10.05 0.70480001
69 10.1 0.65280002
69 10.15 0.60879999
69 10.2 0.56879997
69 10.25 0.52960002
69 10.3 0.47999999
69 10.35 0.44639999
69.199997 0 0.26480001
69.199997 0.050000001 0.2656
69.199997 0.1 0.25999999
69.199997 0.15000001 0.264
69.199997 0.2 0.25760001
69.199997 0.25 0.26879999
69.199997 0.30000001 0.2608
69.199997 0.34999999 0.26320001
69.199997 0.40000001 0.26640001
69.199997 0.44999999 0.27039999
69.199997 0.5 0.27039999
69.199997 0.55000001 0.27039999
69.199997 0.60000002 0.2696
69.199997 0.64999998 0.26879999
69.199997 0.69999999 0.26800001
69.199997 0.75 0.26879999
69.199997 0.80000001 0.26800001
69.199997 0.85000002 0.26719999
69.199997 0.89999998 0.26719999
69.199997 0.94999999 0.26480001
69.199997 1 0.26480001
69.199997 1.05 0.26480001
69.199997 1.1 0.2624
69.199997 1.15 0.2624
69.199997 1.2 0.2608
69.199997 1.25 0.2608
69.199997 1.3 0.25920001
69.199997 1.35 0.25999999
69.199997 1.4 0.25600001
69.199997 1.45 0.2568
69.199997 1.5 0.25839999
69.199997 1.55 0.25600001
69.199997 1.6 0.25440001
69.199997 1.65 0.25119999
69.199997 1.7 0.25279999
69.199997 1.75 0.252
69.199997 1.8 0.24879999
69.199997 1.85 0.2384
69.199997 1.9 0.2368
69.199997 1.95 0.24160001
69.199997 2 0.25040001
69.199997 2.05 0.25279999
69.199997 2.0999999 0.252
69.199997 2.1500001 0.248
69.199997 2.2 0.24959999
69.199997 2.25 0.2472
69.199997 2.3 0.24160001
69.199997 2.3499999 0.244
69.199997 2.4000001 0.25040001
69.199997 2.45 0.25040001
69.199997 2.5 0.25040001
69.199997 2.55 0.252
69.199997 2.5999999 0.25040001
69.199997 2.6500001 0.24879999
69.199997 2.7 0.24879999
69.199997 2.75 0.248
69.199997 2.8 0.25040001
69.199997 2.8499999 0.248
69.199997 2.9000001 0.2464
69.199997 2.95 0.24879999
69.199997 3 0.244
69.199997 3.05 0.2472
69.199997 3.0999999 0.2464
69.199997 3.1500001 0.2464
69.199997 3.2 0.248
69.199997 3.25 0.248
69.199997 3.3 0.24879999
69.199997 3.3499999 0.2472
69.199997 3.4000001 0.2448
69.199997 3.45 0.244
69.199997 3.5 0.248
69.199997 3.55 0.25600001
69.199997 3.5999999 0.24959999
69.199997 3.6500001 0.25279999
69.199997 3.7 0.24879999
69.199997 3.75 0.24879999
69.199997 3.8 0.24879999
69.199997 3.8499999 0.2392
69.199997 3.9000001 0.2432
69.199997 3.95 0.24879999
69.199997 4 0.25040001
69.199997 4.0500002 0.2472
69.199997 4.0999999 0.2464
69.199997 4.1500001 0.23999999
69.199997 4.1999998 0.2208
69.199997 4.25 0.244
69.199997 4.3000002 0.2296
69.199997 4.3499999 0.2208
69.199997 4.4000001 0.248
69.199997 4.4499998 0.2344
69.199997 4.5 0.2288
69.199997 4.5500002 0.2352
69.199997 4.5999999 0.2392
69.199997 4.6500001 0.2384
69.199997 4.6999998 0.23999999
69.199997 4.75 0.2384
69.199997 4.8000002 0.24240001
69.199997 4.8499999 0.2304
69.199997 4.9000001 0.2208
69.199997 4.9499998 0.23360001
69.199997 5 0.236
69.199997 5.0500002 0.23360001
69.199997 5.0999999 0.2264
69.199997 5.1500001 0.2112
69.199997 5.1999998 0.2128
69.199997 5.25 0.21600001
69.199997 5.3000002 0.2384
69.199997 5.3499999 0.2288
69.199997 5.4000001 0.2344
69.199997 5.4499998 0.204
69.199997 5.5 0.2208
69.199997 5.5500002 0.20720001
69.199997 5.5999999 0.20479999
69.199997 5.6500001 0.2088
69.199997 5.6999998 0.2088
69.199997 5.75 0.2032
69.199997 5.8000002 0.204
69.199997 5.8499999 0.204
69.199997 5.9000001 0.19599999
69.199997 5.9499998 0.20479999
69.199997 6 0.2
69.199997 6.0500002 0.2024
69.199997 6.0999999 0.2016
69.199997 6.1500001 0.2
69.199997 6.1999998 0.2008
69.199997 6.25 0.1952
69.199997 6.3000002 0.19760001
69.199997 6.3499999 0.2008
69.199997 6.4000001 0.2032
69.199997 6.4499998 0.19679999
69.199997 6.5 0.19840001
69.199997 6.5500002 0.1992
69.199997 6.5999999 0.20479999
69.199997 6.6500001 0.204
69.199997 6.6999998 0.19840001
69.199997 6.75 0.2032
69.199997 6.8000002 0.2008
69.199997 6.8499999 0.208
69.199997 6.9000001 0.1912
69.199997 6.9499998 0.20479999
69.199997 7 0.18960001
69.199997 7.0500002 0.18880001
69.199997 7.0999999 0.18960001
69.199997 7.1500001 0.1904
69.199997 7.1999998 0.184
69.199997 7.25 0.1904
69.199997 7.3000002 0.1928
69.199997 7.3499999 0.1904
69.199997 7.4000001 0.1848
69.199997 7.4499998 0.1848
69.199997 7.5 0.18000001
69.199997 7.5500002 0.164
69.199997 7.5999999 0.16320001
69.199997 7.6500001 0.17039999
69.199997 7.6999998 0.1656
69.199997 7.75 0.164
69.199997 7.8000002 0.164
69.199997 7.8499999 0.17120001
69.199997 7.9000001 0.1752
69.199997 7.9499998 0.1688
69.199997 8 0.1752
69.199997 8.0500002 0.1664
69.199997 8.1000004 0.17039999
69.199997 8.1499996 0.1656
69.199997 8.1999998 0.168
69.199997 8.25 0.1656
69.199997 8.3000002 0.1752
69.199997 8.3500004 0.1696
69.199997 8.3999996 0.17039999
69.199997 8.4499998 0.17200001
69.199997 8.5 0.1648
69.199997 8.5500002 0.164
69.199997 8.6000004 0.1648
69.199997 8.6499996 0.1688
69.199997 8.6999998 0.1672
69.199997 8.75 0.1664
69.199997 8.8000002 0.1688
69.199997 8.8500004 0.16159999
69.199997 8.8999996 0.16240001
69.199997 8.9499998 0.1664
69.199997 9 0.1664
69.199997 9.0500002 0.17039999
69.199997 9.1000004 0.1656
69.199997 9.1499996 0.1224
69.199997 9.1999998 0.035999998
69.199997 9.25 0.75040001
69.199997 9.3000002 0.75040001
69.199997 9.3500004 0.74159998
69.199997 9.3999996 0.88
69.199997 9.4499998 0.88239998
69.199997 9.5 0.88080001
69.199997 9.5500002 0.87279999
69.199997 9.6000004 0.86080003
69.199997 9.6499996 0.81919998
69.199997 9.6999998 0.80080003
69.199997 9.75 0.77600002
69.199997 9.8000002 0.74800003
69.199997 9.8500004 0.69999999
69.199997 9.8999996 0.65920001
69.199997 9.9499998 0.63520002
69.199997 10 0.588
69.199997 10.05 0.53359997
69.400002 0 0.2656
69.400002 0.050000001 0.26320001
69.400002 0.1 0.2608
69.400002 0.15000001 0.264
69.400002 0.2 0.26159999
69.400002 0.25 0.264
69.400002 0.30000001 0.26320001
69.400002 0.34999999 0.27360001
69.400002 0.40000001 0.27039999
69.400002 0.44999999 0.2696
69.400002 0.5 0.2712
69.400002 0.55000001 0.2712
69.400002 0.60000002 0.2728
69.400002 0.64999998 0.27200001
69.400002 0.69999999 0.26640001
69.400002 0.75 0.26879999
69.400002 0.80000001 0.26800001
69.400002 0.85000002 0.26879999
69.400002 0.89999998 0.26640001
69.400002 0.94999999 0.2656
69.400002 1 0.264
69.400002 1.05 0.26320001
69.400002 1.1 0.2608
69.400002 1.15 0.25920001
69.400002 1.2 0.26159999
69.400002 1.25 0.25999999
69.400002 1.3 0.25600001
69.400002 1.35 0.2552
69.400002 1.4 0.2536
69.400002 1.45 0.25760001
69.400002 1.5 0.2568
69.400002 1.55 0.25440001
69.400002 1.6 0.25040001
69.400002 1.65 0.25440001
69.400002 1.7 0.23199999
69.400002 1.75 0.2304
69.400002 1.8 0.2288
69.400002 1.85 0.2304
69.400002 1.9 0.2304
69.400002 1.95 0.2352
69.400002 2 0.244
69.400002 2.05 0.2464
69.400002 2.0999999 0.24079999
69.400002 2.1500001 0.24240001
69.400002 2.2 0.23999999
69.400002 2.25 0.22400001
69.400002 2.3 0.2272
69.400002 2.3499999 0.2216
69.400002 2.4000001 0.2296
69.400002 2.45 0.2432
69.400002 2.5 0.2472
69.400002 2.55 0.24879999
69.400002 2.5999999 0.25040001
69.400002 2.6500001 0.2448
69.400002 2.7 0.2432
69.400002 2.75 0.2448
69.400002 2.8 0.2448
69.400002 2.8499999 0.2456
69.400002 2.9000001 0.2448
69.400002 2.95 0.2472
69.400002 3 0.2472
69.400002 3.05 0.244
69.400002 3.0999999 0.248
69.400002 3.1500001 0.2536
69.400002 3.2 0.2448
69.400002 3.25 0.2448
69.400002 3.3 0.2472
69.400002 3.3499999 0.2448
69.400002 3.4000001 0.248
69.400002 3.45 0.2456
69.400002 3.5 0.24240001
69.400002 3.55 0.248
69.400002 3.5999999 0.2432
69.400002 3.6500001 0.2448
69.400002 3.7 0.2448
69.400002 3.75 0.236
69.400002 3.8 0.2296
69.400002 3.8499999 0.2368
69.400002 3.9000001 0.228
69.400002 3.95 0.228
69.400002 4 0.2344
69.400002 4.0500002 0.2368
69.400002 4.0999999 0.2304
69.400002 4.1500001 0.236
69.400002 4.1999998 0.2368
69.400002 4.25 0.2392
69.400002 4.3000002 0.2256
69.400002 4.3499999 0.23280001
69.400002 4.4000001 0.22400001
69.400002 4.4499998 0.21600001
69.400002 4.5 0.2352
69.400002 4.5500002 0.23199999
69.400002 4.5999999 0.2256
69.400002 4.6500001 0.228
69.400002 4.6999998 0.2376
69.400002 4.75 0.2376
69.400002 4.8000002 0.2184
69.400002 4.8499999 0.23280001
69.400002 4.9000001 0.2352
69.400002 4.9499998 0.2392
69.400002 5 0.2392
69.400002 5.0500002 0.2304
69.400002 5.0999999 0.2128
69.400002 5.1500001 0.2208
69.400002 5.1999998 0.2288
69.400002 5.25 0.2432
69.400002 5.3000002 0.2112
69.400002 5.3499999 0.21600001
69.400002 5.4000001 0.208
69.400002 5.4499998 0.212
69.400002 5.5 0.204
69.400002 5.5500002 0.20640001
69.400002 5.5999999 0.20720001
69.400002 5.6500001 0.2088
69.400002 5.6999998 0.2016
69.400002 5.75 0.2024
69.400002 5.8000002 0.20559999
69.400002 5.8499999 0.2016
69.400002 5.9000001 0.2024
69.400002 5.9499998 0.2008
69.400002 6 0.19760001
69.400002 6.0500002 0.19840001
69.400002 6.0999999 0.19599999
69.400002 6.1500001 0.1952
69.400002 6.1999998 0.2008
69.400002 6.25 0.2
69.400002 6.3000002 0.19760001
69.400002 6.3499999 0.2032
69.400002 6.4000001 0.19840001
69.400002 6.4499998 0.1952
69.400002 6.5 0.1928
69.400002 6.5500002 0.19599999
69.400002 6.5999999 0.1952
69.400002 6.6500001 0.192
69.400002 6.6999998 0.1864
69.400002 6.75 0.1952
69.400002 6.8000002 0.204
69.400002 6.8499999 0.19840001
69.400002 6.9000001 0.23999999
69.400002 6.9499998 0.21439999
69.400002 7 0.22239999
69.400002 7.0500002 0.2024
69.400002 7.0999999 0.1992
69.400002 7.1500001 0.19679999
69.400002 7.1999998 0.1936
69.400002 7.25 0.1952
69.400002 7.3000002 0.19679999
69.400002 7.3499999 0.1928
69.400002 7.4000001 0.18719999
69.400002 7.4499998 0.1832
69.400002 7.5 0.17839999
69.400002 7.5500002 0.164
69.400002 7.5999999 0.1688
69.400002 7.6500001 0.1752
69.400002 7.6999998 0.1728
69.400002 7.75 0.1696
69.400002 7.8000002 0.17200001
69.400002 7.8499999 0.1672
69.400002 7.9000001 0.1656
69.400002 7.9499998 0.164
69.400002 8 0.164
69.400002 8.0500002 0.1752
69.400002 8.1000004 0.1672
69.400002 8.1499996 0.176
69.400002 8.1999998 0.1648
69.400002 8.25 0.17120001
69.400002 8.3000002 0.16240001
69.400002 8.3500004 0.1696
69.400002 8.3999996 0.17200001
69.400002 8.4499998 0.1664
69.400002 8.5 0.1736
69.400002 8.5500002 0.176
69.400002 8.6000004 0.17200001
69.400002 8.6499996 0.1728
69.400002 8.6999998 0.1728
69.400002 8.75 0.1696
69.400002 8.8000002 0.168
69.400002 8.8500004 0.1568
69.400002 8.8999996 0.14560001
69.400002 8.9499998 0.0528
69.400002 9 0.63440001
69.400002 9.0500002 0.75279999
69.400002 9.1000004 0.75599998
69.400002 9.1499996 0.87919998
69.400002 9.1999998 0.87919998
69.400002 9.25 0.884
69.400002 9.3000002 0.88319999
69.400002 9.3500004 0.88
69.400002 9.3999996 0.84560001
69.400002 9.4499998 0.82160002
69.400002 9.5 0.79119998
69.400002 9.5500002 0.76800001
69.400002 9.6000004 0.73040003
69.400002 9.6499996 0.68720001
69.400002 9.6999998 0.6688
69.400002 9.75 0.62
69.400002 9.8000002 0.59439999
69.400002 9.8500004 0.52880001
69.400002 9.8999996 0.49759999
69.599998 0 0.26480001
69.599998 0.050000001 0.26480001
69.599998 0.1 0.26480001
69.599998 0.15000001 0.2656
69.599998 0.2 0.26480001
69.599998 0.25 0.26159999
69.599998 0.30000001 0.2568
69.599998 0.34999999 0.26879999
69.599998 0.40000001 0.27039999
69.599998 0.44999999 0.27039999
69.599998 0.5 0.2696
69.599998 0.55000001 0.2728
69.599998 0.60000002 0.27520001
69.599998 0.64999998 0.2712
69.599998 0.69999999 0.2696
69.599998 0.75 0.26879999
69.599998 0.80000001 0.26800001
69.599998 0.85000002 0.26719999
69.599998 0.89999998 0.26640001
69.599998 0.94999999 0.264
69.599998 1 0.2624
69.599998 1.05 0.26159999
69.599998 1.1 0.264
69.599998 1.15 0.2608
69.599998 1.2 0.25760001
69.599998 1.25 0.25999999
69.599998 1.3 0.264
69.599998 1.35 0.2624
69.599998 1.4 0.2608
69.599998 1.45 0.25760001
69.599998 1.5 0.2568
69.599998 1.55 0.25839999
69.599998 1.6 0.2568
69.599998 1.65 0.25040001
69.599998 1.7 0.22480001
69.599998 1.75 0.236
69.599998 1.8 0.23199999
69.599998 1.85 0.23360001
69.599998 1.9 0.2264
69.599998 1.95 0.2264
69.599998 2 0.2288
69.599998 2.05 0.2344
69.599998 2.0999999 0.23280001
69.599998 2.1500001 0.23280001
69.599998 2.2 0.23280001
69.599998 2.25 0.2256
69.599998 2.3 0.22480001
69.599998 2.3499999 0.2368
69.599998 2.4000001 0.24959999
69.599998 2.45 0.24959999
69.599998 2.5 0.248
69.599998 2.55 0.24959999
69.599998 2.5999999 0.24879999
69.599998 2.6500001 0.2464
69.599998 2.7 0.24879999
69.599998 2.75 0.248
69.599998 2.8 0.248
69.599998 2.8499999 0.2472
69.599998 2.9000001 0.24879999
69.599998 2.95 0.2464
69.599998 3 0.2464
69.599998 3.05 0.2472
69.599998 3.0999999 0.2464
69.599998 3.1500001 0.2464
69.599998 3.2 0.2464
69.599998 3.25 0.2472
69.599998 3.3 0.2464
69.599998 3.3499999 0.23999999
69.599998 3.4000001 0.244
69.599998 3.45 0.2464
69.599998 3.5 0.244
69.599998 3.55 0.2456
69.599998 3.5999999 0.2456
69.599998 3.6500001 0.2448
69.599998 3.7 0.2432
69.599998 3.75 0.24240001
69.599998 3.8 0.2464
69.599998 3.8499999 0.2392
69.599998 3.9000001 0.2384
69.599998 3.95 0.24079999
69.599998 4 0.23280001
69.599998 4.0500002 0.2192
69.599998 4.0999999 0.2304
69.599998 4.1500001 0.21359999
69.599998 4.1999998 0.22239999
69.599998 4.25 0.2296
69.599998 4.3000002 0.23280001
69.599998 4.3499999 0.2352
69.599998 4.4000001 0.22319999
69.599998 4.4499998 0.228
69.599998 4.5 0.2128
69.599998 4.5500002 0.2272
69.599998 4.5999999 0.2256
69.599998 4.6500001 0.21600001
69.599998 4.6999998 0.2096
69.599998 4.75 0.2168
69.599998 4.8000002 0.21520001
69.599998 4.8499999 0.2184
69.599998 4.9000001 0.2192
69.599998 4.9499998 0.2288
69.599998 5 0.23360001
69.599998 5.0500002 0.2184
