# .PCD v0.7 - Point Cloud Data file format
VERSION 0.7
FIELDS x y z
SIZE 4 4 4
TYPE F F F
COUNT 1 1 1
WIDTH 2175
HEIGHT 1
VIEWPOINT 0 0 0 1 0 0 0
POINTS 2175
DATA ascii
15.4 7.0999999 0.1744
15.4 7.1500001 0.1816
15.4 7.1999998 0.1912
15.4 7.25 0.19679999
15.4 7.3000002 0.1864
15.4 7.3499999 0.2
15.4 7.4000001 0.19760001
15.4 7.4499998 0.1944
15.4 7.5 0.1944
15.4 7.5500002 0.2008
15.4 7.5999999 0.2
15.4 7.6500001 0.19840001
15.4 7.6999998 0.1816
15.4 7.75 0.1696
15.4 7.8000002 0.1672
15.4 7.8499999 0.1664
15.4 7.9000001 0.1728
15.4 7.9499998 0.17039999
15.4 8 0.1568
15.4 8.0500002 0.1576
15.4 8.1000004 0.16159999
15.4 8.1499996 0.1656
15.4 8.1999998 0.156
15.4 8.25 0.1568
15.4 8.3000002 0.1592
15.4 8.3500004 0.1608
15.4 8.3999996 0.16240001
15.4 8.4499998 0.16
15.4 8.5 0.1568
15.4 8.5500002 0.156
15.4 8.6000004 0.1568
15.4 8.6499996 0.1576
15.4 8.6999998 0.1608
15.4 8.75 0.1568
15.4 8.8000002 0.15440001
15.4 8.8500004 0.14399999
15.4 8.8999996 0.14480001
15.4 8.9499998 0.1488
15.4 9 0.1472
15.4 9.0500002 0.1408
15.4 9.1000004 0.14560001
15.4 9.1499996 0.1464
15.4 9.1999998 0.1488
15.4 9.25 0.1472
15.4 9.3000002 0.1424
15.4 9.3500004 0.1288
15.4 9.3999996 0.1224
15.4 9.4499998 0.116
15.4 9.5 0.12720001
15.4 9.5500002 0.1472
15.4 9.6000004 0.1408
15.4 9.6499996 0.1464
15.4 9.6999998 0.14399999
15.4 9.75 0.1464
15.4 9.8000002 0.14399999
15.4 9.8500004 0.14480001
15.4 9.8999996 0.14560001
15.4 9.9499998 0.1432
15.4 10 0.1424
15.4 10.05 0.1648
15.4 10.1 0.148
15.4 10.15 0.1424
15.4 10.2 0.1424
15.4 10.25 0.14
15.4 10.3 0.1424
15.4 10.35 0.14
15.4 10.4 0.1384
15.4 10.45 0.13519999
15.4 10.5 0.1328
15.4 10.55 0.1288
15.4 10.6 0.132
15.4 10.65 0.1344
15.4 10.7 0.1296
15.4 10.75 0.132
15.4 10.8 0.13600001
15.4 10.85 0.12639999
15.4 10.9 0.1312
15.4 10.95 0.1288
15.4 11 0.12800001
15.4 11.05 0.12720001
15.4 11.1 0.1304
15.4 11.15 0.1312
15.4 11.2 0.1336
15.4 11.25 0.1384
15.4 11.3 0.1384
15.4 11.35 0.1496
15.4 11.4 0.6904
15.4 11.45 0.72479999
15.4 11.5 0.83600003
15.4 11.55 0.84079999
15.4 11.6 0.83840001
15.4 11.65 0.82800001
15.4 11.7 0.77920002
15.4 11.75 0.72719997
15.4 11.8 0.6728
15.4 11.85 0.62480003
15.4 11.9 0.55519998
15.4 11.95 0.4928
15.4 12 0.428
15.4 12.05 0.35839999
15.4 12.1 0.28479999
15.4 12.15 0.20640001
15.4 12.2 0.1216
15.4 12.25 0.032000002
15.4 12.3 -0.064800002
15.4 12.35 -0.17200001
15.4 12.4 -0.29120001
15.4 12.45 -0.41999999
15.4 12.5 -0.56400001
15.4 12.55 -0.73360002
15.4 12.6 -0.93839997
15.4 12.65 -1.2264
15.6 6.8000002 -0.016799999
15.6 6.8499999 0.036800001
15.6 6.9000001 0.0832
15.6 6.9499998 0.1248
15.6 7 0.168
15.6 7.0500002 0.17200001
15.6 7.0999999 0.176
15.6 7.1500001 0.1768
15.6 7.1999998 0.18080001
15.6 7.25 0.18799999
15.6 7.3000002 0.192
15.6 7.3499999 0.19599999
15.6 7.4000001 0.1912
15.6 7.4499998 0.19679999
15.6 7.5 0.2024
15.6 7.5500002 0.19679999
15.6 7.5999999 0.18960001
15.6 7.6500001 0.204
15.6 7.6999998 0.1824
15.6 7.75 0.164
15.6 7.8000002 0.1656
15.6 7.8499999 0.15440001
15.6 7.9000001 0.1696
15.6 7.9499998 0.1648
15.6 8 0.1672
15.6 8.0500002 0.16320001
15.6 8.1000004 0.1568
15.6 8.1499996 0.156
15.6 8.1999998 0.1552
15.6 8.25 0.156
15.6 8.3000002 0.1568
15.6 8.3500004 0.164
15.6 8.3999996 0.16
15.6 8.4499998 0.1576
15.6 8.5 0.16
15.6 8.5500002 0.1584
15.6 8.6000004 0.1584
15.6 8.6499996 0.16
15.6 8.6999998 0.1552
15.6 8.75 0.15360001
15.6 8.8000002 0.15360001
15.6 8.8500004 0.1512
15.6 8.8999996 0.1488
15.6 8.9499998 0.1408
15.6 9 0.13519999
15.6 9.0500002 0.1224
15.6 9.1000004 0.124
15.6 9.1499996 0.1248
15.6 9.1999998 0.1296
15.6 9.25 0.1232
15.6 9.3000002 0.1208
15.6 9.3500004 0.13680001
15.6 9.3999996 0.1176
15.6 9.4499998 0.1184
15.6 9.5 0.1296
15.6 9.5500002 0.1424
15.6 9.6000004 0.1432
15.6 9.6499996 0.14480001
15.6 9.6999998 0.14560001
15.6 9.75 0.14480001
15.6 9.8000002 0.14480001
15.6 9.8500004 0.14560001
15.6 9.8999996 0.14560001
15.6 9.9499998 0.14480001
15.6 10 0.14480001
15.6 10.05 0.1648
15.6 10.1 0.1432
15.6 10.15 0.1424
15.6 10.2 0.1432
15.6 10.25 0.14
15.6 10.3 0.1408
15.6 10.35 0.1384
15.6 10.4 0.1376
15.6 10.45 0.13680001
15.6 10.5 0.13519999
15.6 10.55 0.1328
15.6 10.6 0.1296
15.6 10.65 0.1376
15.6 10.7 0.1304
15.6 10.75 0.1296
15.6 10.8 0.1304
15.6 10.85 0.132
15.6 10.9 0.1296
15.6 10.95 0.12720001
15.6 11 0.1296
15.6 11.05 0.12800001
15.6 11.1 0.1344
15.6 11.15 0.1328
15.6 11.2 0.1328
15.6 11.25 0.13519999
15.6 11.3 0.1328
15.6 11.35 0.148
15.6 11.4 0.53119999
15.6 11.45 0.71759999
15.6 11.5 0.83359998
15.6 11.55 0.83920002
15.6 11.6 0.83840001
15.6 11.65 0.8272
15.6 11.7 0.78079998
15.6 11.75 0.73040003
15.6 11.8 0.6728
15.6 11.85 0.61680001
15.6 11.9 0.55919999
15.6 11.95 0.49680001
15.6 12 0.4312
15.6 12.05 0.36160001
15.6 12.1 0.2872
15.6 12.15 0.2104
15.6 12.2 0.12639999
15.6 12.25 0.038400002
15.6 12.3 -0.060800001
15.6 12.35 -0.168
15.6 12.4 -0.2816
15.6 12.45 -0.41280001
15.6 12.5 -0.56
15.6 12.55 -0.72399998
15.6 12.6 -0.92879999
15.6 12.65 -1.1808
15.8 6.8000002 -0.028000001
15.8 6.8499999 0.0232
15.8 6.9000001 0.084799998
15.8 6.9499998 0.1288
15.8 7 0.1688
15.8 7.0500002 0.1688
15.8 7.0999999 0.17039999
15.8 7.1500001 0.1744
15.8 7.1999998 0.1848
15.8 7.25 0.1856
15.8 7.3000002 0.184
15.8 7.3499999 0.18799999
15.8 7.4000001 0.1944
15.8 7.4499998 0.19599999
15.8 7.5 0.19840001
15.8 7.5500002 0.17839999
15.8 7.5999999 0.17039999
15.8 7.6500001 0.1736
15.8 7.6999998 0.1608
15.8 7.75 0.1592
15.8 7.8000002 0.156
15.8 7.8499999 0.1672
15.8 7.9000001 0.16
15.8 7.9499998 0.16240001
15.8 8 0.1576
15.8 8.0500002 0.16159999
15.8 8.1000004 0.1584
15.8 8.1499996 0.1552
15.8 8.1999998 0.15360001
15.8 8.25 0.1568
15.8 8.3000002 0.15440001
15.8 8.3500004 0.16
15.8 8.3999996 0.1608
15.8 8.4499998 0.16
15.8 8.5 0.1592
15.8 8.5500002 0.1576
15.8 8.6000004 0.1584
15.8 8.6499996 0.1576
15.8 8.6999998 0.1568
15.8 8.75 0.156
15.8 8.8000002 0.15279999
15.8 8.8500004 0.1488
15.8 8.8999996 0.1504
15.8 8.9499998 0.1504
15.8 9 0.14560001
15.8 9.0500002 0.14480001
15.8 9.1000004 0.1408
15.8 9.1499996 0.132
15.8 9.1999998 0.1288
15.8 9.25 0.12800001
15.8 9.3000002 0.1208
15.8 9.3500004 0.1408
15.8 9.3999996 0.1344
15.8 9.4499998 0.1376
15.8 9.5 0.14480001
15.8 9.5500002 0.1464
15.8 9.6000004 0.1496
15.8 9.6499996 0.14560001
15.8 9.6999998 0.13600001
15.8 9.75 0.14480001
15.8 9.8000002 0.14480001
15.8 9.8500004 0.14560001
15.8 9.8999996 0.1464
15.8 9.9499998 0.14560001
15.8 10 0.1432
15.8 10.05 0.1648
15.8 10.1 0.1488
15.8 10.15 0.14560001
15.8 10.2 0.1392
15.8 10.25 0.1424
15.8 10.3 0.1432
15.8 10.35 0.1416
15.8 10.4 0.13600001
15.8 10.45 0.1384
15.8 10.5 0.13519999
15.8 10.55 0.1312
15.8 10.6 0.1328
15.8 10.65 0.13600001
15.8 10.7 0.1304
15.8 10.75 0.1304
15.8 10.8 0.1304
15.8 10.85 0.1328
15.8 10.9 0.1336
15.8 10.95 0.12639999
15.8 11 0.1256
15.8 11.05 0.12639999
15.8 11.1 0.1296
15.8 11.15 0.1304
15.8 11.2 0.1312
15.8 11.25 0.13680001
15.8 11.3 0.132
15.8 11.35 0.14399999
15.8 11.4 0.47920001
15.8 11.45 0.74000001
15.8 11.5 0.8312
15.8 11.55 0.83920002
15.8 11.6 0.83759999
15.8 11.65 0.82480001
15.8 11.7 0.78399998
15.8 11.75 0.72960001
15.8 11.8 0.67519999
15.8 11.85 0.62
15.8 11.9 0.56080002
15.8 11.95 0.49680001
15.8 12 0.43200001
15.8 12.05 0.3608
15.8 12.1 0.2904
15.8 12.15 0.2128
15.8 12.2 0.1288
15.8 12.25 0.040800001
15.8 12.3 -0.057599999
15.8 12.35 -0.1648
15.8 12.4 -0.2784
15.8 12.45 -0.40959999
15.8 12.5 -0.55360001
15.8 12.55 -0.7184
15.8 12.6 -0.92000002
15.8 12.65 -1.1696
16 6.8000002 -0.0184
16 6.8499999 0.024800001
16 6.9000001 0.0832
16 6.9499998 0.13600001
16 7 0.1672
16 7.0500002 0.1688
16 7.0999999 0.1688
16 7.1500001 0.17200001
16 7.1999998 0.1688
16 7.25 0.1688
16 7.3000002 0.1664
16 7.3499999 0.176
16 7.4000001 0.16
16 7.4499998 0.1856
16 7.5 0.184
16 7.5500002 0.1816
16 7.5999999 0.1696
16 7.6500001 0.1664
16 7.6999998 0.16
16 7.75 0.1584
16 7.8000002 0.1576
16 7.8499999 0.1608
16 7.9000001 0.19599999
16 7.9499998 0.1512
16 8 0.1568
16 8.0500002 0.1592
16 8.1000004 0.1584
16 8.1499996 0.1608
16 8.1999998 0.1552
16 8.25 0.1568
16 8.3000002 0.1568
16 8.3500004 0.1608
16 8.3999996 0.1584
16 8.4499998 0.16
16 8.5 0.16159999
16 8.5500002 0.1576
16 8.6000004 0.1592
16 8.6499996 0.16
16 8.6999998 0.1584
16 8.75 0.1568
16 8.8000002 0.15279999
16 8.8500004 0.1496
16 8.8999996 0.1512
16 8.9499998 0.1504
16 9 0.14480001
16 9.0500002 0.15279999
16 9.1000004 0.14480001
16 9.1499996 0.1496
16 9.1999998 0.14399999
16 9.25 0.1464
16 9.3000002 0.1488
16 9.3500004 0.148
16 9.3999996 0.1424
16 9.4499998 0.1472
16 9.5 0.1472
16 9.5500002 0.14560001
16 9.6000004 0.1472
16 9.6499996 0.14560001
16 9.6999998 0.14560001
16 9.75 0.14560001
16 9.8000002 0.1432
16 9.8500004 0.1432
16 9.8999996 0.14560001
16 9.9499998 0.1464
16 10 0.14480001
16 10.05 0.156
16 10.1 0.1432
16 10.15 0.1408
16 10.2 0.1392
16 10.25 0.14
16 10.3 0.1424
16 10.35 0.14
16 10.4 0.14
16 10.45 0.13600001
16 10.5 0.1328
16 10.55 0.1328
16 10.6 0.1304
16 10.65 0.1376
16 10.7 0.1336
16 10.75 0.1328
16 10.8 0.1328
16 10.85 0.1296
16 10.9 0.132
16 10.95 0.1328
16 11 0.12800001
16 11.05 0.1248
16 11.1 0.1256
16 11.15 0.12800001
16 11.2 0.1296
16 11.25 0.1344
16 11.3 0.13600001
16 11.35 0.1384
16 11.4 0.44800001
16 11.45 0.72960001
16 11.5 0.8344
16 11.55 0.83840001
16 11.6 0.83759999
16 11.65 0.82639998
16 11.7 0.78320003
16 11.75 0.73119998
16 11.8 0.67680001
16 11.85 0.62080002
16 11.9 0.56160003
16 11.95 0.4984
16 12 0.43439999
16 12.05 0.3624
16 12.1 0.29280001
16 12.15 0.212
16 12.2 0.1328
16 12.25 0.040800001
16 12.3 -0.0568
16 12.35 -0.16159999
16 12.4 -0.27680001
16 12.45 -0.40560001
16 12.5 -0.54799998
16 12.55 -0.71200001
16 12.6 -0.91600001
16 12.65 -1.1720001
16.200001 6.8000002 -0.022399999
16.200001 6.8499999 0.024800001
16.200001 6.9000001 0.082400002
16.200001 6.9499998 0.13600001
16.200001 7 0.164
16.200001 7.0500002 0.1728
16.200001 7.0999999 0.1664
16.200001 7.1500001 0.1768
16.200001 7.1999998 0.1728
16.200001 7.25 0.1768
16.200001 7.3000002 0.1824
16.200001 7.3499999 0.1864
16.200001 7.4000001 0.1856
16.200001 7.4499998 0.1856
16.200001 7.5 0.18000001
16.200001 7.5500002 0.1648
16.200001 7.5999999 0.17839999
16.200001 7.6500001 0.16240001
16.200001 7.6999998 0.16320001
16.200001 7.75 0.1648
16.200001 7.8000002 0.16240001
16.200001 7.8499999 0.1576
16.200001 7.9000001 0.156
16.200001 7.9499998 0.1576
16.200001 8 0.1592
16.200001 8.0500002 0.1584
16.200001 8.1000004 0.1552
16.200001 8.1499996 0.1568
16.200001 8.1999998 0.156
16.200001 8.25 0.156
16.200001 8.3000002 0.15279999
16.200001 8.3500004 0.16240001
16.200001 8.3999996 0.16
16.200001 8.4499998 0.1592
16.200001 8.5 0.1608
16.200001 8.5500002 0.1584
16.200001 8.6000004 0.16
16.200001 8.6499996 0.1568
16.200001 8.6999998 0.156
16.200001 8.75 0.1552
16.200001 8.8000002 0.1568
16.200001 8.8500004 0.156
16.200001 8.8999996 0.15360001
16.200001 8.9499998 0.152
16.200001 9 0.148
16.200001 9.0500002 0.1464
16.200001 9.1000004 0.1488
16.200001 9.1499996 0.152
16.200001 9.1999998 0.1568
16.200001 9.25 0.15279999
16.200001 9.3000002 0.152
16.200001 9.3500004 0.1424
16.200001 9.3999996 0.14480001
16.200001 9.4499998 0.1464
16.200001 9.5 0.1464
16.200001 9.5500002 0.1464
16.200001 9.6000004 0.1464
16.200001 9.6499996 0.14560001
16.200001 9.6999998 0.14560001
16.200001 9.75 0.1424
16.200001 9.8000002 0.14560001
16.200001 9.8500004 0.148
16.200001 9.8999996 0.148
16.200001 9.9499998 0.14560001
16.200001 10 0.148
16.200001 10.05 0.15279999
16.200001 10.1 0.1408
16.200001 10.15 0.1408
16.200001 10.2 0.1408
16.200001 10.25 0.1416
16.200001 10.3 0.1408
16.200001 10.35 0.1384
16.200001 10.4 0.13519999
16.200001 10.45 0.1288
16.200001 10.5 0.1376
16.200001 10.55 0.13600001
16.200001 10.6 0.1304
16.200001 10.65 0.1288
16.200001 10.7 0.1328
16.200001 10.75 0.1328
16.200001 10.8 0.132
16.200001 10.85 0.1344
16.200001 10.9 0.1336
16.200001 10.95 0.1224
16.200001 11 0.1248
16.200001 11.05 0.1248
16.200001 11.1 0.12800001
16.200001 11.15 0.1248
16.200001 11.2 0.1312
16.200001 11.25 0.1344
16.200001 11.3 0.1304
16.200001 11.35 0.1376
16.200001 11.4 0.5424
16.200001 11.45 0.73519999
16.200001 11.5 0.82959998
16.200001 11.55 0.83920002
16.200001 11.6 0.83840001
16.200001 11.65 0.82639998
16.200001 11.7 0.78399998
16.200001 11.75 0.73280001
16.200001 11.8 0.676
16.200001 11.85 0.62159997
16.200001 11.9 0.56239998
16.200001 11.95 0.49759999
16.200001 12 0.43439999
16.200001 12.05 0.36399999
16.200001 12.1 0.292
16.200001 12.15 0.21439999
16.200001 12.2 0.1312
16.200001 12.25 0.040800001
16.200001 12.3 -0.0568
16.200001 12.35 -0.16320001
16.200001 12.4 -0.27599999
16.200001 12.45 -0.40239999
16.200001 12.5 -0.55040002
16.200001 12.55 -0.7112
16.200001 12.6 -0.91600001
16.200001 12.65 -1.156
16.4 6.8000002 -0.028000001
16.4 6.8499999 0.0288
16.4 6.9000001 0.075199999
16.4 6.9499998 0.13600001
16.4 7 0.1656
16.4 7.0500002 0.1688
16.4 7.0999999 0.17039999
16.4 7.1500001 0.1728
16.4 7.1999998 0.18000001
16.4 7.25 0.18000001
16.4 7.3000002 0.1864
16.4 7.3499999 0.18960001
16.4 7.4000001 0.1936
16.4 7.4499998 0.1912
16.4 7.5 0.1848
16.4 7.5500002 0.17839999
16.4 7.5999999 0.1744
16.4 7.6500001 0.1752
16.4 7.6999998 0.1696
16.4 7.75 0.18000001
16.4 7.8000002 0.1728
16.4 7.8499999 0.17120001
16.4 7.9000001 0.1776
16.4 7.9499998 0.17839999
16.4 8 0.184
16.4 8.0500002 0.1736
16.4 8.1000004 0.1672
16.4 8.1499996 0.1608
16.4 8.1999998 0.15360001
16.4 8.25 0.156
16.4 8.3000002 0.1592
16.4 8.3500004 0.1608
16.4 8.3999996 0.16159999
16.4 8.4499998 0.16159999
16.4 8.5 0.16159999
16.4 8.5500002 0.16
16.4 8.6000004 0.1608
16.4 8.6499996 0.16
16.4 8.6999998 0.1576
16.4 8.75 0.1568
16.4 8.8000002 0.1552
16.4 8.8500004 0.15279999
16.4 8.8999996 0.15279999
16.4 8.9499998 0.15279999
16.4 9 0.15279999
16.4 9.0500002 0.1512
16.4 9.1000004 0.1512
16.4 9.1499996 0.1488
16.4 9.1999998 0.1496
16.4 9.25 0.148
16.4 9.3000002 0.1488
16.4 9.3500004 0.1488
16.4 9.3999996 0.1488
16.4 9.4499998 0.15279999
16.4 9.5 0.1552
16.4 9.5500002 0.1472
16.4 9.6000004 0.1376
16.4 9.6499996 0.14399999
16.4 9.6999998 0.14480001
16.4 9.75 0.14560001
16.4 9.8000002 0.14560001
16.4 9.8500004 0.148
16.4 9.8999996 0.148
16.4 9.9499998 0.1464
16.4 10 0.1464
16.4 10.05 0.1512
16.4 10.1 0.1408
16.4 10.15 0.1424
16.4 10.2 0.1416
16.4 10.25 0.1384
16.4 10.3 0.1384
16.4 10.35 0.1424
16.4 10.4 0.1288
16.4 10.45 0.1312
16.4 10.5 0.1304
16.4 10.55 0.1296
16.4 10.6 0.12720001
16.4 10.65 0.1288
16.4 10.7 0.12720001
16.4 10.75 0.1304
16.4 10.8 0.12720001
16.4 10.85 0.12720001
16.4 10.9 0.1304
16.4 10.95 0.1248
16.4 11 0.1224
16.4 11.05 0.1232
16.4 11.1 0.124
16.4 11.15 0.12639999
16.4 11.2 0.1304
16.4 11.25 0.1328
16.4 11.3 0.1328
16.4 11.35 0.14399999
16.4 11.4 0.56080002
16.4 11.45 0.73680001
16.4 11.5 0.8312
16.4 11.55 0.83920002
16.4 11.6 0.83759999
16.4 11.65 0.82639998
16.4 11.7 0.78560001
16.4 11.75 0.73040003
16.4 11.8 0.67680001
16.4 11.85 0.62080002
16.4 11.9 0.56
16.4 11.95 0.4984
16.4 12 0.43360001
16.4 12.05 0.36480001
16.4 12.1 0.28960001
16.4 12.15 0.21359999
16.4 12.2 0.1304
16.4 12.25 0.0416
16.4 12.3 -0.055199999
16.4 12.35 -0.164
16.4 12.4 -0.2744
16.4 12.45 -0.40560001
16.4 12.5 -0.54879999
16.4 12.55 -0.71200001
16.4 12.6 -0.91360003
16.4 12.65 -1.1528
16.6 6.8000002 -0.016000001
16.6 6.8499999 0.0328
16.6 6.9000001 0.078400001
16.6 6.9499998 0.124
16.6 7 0.1608
16.6 7.0500002 0.1664
16.6 7.0999999 0.17039999
16.6 7.1500001 0.176
16.6 7.1999998 0.18719999
16.6 7.25 0.1848
16.6 7.3000002 0.18880001
16.6 7.3499999 0.18960001
16.6 7.4000001 0.18880001
16.6 7.4499998 0.18880001
16.6 7.5 0.192
16.6 7.5500002 0.192
16.6 7.5999999 0.184
16.6 7.6500001 0.1688
16.6 7.6999998 0.1856
16.6 7.75 0.18799999
16.6 7.8000002 0.184
16.6 7.8499999 0.1848
16.6 7.9000001 0.1816
16.6 7.9499998 0.17039999
16.6 8 0.1648
16.6 8.0500002 0.1832
16.6 8.1000004 0.1736
16.6 8.1499996 0.1688
16.6 8.1999998 0.1648
16.6 8.25 0.1608
16.6 8.3000002 0.1552
16.6 8.3500004 0.1568
16.6 8.3999996 0.16159999
16.6 8.4499998 0.1648
16.6 8.5 0.16159999
16.6 8.5500002 0.1648
16.6 8.6000004 0.16159999
16.6 8.6499996 0.16
16.6 8.6999998 0.16
16.6 8.75 0.1576
16.6 8.8000002 0.1552
16.6 8.8500004 0.15360001
16.6 8.8999996 0.15440001
16.6 8.9499998 0.1552
16.6 9 0.15440001
16.6 9.0500002 0.152
16.6 9.1000004 0.152
16.6 9.1499996 0.1504
16.6 9.1999998 0.152
16.6 9.25 0.152
16.6 9.3000002 0.1512
16.6 9.3500004 0.1496
16.6 9.3999996 0.1496
16.6 9.4499998 0.1496
16.6 9.5 0.1488
16.6 9.5500002 0.1496
16.6 9.6000004 0.1488
16.6 9.6499996 0.1552
16.6 9.6999998 0.14480001
16.6 9.75 0.1416
16.6 9.8000002 0.1424
16.6 9.8500004 0.14560001
16.6 9.8999996 0.148
16.6 9.9499998 0.1464
16.6 10 0.14560001
16.6 10.05 0.152
16.6 10.1 0.1424
16.6 10.15 0.1416
16.6 10.2 0.1384
16.6 10.25 0.13680001
16.6 10.3 0.1408
16.6 10.35 0.13600001
16.6 10.4 0.13519999
16.6 10.45 0.13680001
16.6 10.5 0.1304
16.6 10.55 0.1288
16.6 10.6 0.12639999
16.6 10.65 0.12639999
16.6 10.7 0.12720001
16.6 10.75 0.124
16.6 10.8 0.1232
16.6 10.85 0.13600001
16.6 10.9 0.12639999
16.6 10.95 0.1224
16.6 11 0.124
16.6 11.05 0.1184
16.6 11.1 0.1192
16.6 11.15 0.1208
16.6 11.2 0.12800001
16.6 11.25 0.1296
16.6 11.3 0.1336
16.6 11.35 0.1416
16.6 11.4 0.69919997
16.6 11.45 0.73199999
16.6 11.5 0.83200002
16.6 11.55 0.83920002
16.6 11.6 0.83759999
16.6 11.65 0.82639998
16.6 11.7 0.78399998
16.6 11.75 0.73040003
16.6 11.8 0.67680001
16.6 11.85 0.62159997
16.6 11.9 0.56160003
16.6 11.95 0.49759999
16.6 12 0.4312
16.6 12.05 0.3624
16.6 12.1 0.2904
16.6 12.15 0.212
16.6 12.2 0.12800001
16.6 12.25 0.039999999
16.6 12.3 -0.0568
16.6 12.35 -0.16320001
16.6 12.4 -0.27599999
16.6 12.45 -0.4064
16.6 12.5 -0.54799998
16.6 12.55 -0.71280003
16.6 12.6 -0.91360003
16.6 12.65 -1.1592
16.799999 6.8000002 -0.036800001
16.799999 6.8499999 0.0176
16.799999 6.9000001 0.071999997
16.799999 6.9499998 0.1288
16.799999 7 0.1648
16.799999 7.0500002 0.1688
16.799999 7.0999999 0.17039999
16.799999 7.1500001 0.18000001
16.799999 7.1999998 0.1824
16.799999 7.25 0.1856
16.799999 7.3000002 0.1856
16.799999 7.3499999 0.1856
16.799999 7.4000001 0.1904
16.799999 7.4499998 0.18719999
16.799999 7.5 0.1864
16.799999 7.5500002 0.19599999
16.799999 7.5999999 0.1856
16.799999 7.6500001 0.184
16.799999 7.6999998 0.168
16.799999 7.75 0.1744
16.799999 7.8000002 0.1688
16.799999 7.8499999 0.1776
16.799999 7.9000001 0.176
16.799999 7.9499998 0.1648
16.799999 8 0.1688
16.799999 8.0500002 0.1824
16.799999 8.1000004 0.1824
16.799999 8.1499996 0.1608
16.799999 8.1999998 0.1568
16.799999 8.25 0.15440001
16.799999 8.3000002 0.15360001
16.799999 8.3500004 0.1504
16.799999 8.3999996 0.16
16.799999 8.4499998 0.16
16.799999 8.5 0.164
16.799999 8.5500002 0.1656
16.799999 8.6000004 0.1696
16.799999 8.6499996 0.164
16.799999 8.6999998 0.1608
16.799999 8.75 0.16240001
16.799999 8.8000002 0.1568
16.799999 8.8500004 0.156
16.799999 8.8999996 0.15440001
16.799999 8.9499998 0.156
16.799999 9 0.15279999
16.799999 9.0500002 0.152
16.799999 9.1000004 0.1568
16.799999 9.1499996 0.15279999
16.799999 9.1999998 0.15279999
16.799999 9.25 0.15360001
16.799999 9.3000002 0.15279999
16.799999 9.3500004 0.1512
16.799999 9.3999996 0.1496
16.799999 9.4499998 0.1496
16.799999 9.5 0.1496
16.799999 9.5500002 0.1488
16.799999 9.6000004 0.1496
16.799999 9.6499996 0.1472
16.799999 9.6999998 0.14480001
16.799999 9.75 0.1512
16.799999 9.8000002 0.1464
16.799999 9.8500004 0.14560001
16.799999 9.8999996 0.14560001
16.799999 9.9499998 0.1432
16.799999 10 0.14480001
16.799999 10.05 0.1464
16.799999 10.1 0.1408
16.799999 10.15 0.14
16.799999 10.2 0.1432
16.799999 10.25 0.1376
16.799999 10.3 0.1384
16.799999 10.35 0.1328
16.799999 10.4 0.1312
16.799999 10.45 0.12800001
16.799999 10.5 0.1176
16.799999 10.55 0.1216
16.799999 10.6 0.12
16.799999 10.65 0.1144
16.799999 10.7 0.1168
16.799999 10.75 0.12
16.799999 10.8 0.1112
16.799999 10.85 0.112
16.799999 10.9 0.1288
16.799999 10.95 0.12
16.799999 11 0.12
16.799999 11.05 0.1168
16.799999 11.1 0.1168
16.799999 11.15 0.1056
16.799999 11.2 0.1168
16.799999 11.25 0.124
16.799999 11.3 0.1248
16.799999 11.35 0.1104
16.799999 11.4 0.112
16.799999 11.45 0.69999999
16.799999 11.5 0.82959998
16.799999 11.55 0.83600003
16.799999 11.6 0.82959998
16.799999 11.65 0.78399998
16.799999 11.7 0.74400002
16.799999 11.75 0.67839998
16.799999 11.8 0.6336
16.799999 11.85 0.5776
16.799999 11.9 0.5104
16.799999 11.95 0.45039999
16.799999 12 0.38479999
16.799999 12.05 0.3136
16.799999 12.1 0.2288
16.799999 12.15 0.156
16.799999 12.2 0.068800002
16.799999 12.25 -0.0176
16.799999 12.3 -0.12639999
16.799999 12.35 -0.2344
16.799999 12.4 -0.34639999
16.799999 12.45 -0.47839999
16.799999 12.5 -0.62159997
16.799999 12.55 -0.792
16.799999 12.6 -1
16.799999 12.65 -1.3104
17 6.8499999 0.021600001
17 6.9000001 0.068000004
17 6.9499998 0.1336
17 7 0.156
17 7.0500002 0.15279999
17 7.0999999 0.1568
17 7.1500001 0.16
17 7.1999998 0.1592
17 7.25 0.1672
17 7.3000002 0.1592
17 7.3499999 0.16
17 7.4000001 0.1568
17 7.4499998 0.1504
17 7.5 0.15279999
17 7.5500002 0.1496
17 7.5999999 0.1496
17 7.6500001 0.1688
17 7.6999998 0.176
17 7.75 0.18799999
17 7.8000002 0.18880001
17 7.8499999 0.18960001
17 7.9000001 0.184
17 7.9499998 0.18000001
17 8 0.184
17 8.0500002 0.184
17 8.1000004 0.18960001
17 8.1499996 0.192
17 8.1999998 0.1928
17 8.25 0.2024
17 8.3000002 0.18719999
17 8.3500004 0.1752
17 8.3999996 0.1568
17 8.4499998 0.1672
17 8.5 0.1504
17 8.5500002 0.156
17 8.6000004 0.16
17 8.6499996 0.16
17 8.6999998 0.16159999
17 8.75 0.1584
17 8.8000002 0.1568
17 8.8500004 0.15440001
17 8.8999996 0.15279999
17 8.9499998 0.1552
17 9 0.15440001
17 9.0500002 0.152
17 9.1000004 0.15279999
17 9.1499996 0.1496
17 9.1999998 0.15360001
17 9.25 0.152
17 9.3000002 0.1512
17 9.3500004 0.15279999
17 9.3999996 0.1504
17 9.4499998 0.1496
17 9.5 0.1496
17 9.5500002 0.1488
17 9.6000004 0.1488
17 9.6499996 0.1472
17 9.6999998 0.1472
17 9.75 0.14480001
17 9.8000002 0.1496
17 9.8500004 0.1432
17 9.8999996 0.14560001
17 9.9499998 0.1408
17 10 0.1424
17 10.05 0.1408
17 10.1 0.1288
17 10.15 0.1216
17 10.2 0.116
17 10.25 0.112
17 10.3 0.1288
17 10.35 0.1296
17 10.4 0.1208
17 10.45 0.1216
17 10.5 0.1248
17 10.55 0.1416
17 10.6 0.1328
17 10.65 0.13680001
17 10.7 0.1304
17 10.75 0.12639999
17 10.8 0.1144
17 10.85 0.1176
17 10.9 0.1168
17 10.95 0.116
17 11 0.116
17 11.05 0.112
17 11.1 0.088799998
17 11.15 0.082400002
17 11.2 0.086400002
17 11.25 0.094400004
17 11.3 0.089599997
17 11.35 0.087200001
17 11.4 0.077600002
17 11.45 0.69999999
17 11.5 0.82959998
17 11.55 0.82560003
17 11.6 0.824
17 11.65 0.77679998
17 11.7 0.73519999
17 11.75 0.67360002
17 11.8 0.61360002
17 11.85 0.56
17 11.9 0.49919999
17 11.95 0.44639999
17 12 0.37760001
17 12.05 0.29840001
17 12.1 0.23999999
17 12.15 0.15440001
17 12.2 0.0568
17 12.25 -0.028000001
17 12.3 -0.1208
17 12.35 -0.2368
17 12.4 -0.35600001
17 12.45 -0.4896
17 12.5 -0.648
17.200001 6.9000001 0.0616
17.200001 6.9499998 0.15279999
17.200001 7 0.1584
17.200001 7.0500002 0.1568
17.200001 7.0999999 0.152
17.200001 7.1500001 0.15440001
17.200001 7.1999998 0.1552
17.200001 7.25 0.15279999
17.200001 7.3000002 0.1568
17.200001 7.3499999 0.15360001
17.200001 7.4000001 0.1512
17.200001 7.4499998 0.1488
17.200001 7.5 0.1496
17.200001 7.5500002 0.1472
17.200001 7.5999999 0.1512
17.200001 7.6500001 0.1728
17.200001 7.6999998 0.18719999
17.200001 7.75 0.18960001
17.200001 7.8000002 0.18880001
17.200001 7.8499999 0.18880001
17.200001 7.9000001 0.1848
17.200001 7.9499998 0.184
17.200001 8 0.1832
17.200001 8.0500002 0.1936
17.200001 8.1000004 0.192
17.200001 8.1499996 0.192
17.200001 8.1999998 0.18799999
17.200001 8.25 0.1856
17.200001 8.3000002 0.1848
17.200001 8.3500004 0.168
17.200001 8.3999996 0.15440001
17.200001 8.4499998 0.15360001
17.200001 8.5 0.1568
17.200001 8.5500002 0.1576
17.200001 8.6000004 0.15279999
17.200001 8.6499996 0.152
17.200001 8.6999998 0.1552
17.200001 8.75 0.1472
17.200001 8.8000002 0.16320001
17.200001 8.8500004 0.1568
17.200001 8.8999996 0.148
17.200001 8.9499998 0.1488
17.200001 9 0.14480001
17.200001 9.0500002 0.1488
17.200001 9.1000004 0.14560001
17.200001 9.1499996 0.1432
17.200001 9.1999998 0.1416
17.200001 9.25 0.1392
17.200001 9.3000002 0.132
17.200001 9.3500004 0.13600001
17.200001 9.3999996 0.1392
17.200001 9.4499998 0.13519999
17.200001 9.5 0.14399999
17.200001 9.5500002 0.1488
17.200001 9.6000004 0.1336
17.200001 9.6499996 0.1376
17.200001 9.6999998 0.14560001
17.200001 9.75 0.1424
17.200001 9.8000002 0.1488
17.200001 9.8500004 0.156
17.200001 9.8999996 0.1488
17.200001 9.9499998 0.14560001
17.200001 10 0.14
17.200001 10.05 0.148
17.200001 10.1 0.156
17.200001 10.15 0.1496
17.200001 10.2 0.13600001
17.200001 10.25 0.14480001
17.200001 10.3 0.1208
17.200001 10.35 0.12
17.200001 10.4 0.1176
17.200001 10.45 0.1192
17.200001 10.5 0.1232
17.200001 10.55 0.1208
17.200001 10.6 0.1176
17.200001 10.65 0.1208
17.200001 10.7 0.1176
17.200001 10.75 0.1168
17.200001 10.8 0.1176
17.200001 10.85 0.1176
17.200001 10.9 0.116
17.200001 10.95 0.13680001
17.200001 11 0.12800001
17.200001 11.05 0.1312
17.200001 11.1 0.048799999
17.200001 11.15 0.071199998
17.200001 11.2 0.082400002
17.200001 11.25 0.086400002
17.200001 11.3 0.090400003
17.200001 11.35 0.1128
17.200001 11.4 0.088
17.200001 11.45 0.70480001
17.200001 11.5 0.83200002
17.200001 11.55 0.82800001
17.200001 11.6 0.824
17.200001 11.65 0.78799999
17.200001 11.7 0.72640002
17.200001 11.75 0.676
17.200001 11.8 0.62800002
17.200001 11.85 0.56080002
17.200001 11.9 0.50080001
17.200001 11.95 0.44319999
17.200001 12 0.3664
17.200001 12.05 0.292
17.200001 12.1 0.2272
17.200001 12.15 0.14480001
17.200001 12.2 0.056000002
17.200001 12.25 -0.0352
17.200001 12.3 -0.1416
17.200001 12.35 -0.24240001
17.200001 12.4 -0.3432
17.200001 12.45 -0.4896
17.4 6.9499998 0.1424
17.4 7 0.1592
17.4 7.0500002 0.156
17.4 7.0999999 0.152
17.4 7.1500001 0.1576
17.4 7.1999998 0.1504
17.4 7.25 0.152
17.4 7.3000002 0.1488
17.4 7.3499999 0.15360001
17.4 7.4000001 0.1432
17.4 7.4499998 0.1464
17.4 7.5 0.1472
17.4 7.5500002 0.1504
17.4 7.5999999 0.1488
17.4 7.6500001 0.1648
17.4 7.6999998 0.18080001
17.4 7.75 0.1816
17.4 7.8000002 0.1856
17.4 7.8499999 0.1848
17.4 7.9000001 0.1832
17.4 7.9499998 0.1856
17.4 8 0.1848
17.4 8.0500002 0.1864
17.4 8.1000004 0.184
17.4 8.1499996 0.18799999
17.4 8.1999998 0.1864
17.4 8.25 0.1824
17.4 8.3000002 0.1824
17.4 8.3500004 0.1744
17.4 8.3999996 0.1608
17.4 8.4499998 0.1488
17.4 8.5 0.1552
17.4 8.5500002 0.1512
17.4 8.6000004 0.1512
17.4 8.6499996 0.152
17.4 8.6999998 0.1496
17.4 8.75 0.1488
17.4 8.8000002 0.14480001
17.4 8.8500004 0.14480001
17.4 8.8999996 0.1472
17.4 8.9499998 0.148
17.4 9 0.1424
17.4 9.0500002 0.14480001
17.4 9.1000004 0.1408
17.4 9.1499996 0.14399999
17.4 9.1999998 0.15279999
17.4 9.25 0.14480001
17.4 9.3000002 0.1384
17.4 9.3500004 0.1392
17.4 9.3999996 0.13680001
17.4 9.4499998 0.13680001
17.4 9.5 0.13680001
17.4 9.5500002 0.12800001
17.4 9.6000004 0.2888
17.4 9.6499996 0.14480001
17.4 9.6999998 0.1408
17.4 9.75 0.1432
17.4 9.8000002 0.14560001
17.4 9.8500004 0.1432
17.4 9.8999996 0.1416
17.4 9.9499998 0.14
17.4 10 0.1376
17.4 10.05 0.13680001
17.4 10.1 0.1304
17.4 10.15 0.1328
17.4 10.2 0.1168
17.4 10.25 0.1288
17.4 10.3 0.12800001
17.4 10.35 0.18880001
17.4 10.4 0.1224
17.4 10.45 0.1432
17.4 10.5 0.13600001
17.4 10.55 0.124
17.4 10.6 0.1168
17.4 10.65 0.1168
17.4 10.7 0.12
17.4 10.75 0.12
17.4 10.8 0.1144
17.4 10.85 0.1216
17.4 10.9 0.1304
17.4 10.95 0.1936
17.4 11 0.1568
17.4 11.05 0.13680001
17.4 11.1 0.1176
17.4 11.15 0.1048
17.4 11.2 0.086400002
17.4 11.25 0.092799999
17.4 11.3 0.084799998
17.4 11.35 0.1016
17.4 11.4 0.082400002
17.4 11.45 0.704
17.4 11.5 0.8312
17.4 11.55 0.83359998
17.4 11.6 0.81999999
17.4 11.65 0.79119998
17.4 11.7 0.72479999
17.4 11.75 0.66960001
17.4 11.8 0.61199999
17.4 11.85 0.56639999
17.4 11.9 0.50239998
17.4 11.95 0.43439999
17.4 12 0.3624
17.4 12.05 0.30000001
17.4 12.1 0.22239999
17.4 12.15 0.1416
17.4 12.2 0.045600001
17.4 12.25 -0.0328
17.4 12.3 -0.1336
17.4 12.35 -0.25600001
17.4 12.4 -0.37040001
17.4 12.45 -0.50239998
17.6 6.8000002 -1.2048
17.6 6.8499999 -1.156
17.6 6.9000001 -0.75919998
17.6 6.9499998 -0.36320001
17.6 7 0.032000002
17.6 7.0500002 0.030400001
17.6 7.0999999 0.068000004
17.6 7.1500001 0.1032
17.6 7.1999998 0.1256
17.6 7.25 0.12
17.6 7.3000002 0.132
17.6 7.3499999 0.1304
17.6 7.4000001 0.12720001
17.6 7.4499998 0.1248
17.6 7.5 0.1192
17.6 7.5500002 0.12800001
17.6 7.5999999 0.1144
17.6 7.6500001 0.1424
17.6 7.6999998 0.1568
17.6 7.75 0.15440001
17.6 7.8000002 0.152
17.6 7.8499999 0.1424
17.6 7.9000001 0.1488
17.6 7.9499998 0.1312
17.6 8 0.14
17.6 8.0500002 0.1328
17.6 8.1000004 0.1312
17.6 8.1499996 0.14399999
17.6 8.1999998 0.1416
17.6 8.25 0.13680001
17.6 8.3000002 0.1408
17.6 8.3500004 0.1328
17.6 8.3999996 0.1328
17.6 8.4499998 0.1248
17.6 8.5 0.12639999
17.6 8.5500002 0.3416
17.6 8.6000004 0.1192
17.6 8.6499996 0.124
17.6 8.6999998 0.12720001
17.6 8.75 0.12
17.6 8.8000002 0.1216
17.6 8.8500004 0.1248
17.6 8.8999996 0.12
17.6 8.9499998 0.1168
17.6 9 0.12
17.6 9.0500002 0.1208
17.6 9.1000004 0.1192
17.6 9.1499996 0.1168
17.6 9.1999998 0.1168
17.6 9.25 0.1168
17.6 9.3000002 0.1144
17.6 9.3500004 0.1216
17.6 9.3999996 0.1184
17.6 9.4499998 0.1112
17.6 9.5 0.116
17.6 9.5500002 0.1152
17.6 9.6000004 0.1096
17.6 9.6499996 0.1048
17.6 9.6999998 0.099200003
17.6 9.75 0.089599997
17.6 9.8000002 0.096000001
17.6 9.8500004 0.1024
17.6 9.8999996 0.1048
17.6 9.9499998 0.1224
17.6 10 0.1128
17.6 10.05 0.1152
17.6 10.1 0.1128
17.6 10.15 0.1168
17.6 10.2 0.1216
17.6 10.25 0.1216
17.6 10.3 0.1208
17.6 10.35 0.1496
17.6 10.4 0.1176
17.6 10.45 0.1224
17.6 10.5 0.2296
17.6 10.55 0.1184
17.6 10.6 0.1216
17.6 10.65 0.1176
17.6 10.7 0.1168
17.6 10.75 0.1128
17.6 10.8 0.1144
17.6 10.85 0.1128
17.6 10.9 0.1112
17.6 10.95 0.1128
17.6 11 0.1104
17.6 11.05 0.1128
17.6 11.1 0.088
17.6 11.15 0.095200002
17.6 11.2 0.092799999
17.6 11.25 0.088799998
17.6 11.3 0.092
17.6 11.35 0.0832
17.6 11.4 0.38479999
17.6 11.45 0.69999999
17.6 11.5 0.82319999
17.6 11.55 0.8312
17.6 11.6 0.82800001
17.6 11.65 0.77999997
17.6 11.7 0.7288
17.6 11.75 0.66640002
17.6 11.8 0.62480003
17.6 11.85 0.56800002
17.6 11.9 0.4928
17.6 11.95 0.42559999
17.6 12 0.3576
17.6 12.05 0.30880001
17.6 12.1 0.22
17.6 12.15 0.13680001
17.6 12.2 0.0568
17.6 12.25 -0.039999999
17.6 12.3 -0.1328
17.6 12.35 -0.24879999
17.6 12.4 -0.37279999
17.6 12.45 -0.51440001
17.6 12.5 -0.67439997
17.799999 6.8000002 -1.2064
17.799999 6.8499999 -1.2096
17.799999 6.9000001 -1.2007999
17.799999 8.1000004 -0.132
17.799999 8.8000002 0.49200001
17.799999 8.8500004 0.51679999
17.799999 9.8000002 -0.1592
17.799999 9.8500004 -0.1488
17.799999 9.8999996 -0.1416
17.799999 9.9499998 0.0288
17.799999 10 0.0144
17.799999 10.05 -0.075999998
17.799999 10.1 -0.0616
17.799999 10.15 -0.028000001
17.799999 10.2 0.0080000004
17.799999 10.25 0.030400001
17.799999 10.3 0.079999998
17.799999 10.35 0.1112
17.799999 10.4 0.1328
17.799999 10.45 0.1192
17.799999 10.5 0.12800001
17.799999 10.55 0.1232
17.799999 10.6 0.1384
17.799999 10.65 0.132
17.799999 10.7 0.23280001
17.799999 10.75 0.25760001
17.799999 10.8 -0.0296
17.799999 10.85 0.4912
17.799999 10.9 0.085600004
17.799999 10.95 0.112
17.799999 11 0.1008
17.799999 11.05 0.1008
17.799999 11.1 0.066399999
17.799999 11.15 0.077600002
17.799999 11.2 0.085600004
17.799999 11.25 0.090400003
17.799999 11.3 0.091200002
17.799999 11.35 0.073600002
17.799999 11.4 0.3536
17.799999 11.45 0.7216
17.799999 11.5 0.82800001
17.799999 11.55 0.82639998
17.799999 11.6 0.81919998
17.799999 11.65 0.77759999
17.799999 11.7 0.72719997
17.799999 11.75 0.6656
17.799999 11.8 0.60320002
17.799999 11.85 0.55919999
17.799999 11.9 0.48640001
17.799999 11.95 0.44080001
17.799999 12 0.36399999
17.799999 12.05 0.30320001
17.799999 12.1 0.2216
17.799999 12.15 0.1384
17.799999 12.2 0.048
17.799999 12.25 -0.046399999
17.799999 12.3 -0.1432
17.799999 12.35 -0.2552
17.799999 12.4 -0.3856
17.799999 12.45 -0.51679999
18 6.8000002 -1.2128
18 6.8499999 -1.2072001
18 6.9000001 -1.2088
18 6.9499998 -1.2168
18 9.1499996 0.54000002
18 9.1999998 0.56879997
18 9.25 0.59680003
18 10.1 0.0144
18 10.15 0.040800001
18 10.2 0.024800001
18 10.25 0.0088
18 10.3 -0.0071999999
18 10.35 -0.0128
18 10.4 0.29120001
18 10.45 0.1568
18 10.5 0.1168
18 10.55 0.2272
18 10.6 0.3768
18 10.65 0.40880001
18 10.7 0.44159999
18 10.75 0.47119999
18 10.8 0.4912
18 10.85 0.48480001
18 10.9 0.472
18 10.95 0.43439999
18 11 0.44319999
18 11.05 0.4048
18 11.1 0.39199999
18 11.15 0.34240001
18 11.2 0.30320001
18 11.25 -0.0152
18 11.3 0.045600001
18 11.35 0.184
18 11.4 0.68080002
18 11.45 0.70639998
18 11.5 0.82800001
18 11.55 0.82319999
18 11.6 0.81519997
18 11.65 0.7744
18 11.7 0.71920002
18 11.75 0.68000001
18 11.8 0.62
18 11.85 0.55040002
18 11.9 0.49200001
18 11.95 0.42320001
18 12 0.35839999
18 12.05 0.2976
18 12.1 0.204
18 12.15 0.1408
18 12.2 0.044799998
18 12.25 -0.036800001
18 12.3 -0.15440001
18 12.35 -0.2568
18 12.4 -0.38240001
18 12.45 -0.51279998
18 12.5 -0.65600002
18.200001 6.8000002 -1.252
18.200001 6.8499999 -1.2176
18.200001 6.9000001 -1.2184
18.200001 6.9499998 -1.2168
18.200001 7 -1.2151999
18.200001 9.6999998 0.66720003
18.200001 9.75 0.6656
18.200001 10.3 0.0592
18.200001 10.35 0.1024
18.200001 10.4 -0.0272
18.200001 10.45 0.35839999
18.200001 10.5 0.4152
18.200001 10.55 0.4648
18.200001 10.6 0.49520001
18.200001 10.65 0.5104
18.200001 10.7 0.51840001
18.200001 10.75 0.53039998
18.200001 10.8 0.53119999
18.200001 10.85 0.52079999
18.200001 10.9 0.49759999
18.200001 10.95 0.4544
18.200001 11 0.43599999
18.200001 11.05 0.38
18.200001 11.1 0.49360001
18.200001 11.15 0.4208
18.200001 11.2 0.27360001
18.200001 11.25 0.252
18.200001 11.3 0.236
18.200001 11.35 0.23199999
18.200001 11.4 0.68879998
18.200001 11.45 0.70319998
18.200001 11.5 0.82480001
18.200001 11.55 0.8272
18.200001 11.6 0.82319999
18.200001 11.65 0.76639998
18.200001 11.7 0.73280001
18.200001 11.75 0.66240001
18.200001 11.8 0.60159999
18.200001 11.85 0.53839999
18.200001 11.9 0.49520001
18.200001 11.95 0.428
18.200001 12 0.36320001
18.200001 12.05 0.28400001
18.200001 12.1 0.2184
18.200001 12.15 0.132
18.200001 12.2 0.048799999
18.200001 12.25 -0.046399999
18.200001 12.3 -0.1416
18.200001 12.35 -0.2696
18.200001 12.4 -0.38479999
18.200001 12.45 -0.51679999
18.4 6.8000002 -1.2992001
18.4 6.8499999 -1.2792
18.4 6.9000001 -1.224
18.4 6.9499998 -1.216
18.4 7 -1.2024
18.4 7.0500002 -1.1936001
18.4 7.0999999 -1.184
18.4 7.1500001 -1.1784
18.4 7.1999998 -1.1688
18.4 7.25 -1.1768
18.4 7.3000002 -1.176
18.4 7.3499999 -1.1824
18.4 7.4000001 -1.1776
18.4 7.4499998 -1.1799999
18.4 7.5 -1.1799999
18.4 7.5500002 -1.1799999
18.4 7.5999999 -1.1816
18.4 7.6500001 -1.1616
18.4 7.6999998 -1.196
18.4 7.75 -1.1816
18.4 7.8000002 -1.1856
18.4 7.8499999 -1.1736
18.4 7.9000001 -1.1848
18.4 7.9499998 -1.1816
18.4 8 -1.176
18.4 8.0500002 -1.1632
18.4 8.1000004 -1.1752
18.4 8.1499996 -1.1832
18.4 8.1999998 -1.1808
18.4 8.25 -1.1888
18.4 8.3000002 -1.192
18.4 8.3500004 -1.1896
18.4 8.3999996 -1.1864001
18.4 8.4499998 -1.1816
18.4 8.5 -1.1727999
18.4 8.5500002 -1.1832
18.4 8.6000004 -1.1824
18.4 8.6499996 -1.1808
18.4 8.6999998 -1.188
18.4 8.75 -1.1896
18.4 8.8000002 -1.1912
18.4 8.8500004 -1.1856
18.4 8.8999996 -1.1856
18.4 8.9499998 -1.1864001
18.4 9 -1.1832
18.4 9.0500002 -1.1888
18.4 9.1000004 -1.1936001
18.4 9.1499996 -1.184
18.4 9.1999998 -1.1928
18.4 9.25 -1.1952
18.4 9.3000002 -1.1848
18.4 9.3500004 -1.1928
18.4 9.3999996 -1.192
18.4 9.4499998 -1.2056
18.4 9.5 -1.2
18.4 9.5500002 -1.2048
18.4 9.6000004 -1.1992
18.4 9.6499996 -1.1992
18.4 9.6999998 -1.1968
18.4 9.75 -1.2
18.4 9.8000002 -1.2032
18.4 9.8500004 -1.2007999
18.4 9.8999996 -1.1936001
18.4 9.9499998 -1.196
18.4 10 -1.132
18.4 10.05 -0.99360001
18.4 10.1 -0.85519999
18.4 10.15 -0.71679997
18.4 10.2 -0.5776
18.4 10.25 -0.44
18.4 10.3 -0.30160001
18.4 10.35 -0.16320001
18.4 10.4 -0.024800001
18.4 10.45 0.3664
18.4 10.5 0.40799999
18.4 10.55 0.43520001
18.4 10.6 0.47600001
18.4 10.65 0.49919999
18.4 10.7 0.50559998
18.4 10.75 0.50639999
18.4 10.8 0.5248
18.4 10.85 0.5104
18.4 10.9 0.4048
18.4 10.95 0.2904
18.4 11 0.28240001
18.4 11.05 0.27200001
18.4 11.1 0.31119999
18.4 11.15 0.2608
18.4 11.2 0.2456
18.4 11.25 0.2368
18.4 11.3 0.2472
18.4 11.35 0.4752
18.4 11.4 0.68080002
18.4 11.45 0.76319999
18.4 11.5 0.8312
18.4 11.55 0.82560003
18.4 11.6 0.82160002
18.4 11.65 0.76880002
18.4 11.7 0.72240001
18.4 11.75 0.66479999
18.4 11.8 0.60479999
18.4 11.85 0.5632
18.4 11.9 0.484
18.4 11.95 0.41280001
18.4 12 0.34400001
18.4 12.05 0.28799999
18.4 12.1 0.2104
18.4 12.15 0.1256
18.4 12.2 0.035999998
18.4 12.25 -0.056000002
18.4 12.3 -0.1496
18.4 12.35 -0.27200001
18.4 12.4 -0.37760001
18.4 12.45 -0.53600001
18.4 12.5 -0.68080002
18.6 6.8499999 -1.3112
18.6 6.9000001 -1.2448
18.6 6.9499998 -1.2192
18.6 7 -1.2136
18.6 7.0500002 -1.2104
18.6 7.0999999 -1.22
18.6 7.1500001 -1.2096
18.6 7.1999998 -1.2144001
18.6 7.25 -1.2064
18.6 7.3000002 -1.2151999
18.6 7.3499999 -1.2168
18.6 7.4000001 -1.216
18.6 7.4499998 -1.2168
18.6 7.5 -1.2184
18.6 7.5500002 -1.2184
18.6 7.5999999 -1.2176
18.6 7.6500001 -1.2151999
18.6 7.6999998 -1.2144001
18.6 7.75 -1.2208
18.6 7.8000002 -1.2224
18.6 7.8499999 -1.2248
18.6 7.9000001 -1.216
18.6 7.9499998 -1.2224
18.6 8 -1.224
18.6 8.0500002 -1.2208
18.6 8.1000004 -1.2224
18.6 8.1499996 -1.2224
18.6 8.1999998 -1.2304
18.6 8.25 -1.224
18.6 8.3000002 -1.2248
18.6 8.3500004 -1.2352
18.6 8.3999996 -1.2104
18.6 8.4499998 -1.2151999
18.6 8.5 -1.212
18.6 8.5500002 -1.2192
18.6 8.6000004 -1.2224
18.6 8.6499996 -1.2232
18.6 8.6999998 -1.22
18.6 8.75 -1.2216001
18.6 8.8000002 -1.224
18.6 8.8500004 -1.2208
18.6 8.8999996 -1.2208
18.6 8.9499998 -1.2256
18.6 9 -1.2264
18.6 9.0500002 -1.228
18.6 9.1000004 -1.228
18.6 9.1499996 -1.2224
18.6 9.1999998 -1.228
18.6 9.25 -1.2264
18.6 9.3000002 -1.2224
18.6 9.3500004 -1.2256
18.6 9.3999996 -1.2272
18.6 9.4499998 -1.228
18.6 9.5 -1.2296
18.6 9.5500002 -1.2304
18.6 9.6000004 -1.2272
18.6 9.6499996 -1.2328
18.6 9.6999998 -1.2328
18.6 9.75 -1.2376
18.6 9.8000002 -1.2359999
18.6 9.8500004 -1.2336
18.6 9.8999996 -1.2312
18.6 9.9499998 -1.2328
18.6 10 -1.2288001
18.6 10.05 -1.2288001
18.6 10.1 -1.232
18.6 10.15 -1.228
18.6 10.2 -1.2256
18.6 10.25 -1.2224
18.6 10.3 -1.2224
18.6 10.35 -1.0976
18.6 10.4 -0.6864
18.6 10.45 -0.2744
18.6 10.5 0.13600001
18.6 10.55 0.32480001
18.6 10.6 0.3576
18.6 10.65 0.3664
18.6 10.7 0.36480001
18.6 10.75 0.33680001
18.6 10.8 0.29679999
18.6 10.85 0.296
18.6 10.9 0.2608
18.6 10.95 0.26320001
18.6 11 0.2608
18.6 11.05 0.2608
18.6 11.1 0.25760001
18.6 11.15 0.264
18.6 11.2 0.28960001
18.6 11.25 0.3168
18.6 11.3 0.3696
18.6 11.35 0.47279999
18.6 11.4 0.676
18.6 11.45 0.70639998
18.6 11.5 0.82880002
18.6 11.55 0.82800001
18.6 11.6 0.82160002
18.6 11.65 0.76480001
18.6 11.7 0.71200001
18.6 11.75 0.66079998
18.6 11.8 0.59920001
18.6 11.85 0.56080002
18.6 11.9 0.47999999
18.6 11.95 0.43200001
18.6 12 0.3448
18.6 12.05 0.28400001
18.6 12.1 0.20640001
18.6 12.15 0.112
18.6 12.2 0.0328
18.6 12.25 -0.0504
18.6 12.3 -0.16159999
18.6 12.35 -0.2832
18.6 12.4 -0.39039999
18.6 12.45 -0.52560002
18.799999 6.8499999 -1.3192
18.799999 6.9000001 -1.2528
18.799999 6.9499998 -1.2144001
18.799999 7 -1.2184
18.799999 7.0500002 -1.22
18.799999 7.0999999 -1.2192
18.799999 7.1500001 -1.2176
18.799999 7.1999998 -1.2192
18.799999 7.25 -1.22
18.799999 7.3000002 -1.22
18.799999 7.3499999 -1.2328
18.799999 7.4000001 -1.2256
18.799999 7.4499998 -1.2168
18.799999 7.5 -1.2256
18.799999 7.5500002 -1.2296
18.799999 7.5999999 -1.2304
18.799999 7.6500001 -1.2224
18.799999 7.6999998 -1.2264
18.799999 7.75 -1.2224
18.799999 7.8000002 -1.2336
18.799999 7.8499999 -1.2272
18.799999 7.9000001 -1.2296
18.799999 7.9499998 -1.2264
18.799999 8 -1.2368
18.799999 8.0500002 -1.232
18.799999 8.1000004 -1.2288001
18.799999 8.1499996 -1.2328
18.799999 8.1999998 -1.2296
18.799999 8.25 -1.228
18.799999 8.3000002 -1.2352
18.799999 8.3500004 -1.2344
18.799999 8.3999996 -1.2272
18.799999 8.4499998 -1.228
18.799999 8.5 -1.2232
18.799999 8.5500002 -1.224
18.799999 8.6000004 -1.224
18.799999 8.6499996 -1.2184
18.799999 8.6999998 -1.2328
18.799999 8.75 -1.2256
18.799999 8.8000002 -1.2288001
18.799999 8.8500004 -1.2248
18.799999 8.8999996 -1.2272
18.799999 8.9499998 -1.2312
18.799999 9 -1.2359999
18.799999 9.0500002 -1.2344
18.799999 9.1000004 -1.2352
18.799999 9.1499996 -1.2336
18.799999 9.1999998 -1.2312
18.799999 9.25 -1.2359999
18.799999 9.3000002 -1.2376
18.799999 9.3500004 -1.2336
18.799999 9.3999996 -1.2336
18.799999 9.4499998 -1.2352
18.799999 9.5 -1.2359999
18.799999 9.5500002 -1.2336
18.799999 9.6000004 -1.2359999
18.799999 9.6499996 -1.2359999
18.799999 9.6999998 -1.2359999
18.799999 9.75 -1.2408
18.799999 9.8000002 -1.24
18.799999 9.8500004 -1.24
18.799999 9.8999996 -1.24
18.799999 9.9499998 -1.2359999
18.799999 10 -1.2376
18.799999 10.05 -1.2408
18.799999 10.1 -1.24
18.799999 10.15 -1.2408
18.799999 10.2 -1.2368
18.799999 10.25 -1.2359999
18.799999 10.3 -1.2344
18.799999 10.35 -1.232
18.799999 10.4 0.0264
18.799999 10.45 0.0024000001
18.799999 10.5 0.2016
18.799999 10.55 0.28639999
18.799999 10.6 0.30399999
18.799999 10.65 0.3136
18.799999 10.7 0.31439999
18.799999 10.75 0.3184
18.799999 10.8 0.3096
18.799999 10.85 0.3064
18.799999 10.9 0.28960001
18.799999 10.95 0.27039999
18.799999 11 0.2608
18.799999 11.05 0.26640001
18.799999 11.1 0.2456
18.799999 11.15 0.252
18.799999 11.2 0.25119999
18.799999 11.25 0.2464
18.799999 11.3 0.22480001
18.799999 11.35 0.36719999
18.799999 11.4 0.68720001
18.799999 11.45 0.71039999
18.799999 11.5 0.82480001
18.799999 11.55 0.82639998
18.799999 11.6 0.81999999
18.799999 11.65 0.76480001
18.799999 11.7 0.71600002
18.799999 11.75 0.66479999
18.799999 11.8 0.60320002
18.799999 11.85 0.54000002
18.799999 11.9 0.4808
18.799999 11.95 0.41679999
18.799999 12 0.35120001
18.799999 12.05 0.27759999
18.799999 12.1 0.2
18.799999 12.15 0.1192
18.799999 12.2 0.019200001
18.799999 12.25 -0.080799997
18.799999 12.3 -0.1672
18.799999 12.35 -0.26800001
18.799999 12.4 -0.40880001
18.799999 12.45 -0.55040002
19 6.8499999 -1.308
19 6.9000001 -1.2528
19 6.9499998 -1.22
19 7 -1.2144001
19 7.0500002 -1.2176
19 7.0999999 -1.2192
19 7.1500001 -1.224
19 7.1999998 -1.2184
19 7.25 -1.22
19 7.3000002 -1.224
19 7.3499999 -1.2256
19 7.4000001 -1.2248
19 7.4499998 -1.2264
19 7.5 -1.2264
19 7.5500002 -1.2256
19 7.5999999 -1.2248
19 7.6500001 -1.2312
19 7.6999998 -1.2208
19 7.75 -1.228
19 7.8000002 -1.2296
19 7.8499999 -1.2248
19 7.9000001 -1.2288001
19 7.9499998 -1.228
19 8 -1.2344
19 8.0500002 -1.2304
19 8.1000004 -1.2272
19 8.1499996 -1.2328
19 8.1999998 -1.2272
19 8.25 -1.2344
19 8.3000002 -1.2408
19 8.3500004 -1.2416
19 8.3999996 -1.24
19 8.4499998 -1.2304
19 8.5 -1.2224
19 8.5500002 -1.2248
19 8.6000004 -1.2208
19 8.6499996 -1.2224
19 8.6999998 -1.2192
19 8.75 -1.2264
19 8.8000002 -1.2232
19 8.8500004 -1.2232
19 8.8999996 -1.2312
19 8.9499998 -1.2312
19 9 -1.2336
19 9.0500002 -1.2359999
19 9.1000004 -1.2272
19 9.1499996 -1.2352
19 9.1999998 -1.2304
19 9.25 -1.2352
19 9.3000002 -1.2352
19 9.3500004 -1.232
19 9.3999996 -1.2344
19 9.4499998 -1.24
19 9.5 -1.2359999
19 9.5500002 -1.2352
19 9.6000004 -1.24
19 9.6499996 -1.2359999
19 9.6999998 -1.2408
19 9.75 -1.2368
19 9.8000002 -1.2352
19 9.8500004 -1.2376
19 9.8999996 -1.2416
19 9.9499998 -1.2408
19 10 -1.2431999
19 10.05 -1.2408
19 10.1 -1.2392
19 10.15 -1.2408
19 10.2 -1.244
19 10.25 -1.24
19 10.3 -1.2416
19 10.35 -1.2359999
19 10.4 -0.54640001
19 10.45 0.0024000001
19 10.5 0.25119999
19 10.55 0.29120001
19 10.6 0.28960001
19 10.65 0.292
19 10.7 0.2904
19 10.75 0.28400001
19 10.8 0.28479999
19 10.85 0.29280001
19 10.9 0.2832
19 10.95 0.27759999
19 11 0.27200001
19 11.05 0.26879999
19 11.1 0.2376
19 11.15 0.2464
19 11.2 0.2392
19 11.25 0.2392
19 11.3 0.244
19 11.35 0.39680001
19 11.4 0.67839998
19 11.45 0.80320001
19 11.5 0.82639998
19 11.55 0.82319999
19 11.6 0.81120002
19 11.65 0.75919998
19 11.7 0.70639998
19 11.75 0.66399997
19 11.8 0.59680003
19 11.85 0.54879999
19 11.9 0.47999999
19 11.95 0.40560001
19 12 0.3432
19 12.05 0.26320001
19 12.1 0.1912
19 12.15 0.1208
19 12.2 0.0264
19 12.25 -0.067199998
19 12.3 -0.168
19 12.35 -0.28799999
19 12.4 -0.412
19 12.45 -0.54400003
19 12.5 -0.70719999
19.200001 6.8499999 -1.3072
19.200001 6.9000001 -1.2496001
19.200001 6.9499998 -1.2136
19.200001 7 -1.2192
19.200001 7.0500002 -1.22
19.200001 7.0999999 -1.224
19.200001 7.1500001 -1.2224
19.200001 7.1999998 -1.2264
19.200001 7.25 -1.2184
19.200001 7.3000002 -1.22
19.200001 7.3499999 -1.2216001
19.200001 7.4000001 -1.22
19.200001 7.4499998 -1.2192
19.200001 7.5 -1.2216001
19.200001 7.5500002 -1.2224
19.200001 7.5999999 -1.224
19.200001 7.6500001 -1.2232
19.200001 7.6999998 -1.2216001
19.200001 7.75 -1.2224
19.200001 7.8000002 -1.224
19.200001 7.8499999 -1.228
19.200001 7.9000001 -1.2216001
19.200001 7.9499998 -1.228
19.200001 8 -1.2176
19.200001 8.0500002 -1.228
19.200001 8.1000004 -1.2272
19.200001 8.1499996 -1.2256
19.200001 8.1999998 -1.2344
19.200001 8.25 -1.2248
19.200001 8.3000002 -1.2272
19.200001 8.3500004 -1.232
19.200001 8.3999996 -1.2336
19.200001 8.4499998 -1.2392
19.200001 8.5 -1.2208
19.200001 8.5500002 -1.2256
19.200001 8.6000004 -1.2224
19.200001 8.6499996 -1.2168
19.200001 8.6999998 -1.2224
19.200001 8.75 -1.2232
19.200001 8.8000002 -1.2296
19.200001 8.8500004 -1.2304
19.200001 8.8999996 -1.228
19.200001 8.9499998 -1.2288001
19.200001 9 -1.2312
19.200001 9.0500002 -1.232
19.200001 9.1000004 -1.2304
19.200001 9.1499996 -1.2304
19.200001 9.1999998 -1.2344
19.200001 9.25 -1.2352
19.200001 9.3000002 -1.2304
19.200001 9.3500004 -1.2352
19.200001 9.3999996 -1.2336
19.200001 9.4499998 -1.2344
19.200001 9.5 -1.2352
19.200001 9.5500002 -1.2376
19.200001 9.6000004 -1.2384
19.200001 9.6499996 -1.2392
19.200001 9.6999998 -1.2384
19.200001 9.75 -1.2344
19.200001 9.8000002 -1.2424001
19.200001 9.8500004 -1.2392
19.200001 9.8999996 -1.2336
19.200001 9.9499998 -1.24
19.200001 10 -1.24
19.200001 10.05 -1.2368
19.200001 10.1 -1.244
19.200001 10.15 -1.24
19.200001 10.2 -1.24
19.200001 10.25 -1.2408
19.200001 10.3 -1.244
19.200001 10.35 -1.2416
19.200001 10.4 0.088799998
19.200001 10.45 0.1856
19.200001 10.5 0.2264
19.200001 10.55 0.28080001
19.200001 10.6 0.29840001
19.200001 10.65 0.2992
19.200001 10.7 0.28639999
19.200001 10.75 0.28960001
19.200001 10.8 0.27680001
19.200001 10.85 0.2784
19.200001 10.9 0.2608
19.200001 10.95 0.25440001
19.200001 11 0.25119999
19.200001 11.05 0.2472
19.200001 11.1 0.2552
19.200001 11.15 0.248
19.200001 11.2 0.24079999
19.200001 11.25 0.2368
19.200001 11.3 0.2472
19.200001 11.35 0.2384
19.200001 11.4 0.68559998
19.200001 11.45 0.77679998
19.200001 11.5 0.82959998
19.200001 11.55 0.82639998
19.200001 11.6 0.83200002
19.200001 11.65 0.75999999
19.200001 11.7 0.70240003
19.200001 11.75 0.66079998
19.200001 11.8 0.5984
19.200001 11.85 0.53920001
19.200001 11.9 0.47279999
19.200001 11.95 0.41280001
19.200001 12 0.33840001
19.200001 12.05 0.27200001
19.200001 12.1 0.20479999
19.200001 12.15 0.1144
19.200001 12.2 0.025599999
19.200001 12.25 -0.072800003
19.200001 12.3 -0.17120001
19.200001 12.35 -0.2784
19.200001 12.4 -0.39120001
19.200001 12.45 -0.54159999
19.4 6.8499999 -1.3256
19.4 6.9000001 -1.2632
19.4 6.9499998 -1.224
19.4 7 -1.2208
19.4 7.0500002 -1.2224
19.4 7.0999999 -1.2248
19.4 7.1500001 -1.2168
19.4 7.1999998 -1.22
19.4 7.25 -1.22
19.4 7.3000002 -1.2248
19.4 7.3499999 -1.2248
19.4 7.4000001 -1.2272
19.4 7.4499998 -1.2232
19.4 7.5 -1.2272
19.4 7.5500002 -1.2264
19.4 7.5999999 -1.2208
19.4 7.6500001 -1.2176
19.4 7.6999998 -1.2216001
19.4 7.75 -1.2224
19.4 7.8000002 -1.2304
19.4 7.8499999 -1.2232
19.4 7.9000001 -1.2216001
19.4 7.9499998 -1.2224
19.4 8 -1.2256
19.4 8.0500002 -1.228
19.4 8.1000004 -1.2288001
19.4 8.1499996 -1.2216001
19.4 8.1999998 -1.2224
19.4 8.25 -1.224
19.4 8.3000002 -1.2256
19.4 8.3500004 -1.2256
19.4 8.3999996 -1.228
19.4 8.4499998 -1.228
19.4 8.5 -1.2256
19.4 8.5500002 -1.2288001
19.4 8.6000004 -1.2312
19.4 8.6499996 -1.224
19.4 8.6999998 -1.2272
19.4 8.75 -1.224
19.4 8.8000002 -1.2264
19.4 8.8500004 -1.224
19.4 8.8999996 -1.2264
19.4 8.9499998 -1.228
19.4 9 -1.2256
19.4 9.0500002 -1.2304
19.4 9.1000004 -1.2312
19.4 9.1499996 -1.2336
19.4 9.1999998 -1.232
19.4 9.25 -1.2312
19.4 9.3000002 -1.2336
