# .PCD v0.7 - Point Cloud Data file format
VERSION 0.7
FIELDS x y z
SIZE 4 4 4
TYPE F F F
COUNT 1 1 1
WIDTH 1472
HEIGHT 1
VIEWPOINT 0 0 0 1 0 0 0
POINTS 1472
DATA ascii
140.18552 -33.798752 -0.055261433
140.23547 -33.798294 -0.05329293
140.28549 -33.797821 -0.05212307
140.33549 -33.797356 -0.050953269
140.38551 -33.796883 -0.049783528
140.43542 -33.79644 -0.047016382
140.48495 -33.796112 -0.037060976
140.53474 -33.7957 -0.031897783
140.58505 -33.795143 -0.036318779
140.63503 -33.794685 -0.034350276
140.68535 -33.794128 -0.038771212
140.70122 -33.803207 0.57978034
140.74557 -33.804321 0.68318164
140.79466 -33.804108 0.70112371
140.84467 -33.803642 0.70229352
140.89481 -33.803131 0.70106745
140.94734 -33.801956 0.65671229
140.99889 -33.801056 0.62992823
141.05322 -33.799377 0.552827
141.10583 -33.79818 0.50687456
141.15916 -33.796783 0.44814312
141.21222 -33.795464 0.39420402
141.26595 -33.793953 0.32828438
141.31921 -33.792572 0.27035165
141.37315 -33.791 0.20043856
141.42661 -33.789566 0.13931113
141.48192 -33.787613 0.044639111
141.5359 -33.786034 -0.026072621
141.59187 -33.783897 -0.132725
141.64665 -33.782097 -0.2178129
141.70303 -33.779846 -0.33165336
141.75926 -33.777634 -0.44309789
141.81665 -33.775101 -0.57530808
138.38977 -33.987854 -1.9596366
138.43637 -33.988335 -1.8969682
138.48378 -33.988594 -1.8486761
138.53056 -33.989021 -1.7892026
138.57832 -33.989182 -1.7472999
138.62802 -33.9888 -1.7405393
138.67799 -33.988342 -1.7385708
138.72791 -33.9879 -1.7358037
138.77797 -33.987419 -1.7354325
138.82784 -33.986984 -1.7318666
138.87741 -33.986633 -1.72271
138.92751 -33.986145 -1.7231375
138.97748 -33.985687 -1.7211691
139.02739 -33.985237 -1.7184019
139.07741 -33.984772 -1.717232
139.1272 -33.98436 -1.7120689
139.17711 -33.983917 -1.7093017
139.22778 -33.983261 -1.7201121
139.27864 -33.982559 -1.7341172
139.3282 -33.982216 -1.7249606
139.37834 -33.981705 -1.7261869
139.42845 -33.981209 -1.7266144
139.4781 -33.980843 -1.7190552
139.52802 -33.9804 -1.716288
139.57822 -33.979874 -1.7183129
139.62675 -33.97982 -1.6907865
139.67775 -33.979073 -1.7071878
139.6427 -34.002396 -0.16775483
139.6889 -34.002991 -0.097898245
139.73799 -34.002777 -0.079956055
139.78809 -34.002281 -0.080383658
139.83797 -34.001846 -0.07681787
139.88771 -34.00145 -0.070855916
139.93803 -34.0009 -0.075276852
139.98769 -34.000526 -0.067717612
140.03783 -34.000015 -0.068943799
140.08797 -33.999512 -0.070170164
140.13759 -33.999153 -0.061812162
140.18745 -33.998726 -0.058246255
140.23734 -33.998291 -0.054680407
140.28682 -33.997971 -0.043926358
140.33749 -33.997314 -0.054736853
140.38728 -33.996902 -0.0495736
140.4371 -33.996483 -0.04520905
140.48708 -33.996033 -0.043240547
140.537 -33.995583 -0.040473402
140.58687 -33.995148 -0.036907554
140.63663 -33.994759 -0.030945659
140.68742 -33.994064 -0.044152141
140.70338 -34.003113 0.57280219
140.74783 -34.004204 0.67460608
140.79674 -34.004044 0.69574285
140.84627 -34.003708 0.70569813
140.89636 -34.003212 0.70527065
140.94933 -34.001915 0.65292871
141.00221 -34.000648 0.60218418
141.05447 -33.999542 0.562621
141.10809 -33.998062 0.498299
141.16129 -33.996704 0.44196355
141.21443 -33.995354 0.38642693
141.26793 -33.993912 0.3245008
141.32166 -33.992409 0.25858122
141.37529 -33.990921 0.19425905
141.42896 -33.989426 0.12913811
141.48361 -33.987663 0.046446323
141.53835 -33.98587 -0.037842929
141.59303 -33.984093 -0.12133348
141.64856 -33.982079 -0.21999907
141.70483 -33.979851 -0.33224219
141.76117 -33.977615 -0.44528404
141.81851 -33.975098 -0.57669556
141.87709 -33.972229 -0.73047024
141.93721 -33.968933 -0.91219884
138.68095 -34.188026 -1.7599251
138.73056 -34.18766 -1.7515672
138.78004 -34.187347 -1.7408133
138.82974 -34.186958 -1.7340525
138.87981 -34.186478 -1.7336816
138.92972 -34.186035 -1.7309144
138.9796 -34.1856 -1.7273484
139.02957 -34.185143 -1.7253801
139.07927 -34.184761 -1.7186195
139.12941 -34.18425 -1.7198457
139.17915 -34.183861 -1.7138838
139.23018 -34.183105 -1.7310836
139.28046 -34.182556 -1.7347058
139.33046 -34.182091 -1.7335361
139.38016 -34.181709 -1.7267755
139.43044 -34.18116 -1.7303978
139.48053 -34.180672 -1.7308253
139.53015 -34.180313 -1.7224674
139.57971 -34.179962 -1.7133108
139.6291 -34.179665 -1.7009593
139.67964 -34.179047 -1.7093737
139.645 -34.202263 -0.17712897
139.6917 -34.202713 -0.11605793
139.74025 -34.202652 -0.088531613
139.78999 -34.202255 -0.082569718
139.83997 -34.201797 -0.080601215
139.88974 -34.201393 -0.075437963
139.94002 -34.200851 -0.079060197
139.98985 -34.200424 -0.074695706
140.03964 -34.20002 -0.069532454
140.08939 -34.199623 -0.063570619
140.13957 -34.199104 -0.065595508
140.18875 -34.198875 -0.049250722
140.23849 -34.198479 -0.043288827
140.28973 -34.197662 -0.064482093
140.33926 -34.197327 -0.054526806
140.38931 -34.196846 -0.054155648
140.43901 -34.196457 -0.04739511
140.4888 -34.196053 -0.042231798
140.53894 -34.195549 -0.043458104
140.58856 -34.195183 -0.035100162
140.63857 -34.194717 -0.033930302
140.68915 -34.194084 -0.043143451
140.70543 -34.203056 0.56822014
140.74907 -34.204361 0.68440032
140.79855 -34.204041 0.69515419
140.84856 -34.203575 0.69632399
140.89853 -34.203117 0.69829249
140.95093 -34.201981 0.65633357
141.0042 -34.2006 0.59840071
141.05685 -34.199387 0.55164957
141.11018 -34.19799 0.49291825
141.16328 -34.196655 0.43818009
141.21678 -34.195206 0.37625396
141.26979 -34.193893 0.32311356
141.32343 -34.192421 0.25879133
141.37723 -34.190887 0.19127434
141.4317 -34.189171 0.11177725
141.48578 -34.187561 0.039468229
141.54016 -34.185867 -0.038431585
141.59476 -34.184113 -0.12032485
141.65117 -34.181854 -0.23496395
141.70692 -34.179779 -0.33762288
141.76387 -34.177368 -0.46184635
141.82121 -34.17485 -0.59325784
141.88075 -34.171707 -0.76460356
141.93938 -34.168839 -0.91917694
138.93277 -34.385696 -1.7538662
138.98216 -34.385399 -1.7415148
139.0316 -34.385086 -1.7299621
139.08116 -34.384743 -1.7208055
139.13123 -34.384262 -1.7204343
139.18097 -34.383865 -1.7144724
139.23195 -34.383125 -1.7308737
139.28235 -34.382538 -1.7368919
139.33209 -34.382149 -1.7309301
139.38225 -34.381638 -1.7321563
139.43199 -34.381241 -1.7261944
139.48195 -34.380791 -1.724226
139.53178 -34.380363 -1.7198614
139.58153 -34.379967 -1.7138995
139.6311 -34.379623 -1.7047428
139.68111 -34.379158 -1.703573
139.64633 -34.402405 -0.1689322
139.69347 -34.402733 -0.115848
139.74207 -34.402657 -0.089120269
139.79195 -34.402229 -0.085554481
139.84174 -34.401817 -0.080391169
139.89174 -34.401352 -0.079221427
139.94188 -34.400841 -0.080447674
139.99197 -34.400345 -0.080875218
140.0415 -34.400017 -0.070919871
140.09151 -34.399544 -0.069750071
140.14143 -34.399101 -0.066982865
140.19113 -34.39872 -0.060222328
140.24071 -34.398369 -0.051065624
140.29134 -34.397728 -0.061077356
140.34113 -34.397324 -0.055914164
140.39099 -34.396889 -0.052348375
140.44118 -34.39637 -0.054373264
140.49097 -34.395966 -0.049210072
140.54031 -34.395676 -0.036059976
140.59073 -34.395096 -0.042078316
140.64064 -34.394653 -0.039311171
140.69119 -34.394035 -0.047725499
140.70816 -34.402802 0.55085909
140.75111 -34.404312 0.67981815
140.80014 -34.404114 0.69855893
140.85011 -34.403656 0.70052743
140.90039 -34.403107 0.69690514
140.9534 -34.401802 0.64376462
141.0061 -34.400581 0.59621465
141.05872 -34.399376 0.55026221
141.1116 -34.398102 0.49951768
141.16545 -34.396561 0.43120205
141.21855 -34.395226 0.37646401
141.27219 -34.393745 0.31214178
141.32578 -34.392273 0.24861836
141.37909 -34.390877 0.18988699
141.43365 -34.389137 0.10879248
141.48811 -34.387421 0.029295325
141.54277 -34.385651 -0.053396583
141.59737 -34.383904 -0.13528979
141.65373 -34.381653 -0.24913031
141.70844 -34.379868 -0.3326208
141.76418 -34.3778 -0.43527985
141.8231 -34.374832 -0.59544396
141.88124 -34.372086 -0.7412318
141.94096 -34.368904 -0.91577226
139.1337 -34.584084 -1.7330034
139.18327 -34.58374 -1.7238468
139.23376 -34.58313 -1.7314625
139.28435 -34.582497 -1.7406754
139.33374 -34.582207 -1.7283242
139.38393 -34.581688 -1.7303491
139.43393 -34.581215 -1.7291793
139.48395 -34.58075 -1.7280095
139.53374 -34.580338 -1.7228462
139.58365 -34.579887 -1.7200791
139.63339 -34.579498 -1.7141171
139.68358 -34.578979 -1.7161421
139.64925 -34.602104 -0.18948799
139.69524 -34.602753 -0.11563808
139.74393 -34.602654 -0.090507746
139.79402 -34.602165 -0.090935349
139.8439 -34.60173 -0.087369442
139.89413 -34.601196 -0.090193093
139.9437 -34.600853 -0.081036448
139.99374 -34.600365 -0.08066529
140.04376 -34.599899 -0.07949543
140.09332 -34.599556 -0.070338845
140.14334 -34.599083 -0.069169044
140.19339 -34.598602 -0.068797946
140.24257 -34.598366 -0.052453101
140.29306 -34.597763 -0.060068846
140.3429 -34.597343 -0.055704236
140.39304 -34.596832 -0.056930542
140.44304 -34.596359 -0.055760741
140.4931 -34.595886 -0.055389524
140.54297 -34.595451 -0.051823676
140.59271 -34.595055 -0.04586184
140.64233 -34.594696 -0.037503839
140.69331 -34.593956 -0.05390507
140.71025 -34.602737 0.54547822
140.75261 -34.604401 0.68482006
140.80179 -34.604164 0.70116496
140.85193 -34.603661 0.69993865
140.90237 -34.603065 0.69312155
140.9557 -34.601669 0.63439023
141.00734 -34.600746 0.60600877
141.05992 -34.599556 0.56085503
141.11386 -34.597992 0.49094212
141.16727 -34.596573 0.43061316
141.22086 -34.5951 0.36708975
141.27408 -34.593727 0.30995572
141.32758 -34.592285 0.24802953
141.38156 -34.590698 0.17731798
141.43604 -34.588989 0.097820878
141.48988 -34.58744 0.029505193
141.5448 -34.585602 -0.057978809
141.59972 -34.583763 -0.14546281
141.6548 -34.581871 -0.2361415
141.7113 -34.579582 -0.35237801
141.76837 -34.577141 -0.4789975
141.82545 -34.574692 -0.60561693
141.88297 -34.572121 -0.74022317
139.1906 -34.782196 -1.8242708
139.23686 -34.782776 -1.7552129
139.28612 -34.782516 -1.7404655
139.33595 -34.782097 -1.736101
139.386 -34.781616 -1.7357299
139.43593 -34.781166 -1.7329627
139.48628 -34.780602 -1.7381824
139.53572 -34.780289 -1.7266296
139.58582 -34.779793 -1.7270571
139.63579 -34.779343 -1.7250887
139.60335 -34.801933 -0.23277807
139.65172 -34.801918 -0.202057
139.69855 -34.802338 -0.14338201
139.7464 -34.802475 -0.1030767
139.7957 -34.8022 -0.089127958
139.84579 -34.801704 -0.089555502
139.89594 -34.801201 -0.090781748
139.94604 -34.800705 -0.091209292
139.99561 -34.800362 -0.082052708
140.0453 -34.799973 -0.075292051
140.09554 -34.799446 -0.078115702
140.14516 -34.799088 -0.0697577
140.19502 -34.798653 -0.066191912
140.24544 -34.798073 -0.072210193
140.29518 -34.797676 -0.066248298
140.34515 -34.797218 -0.064279795
140.39497 -34.796799 -0.059915304
140.44472 -34.796402 -0.053953409
140.49483 -34.795914 -0.054380894
140.54427 -34.795601 -0.042828262
140.59436 -34.795105 -0.043255806
140.6445 -34.794601 -0.044482112
140.69562 -34.793823 -0.063279331
140.71167 -34.802849 0.55207765
140.75461 -34.804359 0.68103659
140.80417 -34.804008 0.6901933
140.85419 -34.803543 0.69136298
140.90442 -34.803009 0.68853939
140.95757 -34.801659 0.63300288
141.01004 -34.800507 0.58944643
141.06279 -34.799263 0.54109776
141.11568 -34.797989 0.49035323
141.16962 -34.796425 0.42044032
141.22267 -34.795105 0.36650097
141.27617 -34.793655 0.30457497
141.33002 -34.792114 0.2362594
141.38391 -34.790558 0.16714501
141.43785 -34.788986 0.097232103
141.49219 -34.787308 0.020130992
141.5464 -34.785667 -0.054574072
141.60188 -34.783669 -0.15244097
141.6579 -34.781517 -0.25989199
141.71352 -34.779472 -0.36015487
141.77051 -34.777054 -0.48517698
141.82762 -34.774597 -0.61259508
141.88641 -34.771667 -0.77036321
139.33856 -34.98188 -1.751066
139.38831 -34.981483 -1.7451042
139.43805 -34.981087 -1.7391422
139.48833 -34.980545 -1.7427645
139.53781 -34.980225 -1.7320105
139.58786 -34.979744 -1.7316394
139.6376 -34.979347 -1.7256775
139.6881 -34.978745 -1.7332932
139.65337 -35.001976 -0.19945103
139.70032 -35.002357 -0.14317203
139.74808 -35.002518 -0.10126948
139.79791 -35.002098 -0.096904933
139.84793 -35.001625 -0.095735073
139.89789 -35.001167 -0.09376657
139.94746 -35.000824 -0.084609985
139.9976 -35.00032 -0.085836232
140.04761 -34.999847 -0.084666371
140.09753 -34.999405 -0.081899285
140.14714 -34.999046 -0.073541284
140.19728 -34.998543 -0.07476753
140.24699 -34.998154 -0.068006873
140.29735 -34.997581 -0.073226571
140.347 -34.997215 -0.065667272
140.39711 -34.996719 -0.066094816
140.44676 -34.996346 -0.058535576
140.49695 -34.995834 -0.060560465
140.54709 -34.995323 -0.061786711
140.59657 -34.995003 -0.051032722
140.64632 -34.994606 -0.045070767
140.69743 -34.993828 -0.063868046
140.714 -35.002708 0.54190469
140.75677 -35.004265 0.67405856
140.8063 -35.003929 0.68401372
140.85622 -35.003487 0.68678093
140.90596 -35.00309 0.69274282
140.95969 -35.001579 0.62682331
141.0123 -35.000389 0.58087075
141.06519 -34.999115 0.53012633
141.11841 -34.997742 0.47299218
141.1712 -34.996498 0.42384493
141.22456 -34.995087 0.36431491
141.27798 -34.99366 0.30398619
141.33192 -34.992096 0.23407328
141.38503 -34.990761 0.17933518
141.4399 -34.988937 0.092649996
141.49405 -34.987305 0.018743575
141.54829 -34.985649 -0.056760252
141.604 -34.983589 -0.15862054
141.65976 -34.981506 -0.26127946
141.71599 -34.979294 -0.37272394
141.77214 -34.977112 -0.48257101
141.83032 -34.974358 -0.62915754
141.88846 -34.971611 -0.77494538
139.39056 -35.181366 -1.7536796
139.44008 -35.18103 -1.7437242
139.49014 -35.18055 -1.7433532
139.54015 -35.180077 -1.7421833
139.58994 -35.179672 -1.7370201
139.63986 -35.17923 -1.7342529
139.60901 -35.20137 -0.27069491
139.6557 -35.201828 -0.20962387
139.70311 -35.202087 -0.16133177
139.75012 -35.202461 -0.10585153
139.79991 -35.202049 -0.10068828
139.84996 -35.201569 -0.10031712
139.8998 -35.201149 -0.09595263
139.94963 -35.200729 -0.09158814
139.99982 -35.200211 -0.093613029
140.04961 -35.199799 -0.088449717
140.09947 -35.199371 -0.084883928
140.14879 -35.199097 -0.070935249
140.19884 -35.198616 -0.070564032
140.24902 -35.198097 -0.07258898
140.29898 -35.197639 -0.070620418
140.34895 -35.197182 -0.068652034
140.39879 -35.196762 -0.064287484
140.44875 -35.196304 -0.062318921
140.49872 -35.195847 -0.060350418
140.54837 -35.195473 -0.052791178
140.59851 -35.194969 -0.054017425
140.6487 -35.19445 -0.056042314
140.69946 -35.193771 -0.068450153
140.71577 -35.202721 0.54211462
140.75894 -35.20417 0.66708028
140.80847 -35.203835 0.67703557
140.85799 -35.203506 0.68699086
140.90831 -35.20295 0.68256986
140.96181 -35.2015 0.62064373
141.01398 -35.200424 0.5826782
141.06712 -35.199081 0.52714169
141.12018 -35.197754 0.47320235
141.17325 -35.196434 0.41926301
141.22687 -35.194954 0.35494077
141.27966 -35.193703 0.30579364
141.33391 -35.192047 0.23028988
141.3882 -35.190384 0.15398741
141.44144 -35.189011 0.096853375
141.49617 -35.187218 0.012564123
141.55074 -35.185478 -0.068530381
141.60622 -35.183479 -0.16639733
141.66148 -35.181534 -0.26027071
141.71811 -35.179214 -0.37890333
141.77431 -35.177017 -0.48954913
141.83205 -35.174385 -0.62814879
141.89067 -35.171501 -0.78272218
139.44247 -35.380875 -1.7546959
139.49213 -35.380508 -1.7471367
139.5421 -35.380043 -1.7451681
139.59189 -35.379639 -1.7400049
139.64221 -35.379082 -1.7444259
139.61024 -35.401535 -0.26090068
139.65775 -35.401772 -0.21420604
139.70493 -35.402092 -0.16192049
139.75211 -35.402412 -0.109635
139.80168 -35.402069 -0.10047835
139.85152 -35.401649 -0.096113801
139.90166 -35.401138 -0.097340047
139.95154 -35.400711 -0.093774199
140.00136 -35.400284 -0.089409649
140.05133 -35.399826 -0.087441087
140.10147 -35.399323 -0.088667393
140.15108 -35.398964 -0.080309391
140.20105 -35.398506 -0.078340948
140.25079 -35.398109 -0.072378993
140.30112 -35.397552 -0.076799989
140.35095 -35.397141 -0.072435498
140.40082 -35.396706 -0.068869591
140.45079 -35.396248 -0.066901088
140.50035 -35.395905 -0.057744384
140.55032 -35.395439 -0.05577594
140.60028 -35.394981 -0.053807437
140.65096 -35.394333 -0.064617872
140.70128 -35.393776 -0.069038868
140.71707 -35.402878 0.55111015
140.76006 -35.404373 0.67927051
140.81033 -35.403824 0.67564821
140.85994 -35.403473 0.68400609
140.91039 -35.402878 0.67718923
140.96371 -35.401482 0.61845767
141.01651 -35.40023 0.56931067
141.06956 -35.398911 0.5153712
141.12234 -35.397659 0.46622407
141.17558 -35.396294 0.40909004
141.22873 -35.394943 0.35355341
141.28227 -35.393486 0.29082859
141.336 -35.391983 0.22490901
141.3898 -35.39045 0.15739202
141.44374 -35.388878 0.087479115
141.49838 -35.387115 0.0047872663
141.55344 -35.385231 -0.085092843
141.60861 -35.383324 -0.17736888
141.66365 -35.381439 -0.26724893
141.72029 -35.37912 -0.38588154
141.7764 -35.376945 -0.49492997
141.83421 -35.37429 -0.63512695
141.89403 -35.371078 -0.81126475
141.95454 -35.367668 -1.0001816
142.01825 -35.363373 -1.2466034
139.39401 -35.581429 -1.7516624
139.44443 -35.580841 -1.7576807
139.49434 -35.580399 -1.7549136
139.54408 -35.580002 -1.7489516
139.59387 -35.579597 -1.7437884
139.64398 -35.579102 -1.744216
139.61127 -35.601768 -0.24711317
139.65881 -35.60199 -0.20121717
139.70444 -35.602745 -0.1209777
139.75378 -35.602455 -0.10782766
139.80371 -35.602013 -0.10506052
139.85368 -35.601555 -0.10309207
139.90338 -35.601173 -0.096331418
139.95338 -35.6007 -0.095161676
140.00331 -35.600258 -0.092394471
140.05341 -35.599762 -0.092821956
140.10355 -35.599258 -0.094048262
140.15289 -35.598969 -0.080898166
140.20335 -35.598381 -0.087715209
140.25282 -35.598061 -0.07696116
140.30319 -35.597488 -0.082180858
140.35298 -35.597084 -0.077017665
140.40282 -35.596664 -0.072653115
140.45265 -35.596237 -0.068288565
140.50261 -35.595787 -0.066320062
140.55231 -35.595398 -0.059559405
140.60254 -35.594864 -0.062383056
140.65233 -35.59446 -0.057219863
140.70367 -35.59362 -0.080010533
140.71976 -35.602638 0.53454781
140.76271 -35.604141 0.66350687
140.81213 -35.603836 0.67505944
140.86166 -35.6035 0.68501484
140.91216 -35.602898 0.67739904
140.96584 -35.601402 0.61227834
141.01831 -35.600243 0.56872165
141.07059 -35.599136 0.52915871
141.12479 -35.597496 0.45445371
141.17767 -35.596222 0.40370905
141.23077 -35.594887 0.34897125
141.284 -35.593513 0.2918371
141.33824 -35.591866 0.21633339
141.39197 -35.590355 0.15041381
141.44621 -35.588699 0.074910104
141.5006 -35.587006 -0.0029897094
141.55511 -35.585281 -0.083285511
141.61047 -35.583313 -0.17875636
141.6656 -35.581413 -0.27023375
141.72148 -35.5793 -0.37528867
141.77899 -35.576729 -0.50989503
141.83638 -35.574196 -0.64210522
141.89806 -35.570465 -0.85178769
141.95132 -35.569084 -0.90972042
139.39627 -35.781311 -1.7602379
139.44624 -35.780853 -1.7582694
139.49554 -35.780579 -1.7443208
139.54578 -35.780045 -1.7471442
139.59578 -35.779579 -1.7459744
139.64561 -35.77916 -1.7416099
139.61234 -35.801987 -0.2341243
139.65935 -35.802353 -0.17864412
139.70595 -35.802834 -0.11597568
139.75565 -35.802452 -0.10921514
139.80571 -35.801971 -0.10884398
139.85532 -35.801613 -0.10048604
139.90569 -35.801041 -0.10570562
139.95543 -35.800652 -0.099743724
140.00522 -35.80024 -0.094580531
140.05518 -35.799782 -0.092612028
140.10501 -35.799362 -0.088247538
140.15503 -35.798889 -0.087077737
140.20512 -35.798401 -0.087505221
140.25557 -35.797806 -0.094322205
140.30566 -35.79731 -0.094749808
140.35538 -35.796928 -0.087989211
140.40477 -35.796631 -0.075637877
140.45459 -35.796211 -0.071273327
140.50456 -35.795753 -0.069304824
140.55453 -35.795296 -0.067336321
140.60445 -35.794853 -0.064569175
140.65468 -35.794319 -0.067392707
140.70535 -35.793663 -0.078203201
140.72153 -35.802658 0.53475761
140.76443 -35.804176 0.6645155
140.81418 -35.80378 0.67047727
140.86418 -35.803314 0.67164707
140.91425 -35.802826 0.67201829
140.96756 -35.80143 0.61328685
141.02031 -35.800201 0.56493843
141.07359 -35.798813 0.50700557
141.12646 -35.797539 0.45626116
141.18024 -35.796021 0.38954294
141.23294 -35.7948 0.34199297
141.28625 -35.793404 0.28326172
141.33971 -35.791969 0.22213423
141.39409 -35.790276 0.14423436
141.44826 -35.788651 0.070327938
141.50241 -35.787018 -0.0035783648
141.55693 -35.785286 -0.083874285
141.6129 -35.78315 -0.1905266
141.66772 -35.781334 -0.2764132
141.72453 -35.778961 -0.39824057
141.78134 -35.776588 -0.52006793
141.83855 -35.774109 -0.64908338
141.89894 -35.770729 -0.83560407
139.44769 -35.980949 -1.7524687
139.49736 -35.980583 -1.7449095
139.54732 -35.980125 -1.742941
139.59738 -35.979645 -1.7425698
139.64713 -35.979248 -1.7366079
139.69731 -35.978729 -1.7386328
139.66191 -36.002151 -0.19281048
139.70879 -36.002556 -0.13493413
139.75742 -36.002464 -0.10900521
139.80774 -36.001915 -0.11342615
139.85757 -36.001495 -0.1090616
139.90746 -36.00106 -0.10549575
139.9576 -36.000557 -0.106722
140.00725 -36.000183 -0.099162698
140.05753 -35.999634 -0.10278499
140.10722 -35.999252 -0.096024394
140.15692 -35.998871 -0.089263797
140.20703 -35.998383 -0.089691401
140.2569 -35.997948 -0.086125493
140.30687 -35.99749 -0.08415699
140.35692 -35.997009 -0.083785892
140.40706 -35.996498 -0.085012138
140.45654 -35.996178 -0.074258089
140.50624 -35.995796 -0.067497492
140.55617 -35.995346 -0.064730346
140.60626 -35.99485 -0.06515795
140.65623 -35.9944 -0.063189387
140.70731 -35.993629 -0.081188023
140.72357 -36.002594 0.53017557
140.76669 -36.004059 0.65593982
140.81625 -36.003708 0.6650964
140.86618 -36.003265 0.66786349
140.91667 -36.002663 0.66024792
140.96991 -36.001289 0.60311401
141.02292 -35.999977 0.54997325
141.07549 -35.998795 0.50481951
141.12811 -35.997589 0.45886695
141.18134 -35.996223 0.40173292
141.23488 -35.994766 0.33900821
141.28847 -35.993294 0.27548468
141.34224 -35.991776 0.2087664
141.39609 -35.990227 0.14045084
141.45003 -35.988663 0.070537925
141.5041 -35.987053 -0.0017710924
141.5602 -35.984879 -0.11081958
141.61467 -35.98317 -0.19031674
141.67059 -35.981041 -0.29617035
141.72675 -35.978851 -0.40601742
141.78311 -35.976608 -0.519858
141.84041 -35.974098 -0.65047085
139.44969 -36.180908 -1.7562521
139.49927 -36.180565 -1.7470955
139.54944 -36.180046 -1.7491205
139.59906 -36.17968 -1.7407624
139.6488 -36.179291 -1.7348006
139.69925 -36.178696 -1.7416176
139.6676 -36.201065 -0.2636832
139.71368 -36.201691 -0.19143063
139.76047 -36.202126 -0.13195693
139.80951 -36.201927 -0.1132161
139.85953 -36.201462 -0.11204636
139.90936 -36.201035 -0.10768175
139.95946 -36.200546 -0.10810935
140.00955 -36.20005 -0.1085369
140.05948 -36.1996 -0.10576969
140.10909 -36.199249 -0.097411752
140.15927 -36.198723 -0.099436641
140.20892 -36.198357 -0.091877401
140.25911 -36.197838 -0.09390229
140.30913 -36.197365 -0.09273243
140.35878 -36.196999 -0.085173249
140.40883 -36.196518 -0.084802091
140.45898 -36.196007 -0.086028337
140.50859 -36.195648 -0.077670336
140.55855 -36.19519 -0.075701833
140.60857 -36.194717 -0.074532092
140.65845 -36.19429 -0.070966244
140.70934 -36.193573 -0.085770071
140.72427 -36.202911 0.54955387
140.76788 -36.204231 0.66653275
140.81816 -36.20369 0.66291034
140.86786 -36.203308 0.66967106
140.91858 -36.202637 0.65806198
140.97186 -36.201256 0.60012925
141.02487 -36.199944 0.54698861
141.07788 -36.198639 0.49384797
141.1304 -36.197456 0.44949293
141.18311 -36.196243 0.40194309
141.23723 -36.194618 0.32883537
141.29073 -36.193176 0.26690918
141.34373 -36.191864 0.2137686
141.39839 -36.190102 0.13107663
141.45236 -36.188522 0.06036514
141.50595 -36.18705 -0.0031584501
141.56189 -36.184921 -0.10901213
141.61662 -36.183136 -0.19330144
141.67201 -36.181152 -0.28957087
141.72861 -36.178841 -0.40740484
141.78564 -36.176414 -0.5332256
141.84302 -36.173882 -0.66543579
139.4516 -36.38089 -1.7584381
139.50111 -36.380562 -1.7484828
139.55113 -36.380089 -1.747313
139.60101 -36.379654 -1.7437471
139.65092 -36.379211 -1.74098
139.70102 -36.378716 -1.7414075
139.67114 -36.400589 -0.29542059
139.71837 -36.400902 -0.24393374
139.76512 -36.401344 -0.18366134
139.81235 -36.401649 -0.13217455
139.86147 -36.401428 -0.11503112
139.91148 -36.400955 -0.11386126
139.96144 -36.400505 -0.1118927
140.01146 -36.400032 -0.11072296
140.06151 -36.399551 -0.1103518
140.1113 -36.399139 -0.10518861
140.16051 -36.398895 -0.089642525
140.21106 -36.398277 -0.098056853
140.2608 -36.397881 -0.092094958
140.31076 -36.397423 -0.090126514
140.36095 -36.396904 -0.092151403
140.41025 -36.396637 -0.078202665
140.46053 -36.396088 -0.081825018
140.51071 -36.395569 -0.083849907
140.56036 -36.395203 -0.076290607
140.61047 -36.394707 -0.076718152
140.66052 -36.394226 -0.076346993
140.71111 -36.393593 -0.085560083
140.72513 -36.403191 0.56653631
140.77045 -36.40403 0.65236652
140.81993 -36.403709 0.66312039
140.86977 -36.40329 0.66748488
140.92065 -36.402573 0.65268111
140.97398 -36.401176 0.59394979
141.02681 -36.399918 0.54400384
141.07961 -36.398666 0.4948566
141.13284 -36.397293 0.43772256
141.18532 -36.396133 0.39416611
141.23909 -36.394615 0.32744801
141.29228 -36.393257 0.27111262
141.34688 -36.391502 0.18921936
141.40016 -36.390114 0.13128668
141.4545 -36.388443 0.054185569
141.50919 -36.386658 -0.029304981
141.5641 -36.384819 -0.11678904
141.61928 -36.382904 -0.20906514
141.67418 -36.381065 -0.29654908
141.73068 -36.378777 -0.41278559
141.78683 -36.376595 -0.52263272
141.84422 -36.374062 -0.65484291
141.90572 -36.370377 -0.86133069
139.45323 -36.580948 -1.7558322
139.50298 -36.580551 -1.7498704
139.55299 -36.580086 -1.7487005
139.60269 -36.579697 -1.7419399
139.65265 -36.579247 -1.7399714
139.70276 -36.578751 -1.740399
139.75293 -36.578232 -1.7424239
139.72112 -36.600647 -0.26129484
139.76794 -36.601067 -0.20261991
139.81505 -36.60141 -0.14873695
139.86342 -36.601402 -0.11801589
139.91335 -36.600952 -0.11524874
139.96335 -36.600487 -0.11407888
140.01332 -36.600029 -0.11211038
140.06337 -36.599541 -0.11173928
140.11311 -36.599152 -0.10577738
140.16286 -36.598755 -0.099815488
140.21255 -36.598373 -0.093054891
140.26292 -36.597801 -0.098274469
140.31293 -36.597328 -0.097104669
140.36267 -36.596939 -0.091142774
140.41234 -36.596565 -0.083583534
140.46269 -36.595993 -0.088803172
140.51239 -36.595619 -0.082042575
140.56258 -36.595093 -0.084067523
140.6129 -36.594536 -0.088488519
140.66264 -36.594147 -0.082526565
140.71301 -36.593575 -0.087746203
140.72862 -36.60273 0.53559768
140.7724 -36.604004 0.64938164
140.82214 -36.603607 0.65534353
140.87228 -36.603096 0.65411723
140.92247 -36.602577 0.65209234
140.9754 -36.601295 0.6005491
141.02841 -36.599983 0.54740846
141.0817 -36.598602 0.48947585
141.13466 -36.597305 0.43713391
141.18802 -36.595894 0.37760377
141.2413 -36.594513 0.31967103
141.29494 -36.593025 0.25534892
141.34839 -36.591599 0.19422144
141.40247 -36.589989 0.12191236
141.45627 -36.588463 0.054395556
141.5114 -36.586555 -0.037081897
141.56569 -36.584885 -0.11338437
141.62149 -36.582802 -0.216842
141.67644 -36.580948 -0.30512464
141.73294 -36.578659 -0.42136127
141.7905 -36.57608 -0.55676621
141.84908 -36.573212 -0.71054083
141.90549 -36.570953 -0.82518005
139.45523 -36.780899 -1.7596157
139.50475 -36.780571 -1.7496604
139.55453 -36.780159 -1.7444971
139.6049 -36.779587 -1.7497168
139.65465 -36.779198 -1.7437549
139.70518 -36.77858 -1.7521693
139.6909 -36.796097 -0.5881173
139.72223 -36.80085 -0.24910462
139.7692 -36.801231 -0.19282568
139.81606 -36.801636 -0.13494939
139.86549 -36.801331 -0.12339664
139.91524 -36.800934 -0.1174348
139.96535 -36.800438 -0.11786234
140.01535 -36.799965 -0.11669254
140.06519 -36.799545 -0.11232793
140.11475 -36.799202 -0.10317135
140.16472 -36.798744 -0.10120285
140.21509 -36.79818 -0.10642254
140.26523 -36.797668 -0.10764873
140.31218 -36.79805 -0.051369786
140.36488 -36.796829 -0.09891963
140.41472 -36.79641 -0.09455514
140.4646 -36.795975 -0.090989232
140.5143 -36.795593 -0.084228635
140.56422 -36.795151 -0.081461489
140.61441 -36.794624 -0.083486438
140.66455 -36.794121 -0.084712744
140.6828 -36.802536 0.49071014
140.7299 -36.802879 0.54459298
140.77426 -36.803993 0.64799428
140.82378 -36.803658 0.65794957
140.87415 -36.803093 0.65272987
140.92442 -36.802544 0.64910758
140.97769 -36.801163 0.59117496
141.03133 -36.799683 0.52685273
141.08398 -36.79847 0.48010147
141.13683 -36.797203 0.43015563
141.18993 -36.795876 0.37541771
141.24342 -36.794426 0.31349158
141.29643 -36.793114 0.26035094
141.35033 -36.791565 0.19123667
141.40424 -36.790009 0.12212229
141.45914 -36.78817 0.034638405
141.51321 -36.78656 -0.037670672
141.56825 -36.784683 -0.12755066
141.62317 -36.782845 -0.21503472
141.6783 -36.780937 -0.30651206
141.73541 -36.778481 -0.43393016
141.79189 -36.776207 -0.54936808
141.84909 -36.773727 -0.67838353
141.90858 -36.770599 -0.8489306
139.51151 -36.979195 -1.8397015
139.55737 -36.979881 -1.7634555
139.60641 -36.979683 -1.7447146
139.65642 -36.979218 -1.7435449
139.70616 -36.978821 -1.737583
139.7574 -36.978004 -1.7587763
139.72144 -37.001587 -0.20257103
139.76791 -37.002098 -0.1375066
139.8177 -37.001694 -0.13234335
139.86731 -37.001335 -0.12398541
139.9175 -37.000816 -0.12601036
139.96729 -37.000412 -0.12084711
140.01712 -36.999985 -0.11648256
140.06714 -36.999519 -0.1153127
140.117 -36.999084 -0.11174691
140.1667 -36.998703 -0.10498631
140.21677 -36.998222 -0.10461521
140.26695 -36.997704 -0.1066401
140.317 -36.997223 -0.106269
140.36665 -36.996849 -0.098709702
140.41689 -36.996315 -0.10153335
140.46672 -36.995895 -0.097168803
140.51646 -36.995506 -0.091206789
140.56648 -36.995033 -0.090037048
140.6163 -36.994614 -0.085672498
140.66676 -36.994019 -0.092489481
140.68361 -37.002823 0.50849116
140.73105 -37.003067 0.55598462
140.77621 -37.00396 0.64500952
140.82596 -37.003563 0.65097129
140.87596 -37.003098 0.65214121
140.92694 -37.002357 0.63573992
140.98013 -37.000992 0.57940471
141.0331 -36.999702 0.52706265
141.08571 -36.998497 0.48111022
141.13869 -36.9972 0.42876828
141.19151 -36.995941 0.37882233
141.2455 -36.994362 0.30811071
141.29904 -36.992905 0.24538589
141.35219 -36.991554 0.18984932
141.40643 -36.989899 0.11434543
141.46095 -36.988174 0.03404963
141.51498 -36.98658 -0.037460685
141.56998 -36.984711 -0.12654209
141.62573 -36.982635 -0.22920108
141.68056 -36.98082 -0.31508762
141.73711 -36.978523 -0.43212283
141.79317 -36.976364 -0.54037261
141.8528 -36.973198 -0.71331561
141.91084 -36.970482 -0.85750616
139.6619 -37.178192 -1.8104243
139.70856 -37.178665 -1.7485546
139.75887 -37.178108 -1.7529756
139.72321 -37.201599 -0.20236105
139.77026 -37.201958 -0.14767957
139.81964 -37.20166 -0.13532811
139.86948 -37.201241 -0.13096356
139.91927 -37.200829 -0.12580037
139.96924 -37.200378 -0.12383187
140.01929 -37.19989 -0.12346077
140.06908 -37.199486 -0.11829746
140.11882 -37.199089 -0.11233568
140.16891 -37.198593 -0.11276317
140.21854 -37.198242 -0.10440522
140.26801 -37.197914 -0.093651175
140.31908 -37.197151 -0.11164975
140.3687 -37.196793 -0.10329187
140.41875 -37.196312 -0.10292071
140.4684 -37.195938 -0.095361471
140.51837 -37.19548 -0.093392849
140.56833 -37.195023 -0.091424406
140.61839 -37.194542 -0.091053307
140.66849 -37.194046 -0.091480851
140.71916 -37.19339 -0.10229135
140.73463 -37.202583 0.52344859
140.77776 -37.204041 0.64921284
140.82755 -37.203629 0.65437603
140.87773 -37.20311 0.65235102
140.9285 -37.202431 0.63994324
140.98209 -37.200958 0.57641995
141.03482 -37.19973 0.52807128
141.08762 -37.198479 0.47892416
141.14085 -37.197105 0.42179
141.19412 -37.195724 0.36385727
141.24701 -37.19445 0.31311274
141.30121 -37.19281 0.23840773
141.35458 -37.191399 0.17887765
141.40839 -37.189865 0.11136067
141.46219 -37.188339 0.043843865
141.5172 -37.18647 -0.045237482
141.57237 -37.184555 -0.13751364
141.62724 -37.182732 -0.224199
141.68219 -37.180878 -0.31248158
141.73927 -37.178429 -0.43910098
141.79639 -37.175972 -0.56651914
141.85426 -37.173302 -0.70751488
139.67792 -37.40126 -0.25683266
139.72516 -37.401566 -0.20534581
139.77203 -37.40197 -0.14746952
139.82155 -37.401642 -0.13751423
139.87164 -37.401146 -0.13794184
139.92148 -37.400726 -0.13357723
139.97136 -37.400291 -0.13001132
140.02136 -37.399826 -0.12884158
140.07133 -37.399361 -0.12687308
140.12077 -37.399055 -0.11532044
140.17105 -37.398514 -0.11894262
140.22087 -37.398094 -0.11457813
140.27084 -37.397636 -0.11260962
140.32054 -37.397247 -0.10584903
140.37091 -37.396683 -0.11106873
140.42075 -37.396263 -0.10670418
140.47066 -37.395821 -0.10393703
140.52045 -37.395409 -0.098773718
140.57019 -37.395012 -0.092811823
140.6203 -37.394516 -0.093239427
140.6707 -37.393944 -0.099257708
140.68785 -37.402657 0.49613202
140.73354 -37.403397 0.57557285
140.77983 -37.403969 0.64383197
140.82953 -37.403587 0.65059257
140.87976 -37.403053 0.64776886
140.93062 -37.402351 0.63376391
140.98398 -37.40094 0.57423365
141.03699 -37.399635 0.52109313
141.08952 -37.39846 0.4767381
141.14323 -37.39695 0.41081846
141.19577 -37.395775 0.36646342
141.24948 -37.394272 0.30054379
141.30286 -37.39286 0.24101377
141.3567 -37.391319 0.17269808
141.41109 -37.389626 0.094798326
141.46396 -37.388351 0.044053674
141.52011 -37.386169 -0.065793276
141.57477 -37.384399 -0.14848524
141.63011 -37.382439 -0.24395609
141.68596 -37.380333 -0.34821236
141.74197 -37.378181 -0.45566338
141.79883 -37.375801 -0.57828945
141.85634 -37.37323 -0.71289569
141.91518 -37.370293 -0.87146246
139.68018 -37.601143 -0.26540828
139.72679 -37.601624 -0.20273989
139.77406 -37.601921 -0.15205169
139.82364 -37.601578 -0.1428951
139.87315 -37.601242 -0.13293982
139.92299 -37.600815 -0.12857521
139.97331 -37.600266 -0.1329962
140.02306 -37.599869 -0.12703425
140.07297 -37.599419 -0.12426704
140.12289 -37.598976 -0.1214999
140.17264 -37.598579 -0.115538
140.22243 -37.598175 -0.11037481
140.2728 -37.597603 -0.11559445
140.32263 -37.597183 -0.1112299
140.37254 -37.596741 -0.10846269
140.42247 -37.596298 -0.10569555
140.47235 -37.595863 -0.1021297
140.52226 -37.595421 -0.099362493
140.57214 -37.594986 -0.095796645
140.62224 -37.59449 -0.096224248
140.6731 -37.593788 -0.11022937
140.6898 -37.602631 0.49314725
140.73447 -37.603653 0.59095776
140.78192 -37.603905 0.6384511
140.83162 -37.603516 0.6452117
140.88167 -37.603035 0.6455828
140.93269 -37.60228 0.62838304
140.98647 -37.600761 0.56166482
141.03885 -37.599625 0.51970565
141.09183 -37.598328 0.46736372
141.14497 -37.596977 0.41182709
141.19856 -37.595512 0.34830368
141.25157 -37.5942 0.29516304
141.30489 -37.592804 0.23643154
141.35887 -37.591225 0.16571987
141.41237 -37.589783 0.10379368
141.46671 -37.588104 0.026692569
141.5218 -37.586212 -0.063986063
141.57684 -37.584328 -0.15386605
141.63202 -37.58242 -0.24614221
141.6875 -37.580414 -0.34400904
141.74356 -37.578255 -0.45225877
141.8017 -37.575516 -0.5980466
141.85886 -37.573044 -0.7262634
141.91576 -37.570641 -0.84968811
139.68112 -37.801399 -0.25002337
139.72737 -37.801979 -0.18096548
139.77588 -37.801926 -0.15264046
139.82571 -37.801506 -0.14827585
139.87527 -37.801163 -0.13911927
139.92534 -37.800674 -0.13874811
139.97513 -37.80027 -0.13358486
140.02509 -37.799812 -0.13161641
140.07487 -37.7994 -0.12645316
140.12457 -37.799019 -0.11969268
140.17464 -37.798538 -0.11932147
140.22504 -37.797958 -0.12533981
140.27505 -37.797493 -0.12416995
140.32487 -37.797066 -0.11980546
140.37427 -37.796776 -0.10745406
140.42406 -37.796364 -0.10229087
140.4742 -37.795853 -0.10351706
140.52403 -37.795441 -0.099152565
140.57391 -37.795006 -0.095586658
140.62396 -37.794518 -0.095215559
140.67393 -37.794067 -0.093247056
140.69174 -37.802597 0.49016249
140.7392 -37.802841 0.53765595
140.78378 -37.803894 0.63706374
140.83308 -37.803627 0.65101242
140.88322 -37.803116 0.64978623
140.93442 -37.802315 0.62939155
140.98845 -37.80072 0.55788136
141.04094 -37.799561 0.51432478
141.09369 -37.798325 0.46597636
141.14665 -37.797028 0.41363442
141.20029 -37.795547 0.34931219
141.25383 -37.794083 0.2865873
141.30742 -37.792618 0.22306401
141.36108 -37.791122 0.15794313
141.41493 -37.789574 0.089627445
141.46919 -37.787926 0.014123738
141.52388 -37.78614 -0.069366813
141.5784 -37.784416 -0.14966267
141.63423 -37.782318 -0.25391906
141.69003 -37.780228 -0.35737669
141.74556 -37.778214 -0.45604217
141.80302 -37.775658 -0.58984983
141.86191 -37.772705 -0.74921525
141.91934 -37.770157 -0.88222414
139.63721 -38.000671 -0.32925409
139.68336 -38.001274 -0.25859886
139.72958 -38.001869 -0.18874228
139.77765 -38.001938 -0.15243053
139.82762 -38.001488 -0.15046197
139.87723 -38.001129 -0.14210403
139.92715 -38.000679 -0.13933682
139.97755 -38.000099 -0.14535522
140.02673 -37.999863 -0.12901038
140.07634 -37.999504 -0.12065238
140.12679 -37.998917 -0.12746942
140.17645 -37.998543 -0.11991024
140.22627 -37.998123 -0.11554563
140.27599 -37.997742 -0.10878497
140.32706 -37.996971 -0.12678361
140.37653 -37.996651 -0.11602962
140.42632 -37.996246 -0.11086637
140.47624 -37.995796 -0.10809922
140.52634 -37.995308 -0.10852671
140.57603 -37.994919 -0.10176617
140.62617 -37.994415 -0.10299242
140.6761 -37.993973 -0.10022521
140.69353 -38.002617 0.49037254
140.7377 -38.003777 0.59696841
140.78568 -38.003876 0.63487768
140.83534 -38.003502 0.64243686
140.88535 -38.003036 0.64360666
140.93752 -38.001961 0.60564113
140.99049 -38.000664 0.55329919
141.04337 -37.99939 0.50255454
141.09563 -37.998291 0.4629916
141.14908 -37.996857 0.40186417
141.2021 -37.995552 0.34872353
141.25507 -37.994247 0.29638159
141.30971 -37.992485 0.21368974
141.36325 -37.991028 0.15096486
141.41728 -37.989433 0.079454601
141.47078 -37.987991 0.017528474
141.52626 -37.985985 -0.080338418
141.58188 -37.983948 -0.18060136
141.636 -37.98233 -0.25370908
141.69171 -37.980263 -0.35556936
141.74808 -37.97802 -0.46940982
141.80603 -37.975327 -0.61200297
141.86342 -37.972794 -0.74421316
141.92386 -37.969406 -0.9315325
139.6201 -38.192451 -0.89328527
139.63531 -38.201714 -0.26275343
139.68201 -38.202171 -0.20168245
139.72989 -38.202293 -0.16217583
139.77893 -38.202095 -0.143435
139.83028 -38.201256 -0.16622567
139.8801 -38.200836 -0.16186106
139.92937 -38.200569 -0.14711374
139.97893 -38.200226 -0.1379571
140.02881 -38.199791 -0.13439119
140.07834 -38.199463 -0.12443584
140.12825 -38.19902 -0.1216687
140.17822 -38.198555 -0.11970019
140.22832 -38.198067 -0.1201278
140.27832 -38.197594 -0.11895794
140.32825 -38.197151 -0.11619079
140.37834 -38.196655 -0.11661828
140.42801 -38.196281 -0.1090591
140.47806 -38.195801 -0.108688
140.5278 -38.195412 -0.10272598
140.57785 -38.194923 -0.10235488
140.62759 -38.194527 -0.096392989
140.67831 -38.193863 -0.10800207
140.69547 -38.202583 0.48738778
140.74208 -38.203064 0.5500561
140.7874 -38.203903 0.63588631
140.83759 -38.203384 0.6338613
140.88702 -38.203079 0.64541411
140.93982 -38.201828 0.59626687
140.99213 -38.200714 0.55590522
141.04478 -38.199509 0.50915396
141.09819 -38.198082 0.44882524
141.15112 -38.1968 0.397282
141.20418 -38.19548 0.34334266
141.25758 -38.194054 0.28301388
141.31161 -38.192459 0.21150368
141.36546 -38.190918 0.143188
141.41896 -38.189476 0.081261814
141.47334 -38.187782 0.003362
141.52751 -38.18615 -0.070544243
141.58295 -38.184158 -0.16761249
141.6376 -38.182396 -0.2503044
141.69446 -38.180008 -0.37293041
141.75095 -38.177727 -0.48916692
141.8082 -38.175232 -0.61898112
139.63721 -38.401695 -0.26493949
139.68324 -38.402336 -0.19188827
139.73109 -38.402473 -0.15158296
139.78065 -38.402122 -0.14242625
139.83063 -38.401672 -0.14045781
139.88058 -38.401215 -0.13848937
139.93011 -38.400879 -0.12853402
139.98167 -38.399979 -0.15531814
140.03088 -38.399727 -0.139772
140.08072 -38.399307 -0.13540745
140.12976 -38.399109 -0.11666667
140.18016 -38.398529 -0.12268496
140.23013 -38.398071 -0.12071645
140.28014 -38.397606 -0.11954665
140.33072 -38.396973 -0.12875974
140.38069 -38.396515 -0.12679124
140.43057 -38.39608 -0.12322539
140.47978 -38.395836 -0.10767925
140.52983 -38.395355 -0.10730815
140.5798 -38.394897 -0.10533965
140.62971 -38.394447 -0.1025725
140.67987 -38.393944 -0.10379875
140.69742 -38.40255 0.48440301
140.74098 -38.403885 0.60218048
140.78961 -38.403801 0.62810946
140.83914 -38.403465 0.63806474
140.88956 -38.402885 0.63204634
140.94182 -38.401787 0.5924834
140.99451 -38.400558 0.54493356
141.04691 -38.399429 0.50297463
141.10049 -38.397957 0.43945098
141.15343 -38.396667 0.38790774
141.20625 -38.395409 0.33796179
141.25998 -38.393906 0.27204233
141.31357 -38.392433 0.20851892
141.3667 -38.39109 0.15298223
141.42149 -38.389282 0.067894161
141.4752 -38.387779 0.0019746423
141.53073 -38.385765 -0.096690834
141.58591 -38.38385 -0.18896693
141.64101 -38.381958 -0.27964568
141.69688 -38.379845 -0.38470066
141.75197 -38.377953 -0.47537935
141.80962 -38.375351 -0.6123817
141.8681 -38.372505 -0.76455897
139.63885 -38.601746 -0.26233351
139.68538 -38.602257 -0.19806784
139.73268 -38.602539 -0.14817828
139.78207 -38.602242 -0.13582695
139.83244 -38.601677 -0.14104664
139.88219 -38.601273 -0.13508475
139.93193 -38.600876 -0.12912279
139.98181 -38.600449 -0.12555695
140.03062 -38.600311 -0.10282266
140.0836 -38.599014 -0.1551646
140.13242 -38.598877 -0.13243043
140.18251 -38.598381 -0.13285792
140.23209 -38.598038 -0.12370127
140.28191 -38.597618 -0.11933672
140.33218 -38.597076 -0.12295902
140.38246 -38.596535 -0.12658131
140.4326 -38.596024 -0.12780756
140.48209 -38.595703 -0.11705351
140.53204 -38.595245 -0.11508501
140.58183 -38.594833 -0.10992181
140.63153 -38.594452 -0.10316128
140.68243 -38.593735 -0.1179651
140.69914 -38.602577 0.48541152
140.74208 -38.604088 0.6143707
140.79091 -38.603951 0.63710487
140.84135 -38.603355 0.63028789
140.89154 -38.602844 0.62826288
140.94398 -38.601692 0.58550513
140.9966 -38.600487 0.53955281
141.04926 -38.599281 0.49280155
141.10236 -38.597946 0.4380635
141.15488 -38.596771 0.39370859
141.20856 -38.595276 0.32858753
141.26189 -38.59388 0.26985621
141.31578 -38.592323 0.20074189
141.36919 -38.590904 0.14041311
141.42326 -38.589294 0.068104148
141.47816 -38.587463 -0.019379795
141.53175 -38.585991 -0.082903326
141.58755 -38.5839 -0.18636096
141.64294 -38.581924 -0.2826305
141.6987 -38.579849 -0.38528943
141.7552 -38.57756 -0.501526
141.81236 -38.575096 -0.6297428
141.86908 -38.572746 -0.74997276
141.93225 -38.568596 -0.98681045
141.99542 -38.564445 -1.2236482
139.64084 -38.801704 -0.26611698
139.68719 -38.802261 -0.19865656
139.73494 -38.802422 -0.1567539
139.78424 -38.802147 -0.1428051
139.83426 -38.801682 -0.1416353
139.88396 -38.801292 -0.1348747
139.93445 -38.80069 -0.14249045
139.98375 -38.800423 -0.12854171
140.03293 -38.800186 -0.11219692
140.08267 -38.799789 -0.10623503
140.13484 -38.798714 -0.14420068
140.18358 -38.798599 -0.11986899
140.23451 -38.797874 -0.13547158
140.2836 -38.797661 -0.11752939
140.33449 -38.796944 -0.13233328
140.38379 -38.796677 -0.11838448
140.43428 -38.796066 -0.12600023
140.48412 -38.795647 -0.12163568
140.53378 -38.79528 -0.11407638
140.58392 -38.794769 -0.11530262
140.63371 -38.794357 -0.11013943
140.68442 -38.793694 -0.12174857
140.70061 -38.802689 0.49121225
140.74448 -38.803932 0.60339892
140.79329 -38.803795 0.6261332
140.84299 -38.803413 0.63289392
140.8934 -38.802834 0.62687552
140.94557 -38.801758 0.58890998
140.99806 -38.800598 0.54535353
141.05112 -38.799278 0.49141419
141.10431 -38.79792 0.43507874
141.15758 -38.796532 0.37714612
141.21068 -38.795197 0.32240808
141.26418 -38.793755 0.26048195
141.31767 -38.792305 0.19855583
141.3714 -38.790802 0.13263625
141.42534 -38.78923 0.062723279
141.48021 -38.787407 -0.023961961
141.53392 -38.785896 -0.08988148
141.58968 -38.783821 -0.19254047
141.64511 -38.78183 -0.28960866
141.70056 -38.779846 -0.38667685
141.75627 -38.777779 -0.48853707
141.81401 -38.775146 -0.62713683
141.87315 -38.772125 -0.79129428
141.93169 -38.769264 -0.94427031
139.64284 -39.001663 -0.26990044
139.68922 -39.002205 -0.20323867
139.73676 -39.002426 -0.15734255
139.78615 -39.002129 -0.14499116
139.83617 -39.001663 -0.14382142
139.88626 -39.001167 -0.14424896
139.93619 -39.000725 -0.14148182
139.98544 -39.000465 -0.12673438
140.03496 -39.00013 -0.11677903
140.08479 -38.99971 -0.11241448
140.13533 -38.999092 -0.12082887
140.18605 -38.998421 -0.13243794
140.23474 -38.998329 -0.10730773
140.28589 -38.997536 -0.12690359
140.33617 -38.996986 -0.13052595
140.38586 -38.996605 -0.12376535
140.4361 -38.996078 -0.12658894
140.48576 -38.995705 -0.11902964
140.53595 -38.995186 -0.12105453
140.586 -38.994705 -0.12068343
140.63618 -38.994186 -0.12270838
140.68663 -38.993591 -0.12952542
140.70317 -39.002487 0.47704589
140.74643 -39.003899 0.60041416
140.7952 -39.003784 0.62394714
140.84512 -39.003334 0.62671435
140.89482 -39.002953 0.63347495
140.94753 -39.001732 0.58592522
141.00049 -39.000427 0.53358328
141.05298 -38.999275 0.49002671
141.10608 -38.99794 0.43528879
141.1597 -38.996452 0.37096655
141.21237 -38.995247 0.32421541
141.26604 -38.993752 0.2590946
141.31937 -38.992348 0.20036328
141.37396 -38.990601 0.11847001
141.42734 -38.989189 0.058939815
141.48247 -38.987289 -0.03253752
141.53658 -38.985672 -0.10564518
141.59207 -38.983665 -0.20351207
141.64693 -38.981842 -0.29019743
141.70291 -38.979706 -0.39684975
141.75989 -38.97728 -0.52187181
141.81618 -38.97506 -0.63411498
139.64496 -39.201576 -0.27607995
139.69073 -39.202293 -0.19823658
139.73853 -39.202438 -0.15713257
139.78836 -39.202019 -0.15276814
139.83815 -39.201614 -0.14760482
139.88812 -39.201157 -0.14563632
139.93803 -39.200706 -0.14286917
139.98738 -39.200424 -0.12971914
140.03673 -39.200142 -0.11656904
140.08635 -39.199783 -0.1082111
140.1387 -39.198662 -0.1493715
140.18712 -39.198631 -0.11944914
140.23784 -39.197968 -0.13105822
140.28726 -39.197655 -0.11950547
140.33817 -39.196938 -0.13430929
140.38821 -39.196457 -0.13393831
140.43814 -39.196014 -0.13117111
140.48784 -39.195625 -0.12441051
140.53763 -39.195221 -0.1192472
140.58768 -39.19474 -0.1188761
140.63747 -39.194328 -0.11371291
140.68849 -39.193581 -0.13091278
140.70503 -39.202469 0.47565854
140.74815 -39.203926 0.60142291
140.7975 -39.203644 0.61457288
140.84724 -39.203247 0.6205349
140.89699 -39.202858 0.62649667
140.94986 -39.201584 0.57575214
141.00209 -39.200493 0.5369879
141.05527 -39.199135 0.48065257
141.10855 -39.197754 0.42271984
141.16135 -39.196503 0.37357271
141.21494 -39.19503 0.31004918
141.26865 -39.193527 0.24412954
141.32158 -39.192238 0.1925863
141.37485 -39.190857 0.13465363
141.42918 -39.189178 0.057552457
141.48436 -39.187263 -0.034723639
141.53867 -39.185593 -0.11102599
141.59389 -39.18367 -0.20410079
141.64963 -39.181595 -0.30675977
141.70468 -39.179718 -0.39663976
141.76166 -39.177292 -0.52166182
141.81891 -39.174797 -0.65147603
141.87737 -39.171967 -0.8028546
139.63258 -39.392036 -0.92557025
139.64673 -39.401596 -0.27586997
139.69347 -39.402039 -0.21559763
139.74026 -39.402473 -0.15612394
139.79008 -39.402054 -0.15175939
139.84024 -39.40155 -0.15298569
139.89015 -39.4011 -0.15021849
139.94008 -39.400658 -0.14745134
139.98924 -39.400421 -0.1311065
140.03931 -39.39994 -0.1307354
140.08896 -39.399567 -0.1231761
140.13971 -39.398888 -0.135584
140.19017 -39.398293 -0.14240098
140.23969 -39.397964 -0.13244557
140.28905 -39.397675 -0.11929554
140.33954 -39.397072 -0.12691116
140.39029 -39.396393 -0.13931906
140.44012 -39.395973 -0.13495451
140.48987 -39.395576 -0.12899256
140.53961 -39.39518 -0.12303066
140.58958 -39.394722 -0.12106222
140.63968 -39.394226 -0.12148976
140.69044 -39.393547 -0.13389754
140.70667 -39.402527 0.47826445
140.74969 -39.404007 0.60562646
140.79897 -39.403748 0.62037373
140.84875 -39.403343 0.62553704
140.89925 -39.40274 0.61792123
140.95102 -39.401772 0.58714378
141.00461 -39.400299 0.52362025
141.0574 -39.399055 0.47447312
141.11046 -39.397736 0.42053378
141.16272 -39.396629 0.38097084
141.21608 -39.395226 0.3214407
141.27016 -39.393616 0.24913156
141.32405 -39.392059 0.18001747
141.3779 -39.390518 0.11170179
141.43163 -39.389008 0.045782089
141.48605 -39.387306 -0.032916248
141.54135 -39.385353 -0.12758833
141.59566 -39.38369 -0.2038908
141.65149 -39.381592 -0.30814713
141.7072 -39.379524 -0.41000736
141.76326 -39.377357 -0.51825714
141.8224 -39.374336 -0.68241465
139.64885 -39.601517 -0.28204948
139.69524 -39.602058 -0.21538764
139.74255 -39.602341 -0.1654982
139.79227 -39.601959 -0.15873766
139.84232 -39.601479 -0.15836644
139.89197 -39.601105 -0.15080714
139.94202 -39.600624 -0.1504361
139.99141 -39.600327 -0.13808465
140.04187 -39.599739 -0.14490175
140.09082 -39.599564 -0.12456352
140.14211 -39.598732 -0.14655554
140.19296 -39.59803 -0.16056073
140.24173 -39.597908 -0.13702774
140.29138 -39.597534 -0.12946844
