# .PCD v0.7 - Point Cloud Data file format
VERSION 0.7
FIELDS x y z
SIZE 4 4 4
TYPE F F F
COUNT 1 1 1
WIDTH 1506
HEIGHT 1
VIEWPOINT 0 0 0 1 0 0 0
POINTS 1506
DATA ascii
20.461349 -53.217297 0.6172111
20.457382 -53.267078 0.62481356
20.453735 -53.317062 0.61081934
20.449837 -53.36689 0.61362243
20.446228 -53.416893 0.59722853
20.44442 -53.46801 0.46085262
20.440941 -53.518097 0.43566
20.437073 -53.567944 0.43606353
20.433334 -53.617867 0.42846823
20.420532 -53.66222 1.0223821
20.415749 -53.711498 1.0843763
20.410683 -53.760616 1.163968
20.406731 -53.810406 1.1707706
20.402824 -53.860233 1.1735736
20.399773 -53.910576 1.1203852
20.396706 -53.960915 1.0679967
20.393501 -54.011173 1.0244069
20.390495 -54.061546 0.96801901
20.387505 -54.111938 0.91003132
20.38475 -54.162468 0.83684587
20.381645 -54.212784 0.78685701
20.378983 -54.263374 0.70727265
20.375977 -54.313747 0.65088463
20.373314 -54.364338 0.57130015
20.370827 -54.415031 0.48051751
20.368187 -54.465637 0.39933324
20.365677 -54.516315 0.31015038
20.363304 -54.567085 0.2113688
20.361008 -54.617897 0.10778809
20.358803 -54.668766 -0.0021920204
20.357056 -54.719921 -0.14256716
20.355614 -54.771259 -0.30293941
20.315704 -52.3993 1.1451297
20.311401 -52.448883 1.1743288
20.307312 -52.498592 1.1899301
20.30442 -52.549042 1.1255434
20.304184 -52.60112 0.88518322
20.303955 -52.653206 0.64402318
20.301376 -52.70385 0.55883956
20.296936 -52.753342 0.59763718
20.292931 -52.803101 0.60763931
20.288895 -52.852848 0.61924112
20.285095 -52.902733 0.61564529
20.281288 -52.952621 0.61204934
20.277565 -53.00256 0.60285437
20.273392 -53.052216 0.62405467
20.269646 -53.102139 0.61645937
20.265869 -53.152039 0.61126375
20.261772 -53.201748 0.62686503
20.258133 -53.251732 0.61287069
20.254295 -53.301601 0.61087453
20.250511 -53.351494 0.60647881
20.246803 -53.40144 0.59648395
20.244995 -53.452557 0.46010804
20.24157 -53.502674 0.43171585
20.237679 -53.552505 0.43371904
20.233948 -53.602436 0.42532396
20.221169 -53.646805 1.0176382
20.215843 -53.695751 1.1156269
20.211311 -53.745193 1.1600239
20.207367 -53.794991 1.1660266
20.203476 -53.844822 1.1680298
20.200249 -53.895065 1.1260396
20.197365 -53.945515 1.0616529
20.194061 -53.995712 1.0244621
20.191116 -54.046124 0.96407485
20.188217 -54.096565 0.9004879
20.185173 -54.146919 0.84649968
20.18235 -54.197411 0.77731371
20.179504 -54.247883 0.71052742
20.176643 -54.298355 0.64374089
20.17392 -54.3489 0.56895578
20.171288 -54.399506 0.48777163
20.168716 -54.450157 0.40178823
20.16629 -54.500885 0.30700612
20.163628 -54.551476 0.22742164
20.16156 -54.602428 0.10864305
20.159531 -54.653412 -0.01333499
20.157684 -54.704498 -0.14651132
20.156006 -54.755695 -0.29168582
20.101807 -52.688301 0.56849349
20.09742 -52.737831 0.60329175
20.093201 -52.787457 0.62769175
20.089333 -52.837307 0.62809515
20.08551 -52.887177 0.62609911
20.081635 -52.937019 0.62730253
20.077827 -52.986908 0.62370658
20.074074 -53.036823 0.61691117
20.069931 -53.086502 0.63571191
20.066368 -53.136536 0.61611843
20.062347 -53.186287 0.62692034
20.057785 -53.235706 0.6737169
20.054459 -53.285892 0.6381259
20.049118 -53.334827 0.73691452
20.046776 -53.385612 0.63653326
20.044884 -53.436676 0.50575638
20.042191 -53.487244 0.4285717
20.038277 -53.537064 0.43217468
20.034645 -53.587051 0.41738057
20.021805 -53.631382 1.013694
20.017296 -53.680832 1.0572912
20.011948 -53.729771 1.1560798
20.008034 -53.779591 1.1596829
20.004242 -53.829483 1.155287
20.00087 -53.879635 1.1228955
19.99807 -53.930138 1.0529096
19.994843 -53.980381 1.0109196
19.991737 -54.030697 0.96093059
19.988762 -54.081093 0.90214312
19.985809 -54.131496 0.84255576
19.98288 -54.181923 0.7805686
19.980026 -54.232395 0.71378219
19.977264 -54.282925 0.64059675
19.97448 -54.333435 0.56981111
19.971626 -54.383907 0.5030247
19.969376 -54.43475 0.39624441
19.966972 -54.485493 0.2998625
19.964462 -54.536179 0.20987964
19.962097 -54.586948 0.11109829
19.960083 -54.637936 -0.011679649
19.958176 -54.688988 -0.14085674
19.956436 -54.740147 -0.28203177
19.902626 -52.672997 0.55175126
19.898201 -52.722504 0.5889492
19.893829 -52.772034 0.62374759
19.889801 -52.821789 0.6345495
19.886192 -52.871792 0.6181556
19.882584 -52.921799 0.60176158
19.878799 -52.971699 0.59656596
19.874435 -53.021236 0.63056445
19.86956 -53.070465 0.69815767
19.865501 -53.120193 0.71135926
19.862923 -53.170837 0.62617576
19.859253 -53.220802 0.61378121
19.855415 -53.270668 0.61258495
19.851852 -53.320702 0.59299147
19.848175 -53.370663 0.58139682
19.846649 -53.421955 0.42582381
19.842758 -53.471783 0.42862689
19.838921 -53.521656 0.42663085
19.835236 -53.571606 0.41583598
19.822174 -53.615803 1.0265474
19.818123 -53.665535 1.039749
19.812485 -53.714294 1.1577349
19.80864 -53.764153 1.1573385
19.804794 -53.814014 1.1561422
19.801514 -53.86422 1.1181514
19.798256 -53.91444 1.0785609
19.795456 -53.964951 1.0077753
19.792282 -54.015221 0.96258569
19.789352 -54.065647 0.90059853
19.786423 -54.116066 0.8394115
19.783394 -54.166435 0.78382337
19.780785 -54.217052 0.70103931
19.777794 -54.267445 0.64305162
19.77507 -54.317989 0.56826651
19.772461 -54.36861 0.48548257
19.769775 -54.419186 0.407498
19.767334 -54.469906 0.31351578
19.76487 -54.520622 0.22033334
19.762566 -54.571426 0.11755252
19.760468 -54.622364 0.00037384033
19.758873 -54.673607 -0.14960027
19.703545 -52.657745 0.52941
19.698616 -52.70694 0.6002028
19.694252 -52.756477 0.63420129
19.690453 -52.80637 0.62980556
19.686699 -52.856289 0.62301016
19.683098 -52.906292 0.60661626
19.679283 -52.956181 0.60302043
19.675171 -53.005875 0.62022126
19.671425 -53.055798 0.61262596
19.66758 -53.105652 0.61222959
19.663673 -53.155479 0.61503279
19.65992 -53.205395 0.60823739
19.655861 -53.255127 0.62143898
19.651817 -53.304863 0.63384068
19.64856 -53.355083 0.5942502
19.647194 -53.406475 0.42827892
19.643303 -53.456299 0.43108189
19.639648 -53.506283 0.41708755
19.632561 -53.554146 0.63185883
19.624863 -53.601639 0.88662386
19.618774 -53.65012 1.0350051
19.613091 -53.698849 1.1561904
19.609215 -53.748692 1.1573939
19.605324 -53.798527 1.159397
19.602318 -53.8489 1.1030091
19.599014 -53.89909 1.0666182
19.595924 -53.949421 1.0150295
19.593033 -53.999863 0.95144272
19.589859 -54.050144 0.90545321
19.586952 -54.100578 0.84266639
19.584068 -54.151031 0.77747965
19.581345 -54.20158 0.70269465
19.578377 -54.251984 0.64310706
19.575699 -54.302559 0.56512237
19.572922 -54.353073 0.49353683
19.570511 -54.40382 0.39715493
19.567986 -54.454491 0.30877185
19.565498 -54.505192 0.21718919
19.5634 -54.556122 0.10081029
19.561279 -54.607048 -0.0147686
19.559174 -54.657978 -0.13114762
19.557594 -54.709236 -0.28272104
19.503815 -52.642097 0.54946232
19.499466 -52.691654 0.58186102
19.495338 -52.741337 0.59986186
19.491402 -52.791142 0.60506463
19.487541 -52.840992 0.60546827
19.483597 -52.890789 0.61147094
19.479424 -52.940453 0.63187146
19.475807 -52.990452 0.61627734
19.472153 -53.040432 0.60228288
19.468002 -53.090103 0.62188351
19.464272 -53.140034 0.61348844
19.45887 -53.188934 0.71627641
19.456482 -53.239697 0.61829484
19.453041 -53.289806 0.59070253
19.448967 -53.33952 0.60550392
19.447891 -53.39109 0.42033529
19.444054 -53.440952 0.41913915
19.440186 -53.490803 0.41954267
19.433098 -53.538666 0.63431382
19.42392 -53.585247 0.98746419
19.419434 -53.634712 1.0294614
19.413902 -53.68354 1.1402483
19.40979 -53.733234 1.1574492
19.40596 -53.783104 1.1554532
19.402771 -53.833366 1.1110632
19.399658 -53.883675 1.0618743
19.396683 -53.934074 1.0030867
19.393486 -53.984329 0.95949697
19.390587 -54.034779 0.89511013
19.387619 -54.085178 0.83632267
19.384605 -54.135551 0.77993464
19.381821 -54.186062 0.70914888
19.378983 -54.236546 0.64076281
19.376236 -54.287079 0.56757736
19.373749 -54.337772 0.47679472
19.370949 -54.388279 0.40600896
19.368393 -54.438927 0.32002556
19.366074 -54.489735 0.21724463
19.363853 -54.540588 0.10886455
19.361717 -54.591507 -0.0059144497
19.359871 -54.642593 -0.13909101
19.358032 -54.693695 -0.27386713
19.356766 -54.745136 -0.44543743
19.305222 -52.627159 0.49352598
19.300377 -52.676407 0.55871975
19.29599 -52.725929 0.59431791
19.292076 -52.775749 0.59792101
19.28849 -52.825768 0.57992733
19.284477 -52.875523 0.59072924
19.280533 -52.925327 0.59593201
19.276566 -52.975109 0.60353446
19.272705 -53.024967 0.60313809
19.269043 -53.074932 0.59074354
19.264748 -53.124523 0.61914277
19.261375 -53.174667 0.58755112
19.25705 -53.224236 0.61835003
19.253761 -53.274441 0.58035946
19.25 -53.324348 0.57436395
19.248421 -53.375607 0.42279029
19.244545 -53.425449 0.42399359
19.240738 -53.475334 0.42039776
19.236961 -53.525234 0.41520214
19.225906 -53.570663 0.89313364
19.220024 -53.619267 1.0279169
19.214348 -53.668007 1.1483023
19.210403 -53.717804 1.154305
19.206573 -53.767673 1.1523089
19.203323 -53.817902 1.1119184
19.200226 -53.868217 1.0619295
19.197151 -53.918556 1.009541
19.194214 -53.968975 0.94835377
19.190796 -54.019096 0.9191618
19.188141 -54.069687 0.83957744
19.185219 -54.120121 0.77679038
19.182297 -54.170547 0.71480334
19.179611 -54.221123 0.63681865
19.176811 -54.271626 0.56683278
19.174057 -54.322155 0.49364746
19.171661 -54.37291 0.39646566
19.168976 -54.423485 0.31848097
19.166748 -54.474339 0.21010089
19.164185 -54.52499 0.12411749
19.16214 -54.575958 0.003739357
19.160309 -54.62706 -0.131037
19.158806 -54.67836 -0.28740978
19.105713 -52.611645 0.49918056
19.100868 -52.660896 0.56437433
19.096657 -52.710529 0.58797431
19.092987 -52.760494 0.57557976
19.089149 -52.81036 0.5743835
19.08519 -52.860149 0.58118606
19.081253 -52.909954 0.58638895
19.0774 -52.959812 0.58599246
19.073463 -53.009617 0.59119523
19.067001 -53.057865 0.76437259
19.066071 -53.109524 0.56960571
19.062256 -53.159401 0.56680965
19.058411 -53.209267 0.56561339
19.054459 -53.259056 0.57241607
19.05072 -53.308979 0.56482077
19.048752 -53.359997 0.43884325
19.045189 -53.41003 0.41924977
19.041443 -53.459957 0.41165447
19.037544 -53.509781 0.41445768
19.033936 -53.559788 0.39806366
19.020737 -53.603897 1.0183737
19.014992 -53.652588 1.1435584
19.011002 -53.702358 1.1527605
19.007034 -53.752148 1.1595631
19.003632 -53.802277 1.1295711
19.000679 -53.852684 1.0699837
18.997772 -53.903126 1.0063969
18.99456 -53.953373 0.96360683
18.991592 -54.003777 0.90401947
18.988708 -54.054226 0.83963275
18.98571 -54.10461 0.78244495
18.982948 -54.155132 0.71005952
18.980026 -54.205566 0.64727247
18.977264 -54.256092 0.57488692
18.974655 -54.306709 0.49210298
18.972076 -54.357353 0.40691948
18.969482 -54.407978 0.32333565
18.967186 -54.458797 0.21895504
18.964943 -54.50964 0.11217475
18.9627 -54.56049 0.004594326
18.9608 -54.611546 -0.12538242
18.958824 -54.66256 -0.25056005
18.957687 -54.714081 -0.43092918
18.95697 -54.765869 -0.64009404
19.095596 -49.996887 1.2493371
19.091331 -50.046486 1.2769365
19.086655 -50.095837 1.3309319
19.083 -50.145813 1.3177375
19.079742 -50.196041 1.2773471
19.0774 -50.246822 1.1769658
19.071991 -50.295723 1.2797539
19.067772 -50.345348 1.3041537
19.064537 -50.395584 1.2629635
19.060127 -50.445099 1.2993617
19.057602 -50.495773 1.2109786
19.063461 -50.551605 0.56507957
19.049454 -50.595211 1.2397813
19.05706 -50.652119 0.47789979
19.050056 -50.700035 0.6870718
19.043968 -50.74852 0.83465314
19.043869 -50.800682 0.5854944
19.039825 -50.850418 0.5978961
19.035995 -50.900291 0.59589994
18.906227 -52.596149 0.50323522
18.901619 -52.645546 0.55243134
18.897446 -52.695202 0.57363176
18.893295 -52.744873 0.59323239
18.889542 -52.794788 0.58643699
18.885933 -52.844795 0.57004309
18.881943 -52.894569 0.57844543
18.878128 -52.94445 0.57564926
18.874298 -52.99432 0.5736531
18.870476 -53.044189 0.57165706
18.862778 -53.091682 0.82642221
18.862785 -53.143913 0.57006443
18.858437 -53.193466 0.60246313
18.854813 -53.243462 0.58686912
18.851051 -53.293369 0.58087349
18.849602 -53.344707 0.42050135
18.845909 -53.394661 0.40970647
18.842064 -53.444527 0.40851021
18.83812 -53.494324 0.41451287
18.834312 -53.544209 0.41091704
18.821449 -53.588516 1.0096302
18.815712 -53.637218 1.1340151
18.811722 -53.686985 1.1432173
18.807816 -53.736813 1.1460204
18.804565 -53.787041 1.1056299
18.801445 -53.837341 1.0572408
18.79837 -53.88768 1.0048523
18.79512 -53.937908 0.96446204
18.792244 -53.988361 0.89927542
18.789078 -54.038643 0.85328603
18.786453 -54.089252 0.77130198
18.7836 -54.139725 0.70451558
18.780624 -54.190121 0.64572799
18.77787 -54.240654 0.57254255
18.775375 -54.29134 0.48255968
18.772652 -54.341892 0.40697467
18.770004 -54.39249 0.32659042
18.767715 -54.44331 0.22220981
18.765717 -54.494305 0.098631859
18.763466 -54.545147 -0.0081484318
18.761459 -54.596138 -0.13092637
18.759399 -54.647099 -0.25050473
18.757904 -54.698406 -0.40767741
18.906837 -49.883537 1.0534148
18.902473 -49.933075 1.0874133
18.898399 -49.9828 1.1014148
18.897346 -50.034374 0.91544652
18.891136 -50.082787 1.0710266
18.892677 -50.135952 0.71308398
18.885506 -50.183773 0.93265438
18.884766 -50.235542 0.72588921
18.704971 -52.579563 0.62487221
18.700737 -52.629192 0.6492722
18.697662 -52.67952 0.59768355
18.693512 -52.729198 0.61648428
18.689827 -52.779152 0.60568953
18.686073 -52.829067 0.59889412
18.682327 -52.87899 0.59129882
18.678535 -52.928886 0.5869031
18.674957 -52.978912 0.56810939
18.67112 -53.028774 0.56691313
18.665939 -53.077816 0.65450346
18.662971 -53.128216 0.595716
18.659225 -53.178139 0.5881207
18.655479 -53.228062 0.5805254
18.651451 -53.277809 0.5921272
18.648209 -53.328041 0.55093694
18.64653 -53.37923 0.40656233
18.642555 -53.429016 0.41416478
18.63884 -53.478951 0.40496969
18.635139 -53.528904 0.39417493
18.621979 -53.573036 1.0120852
18.616287 -53.621761 1.1340704
18.612312 -53.671543 1.1416728
18.608421 -53.721375 1.1436762
18.605042 -53.771523 1.1120844
18.601883 -53.8218 1.0660949
18.598854 -53.872169 1.0105069
18.595963 -53.922611 0.94692016
18.592751 -53.972866 0.90333021
18.589722 -54.023228 0.84854209
18.587036 -54.073803 0.7705574
18.583984 -54.124146 0.71736896
18.581245 -54.174694 0.64258385
18.578529 -54.225246 0.56699872
18.575729 -54.275745 0.49701285
18.573303 -54.326485 0.40143096
18.570694 -54.377106 0.31864703
18.568298 -54.427856 0.22146523
18.566109 -54.478737 0.11068559
18.564011 -54.529675 -0.0064930916
18.561859 -54.580574 -0.11967278
18.560074 -54.631706 -0.25764823
18.7173 -49.821934 0.65312719
18.710793 -49.870159 0.82870424
18.710617 -49.922276 0.58434474
18.705711 -49.971489 0.65353787
18.702934 -50.022003 0.58195221
18.697815 -50.071083 0.6655432
18.693367 -50.120567 0.70514071
18.508827 -52.566128 0.40656066
18.502914 -52.614716 0.54294372
18.497559 -52.663647 0.64253223
18.494606 -52.714058 0.58214498
18.490562 -52.763798 0.59454668
18.486801 -52.813705 0.58855116
18.483139 -52.863682 0.57535672
18.479492 -52.913666 0.56136239
18.475334 -52.963333 0.5809629
18.471115 -53.012962 0.60536289
18.466164 -53.062145 0.67775548
18.462822 -53.112312 0.64376426
18.459793 -53.162682 0.58817613
18.455956 -53.212543 0.58697987
18.452148 -53.262421 0.58418393
18.448204 -53.312229 0.58938658
18.446709 -53.363529 0.4330138
18.443237 -53.41362 0.40702128
18.439629 -53.463627 0.39062738
18.435616 -53.513386 0.4006294
18.422638 -53.557629 1.0065416
18.416931 -53.606346 1.1293266
18.412888 -53.656082 1.1417284
18.409081 -53.705967 1.1381326
18.405434 -53.755951 1.1241381
18.402504 -53.80637 1.0629508
18.399445 -53.856716 1.0097625
18.396507 -53.907135 0.94857526
18.393486 -53.957504 0.89298725
18.390427 -54.007851 0.83979893
18.387741 -54.058422 0.76181424
18.384613 -54.108727 0.71342504
18.381859 -54.159256 0.64023972
18.37915 -54.209816 0.56385469
18.376328 -54.260303 0.49546862
18.373734 -54.310936 0.41108501
18.371346 -54.361691 0.31390321
18.368935 -54.412434 0.21752131
18.366585 -54.463219 0.11714005
18.364456 -54.514133 0.0023610592
18.362305 -54.565033 -0.11081839
18.360733 -54.616299 -0.26319194
18.359306 -54.667645 -0.42436409
18.359352 -54.719898 -0.68392134
18.359993 -54.772518 -0.98267269
18.305595 -52.600559 0.40222025
18.29953 -52.649052 0.54900157
18.295364 -52.698715 0.5694021
18.290443 -52.747913 0.64019501
18.287575 -52.79837 0.57500839
18.283646 -52.848183 0.57941139
18.2789 -52.897491 0.63820612
18.275803 -52.947815 0.58741724
18.272148 -52.997787 0.5742228
18.268158 -53.047565 0.58262515
18.264458 -53.097511 0.57263017
18.26049 -53.147301 0.57943273
18.256691 -53.197186 0.5758369
18.252937 -53.247101 0.56904149
18.249207 -53.297031 0.5606463
18.245781 -53.347149 0.5322541
18.244041 -53.398308 0.39107895
18.240097 -53.448105 0.39708161
18.23571 -53.497635 0.43188
18.223328 -53.54224 0.9985981
18.217545 -53.590912 1.1261823
18.213539 -53.640675 1.1361845
18.209694 -53.690536 1.1349883
18.205963 -53.740467 1.126593
18.203201 -53.790993 1.0542074
18.200127 -53.841328 1.0018189
18.196953 -53.891602 0.95662928
18.193977 -53.941998 0.89784181
18.191116 -53.992462 0.8318553
18.18808 -54.04282 0.77706718
18.185249 -54.093307 0.70868099
18.182335 -54.143742 0.64589405
18.179657 -54.194317 0.56790948
18.176926 -54.244862 0.49312425
18.174431 -54.295559 0.4023416
18.171837 -54.346184 0.31875777
18.169365 -54.396893 0.22637522
18.167007 -54.447666 0.12679386
18.164993 -54.498657 0.0040159225
18.162895 -54.549587 -0.11236286
18.161362 -54.600876 -0.2671361
18.159943 -54.652229 -0.42910814
18.159027 -54.703892 -0.6246748
18.117302 -52.487492 0.17590261
18.113441 -52.537338 0.17630601
18.106422 -52.585247 0.38627791
18.100929 -52.634098 0.49466515
18.096329 -52.683495 0.54386139
18.092323 -52.733253 0.55386341
18.088234 -52.782963 0.56946468
18.084465 -52.83287 0.56346917
18.08075 -52.882809 0.55427408
18.076965 -52.932713 0.54907835
18.073227 -52.982632 0.54148316
18.069115 -53.032333 0.55788422
18.065231 -53.082169 0.55988753
18.061035 -53.131821 0.58188772
18.057068 -53.181602 0.58949018
18.053413 -53.231575 0.57629585
18.049614 -53.281471 0.57190001
18.046188 -53.331585 0.54350781
18.042633 -53.381626 0.52311444
18.039124 -53.43169 0.50032139
18.032234 -53.479683 0.70149469
18.024002 -53.52684 0.99225438
18.018196 -53.5755 1.1214385
18.014175 -53.625252 1.1322405
18.010201 -53.675034 1.1398427
18.006859 -53.725201 1.1058515
18.003784 -53.775532 1.0542629
18.00071 -53.825871 1.0018743
17.997536 -53.876141 0.95668471
17.994652 -53.926598 0.89149809
17.991661 -53.976982 0.83431029
17.988647 -54.027355 0.77792239
17.98587 -54.077873 0.70633686
17.982986 -54.12833 0.64115012
17.980125 -54.178791 0.57516372
17.977676 -54.229507 0.48198128
17.974937 -54.280052 0.40719616
17.972031 -54.330486 0.34440923
17.970055 -54.3815 0.21923172
17.967804 -54.432343 0.11245131
17.965553 -54.483185 0.0056710243
17.963631 -54.534225 -0.12270594
17.961937 -54.585415 -0.26708078
17.960587 -54.636806 -0.43305206
17.918869 -52.472645 0.10956788
17.916641 -52.523502 0.0011878014
17.907394 -52.570042 0.3591373
17.902603 -52.61932 0.42113161
17.896942 -52.668064 0.54071712
17.892937 -52.717823 0.55071914
17.888885 -52.767555 0.56392074
17.884811 -52.81728 0.57792222
17.880768 -52.867016 0.59032381
17.877533 -52.917252 0.54913366
17.873619 -52.967072 0.55273664
17.870003 -53.017075 0.53634274
17.866074 -53.066879 0.54154551
17.862038 -53.116627 0.55314732
17.858185 -53.166481 0.55275106
17.854408 -53.216381 0.54755533
17.850639 -53.266293 0.54155993
17.846901 -53.316216 0.5339644
17.843216 -53.366177 0.52236986
17.839638 -53.416203 0.50357628
17.834412 -53.465214 0.59436607
17.824486 -53.51133 0.99790883
17.818909 -53.560127 1.1118952
17.814743 -53.609791 1.1322957
17.810753 -53.659565 1.140698
17.807289 -53.70966 1.1147053
17.804321 -53.760056 1.0559179
17.801308 -53.810432 0.99952996
17.798157 -53.860718 0.95274067
17.794952 -53.910976 0.90915084
17.792213 -53.961514 0.8351655
17.789322 -54.011963 0.77077889
17.786377 -54.062374 0.71039152
17.783554 -54.112869 0.64120543
17.780823 -54.163414 0.56642032
17.778046 -54.213928 0.49483466
17.775589 -54.264645 0.40165234
17.773026 -54.315292 0.31566882
17.770645 -54.366055 0.21768725
17.768204 -54.416779 0.12370503
17.766068 -54.467693 0.0089256763
17.764183 -54.518757 -0.12185097
17.762337 -54.569851 -0.25582719
17.7612 -54.621376 -0.43619633
17.727119 -52.35746 0.11201572
17.722549 -52.406868 0.15961218
17.71801 -52.456303 0.20480883
17.71347 -52.505737 0.2500056
17.708282 -52.554775 0.33839583
17.703194 -52.603867 0.42038703
17.697418 -52.652546 0.54717147
17.693405 -52.702297 0.55797338
17.689362 -52.752037 0.5703752
17.685135 -52.801662 0.59477508
17.68132 -52.851543 0.59197903
17.677513 -52.901428 0.58838308
17.6744 -52.951736 0.53919411
17.670639 -53.001652 0.5323987
17.666718 -53.051464 0.53680158
17.662598 -53.101158 0.55400264
17.658783 -53.151039 0.55120659
17.655144 -53.201019 0.53721237
17.651405 -53.25095 0.52881706
17.647934 -53.301037 0.50362444
17.643883 -53.350777 0.51602614
17.64032 -53.40081 0.49643266
17.636139 -53.450466 0.51763308
17.625114 -53.495907 0.99396479
17.619514 -53.544689 1.109551
17.61541 -53.594391 1.125952
17.611557 -53.644245 1.1255558
17.607742 -53.694126 1.1227596
17.604881 -53.744591 1.0567732
17.60186 -53.79496 1.0011852
17.598747 -53.845268 0.95199609
17.595711 -53.895626 0.89720798
17.592819 -53.946075 0.83282125
17.589973 -53.996555 0.76523495
17.58709 -54.047005 0.70084822
17.584114 -54.097401 0.64206064
17.581383 -54.147945 0.56727552
17.578598 -54.198456 0.49648976
17.576317 -54.249283 0.39130926
17.573456 -54.299747 0.32532275
17.57106 -54.350498 0.22814107
17.56881 -54.40134 0.12136078
17.566589 -54.452206 0.012180805
17.564674 -54.503246 -0.11619639
17.562767 -54.554302 -0.24617314
17.5616 -54.605812 -0.42494249
17.518463 -52.492996 -0.043494701
17.50853 -52.539112 0.36004794
17.503906 -52.588497 0.41084385
17.49778 -52.636951 0.56162477
17.493759 -52.686707 0.57242668
17.489708 -52.736435 0.58562827
17.485672 -52.786182 0.59723008
17.481728 -52.835979 0.60323262
17.478027 -52.885933 0.59243786
17.474586 -52.936039 0.56484556
17.470764 -52.98592 0.56204963
17.466904 -53.035767 0.56245315
17.463058 -53.085632 0.56125689
17.458862 -53.135273 0.58405709
17.455101 -53.185181 0.57806158
17.451378 -53.235119 0.56886649
17.448044 -53.285294 0.53407526
17.444366 -53.335262 0.52168071
17.440994 -53.385406 0.49008906
17.432045 -53.432133 0.82804155
17.425819 -53.48053 0.98522151
17.420242 -53.529327 1.0992079
17.416092 -53.578999 1.1188085
17.412163 -53.628811 1.1232114
17.408333 -53.678673 1.122015
17.405457 -53.72913 1.0568285
17.40242 -53.779491 1.0020404
17.399414 -53.829865 0.94565248
17.396111 -53.880062 0.90846157
17.393349 -53.930588 0.83607614
17.390419 -53.981014 0.7740891
17.38752 -54.031456 0.71050227
17.38475 -54.081978 0.6381166
17.381981 -54.1325 0.56573117
17.379349 -54.183105 0.48454702
17.376648 -54.233673 0.40736222
17.373985 -54.284256 0.32857764
17.371498 -54.334957 0.2369951
17.369179 -54.385754 0.13501406
17.367104 -54.436707 0.016235352
17.365219 -54.487774 -0.11454129
17.363266 -54.538799 -0.24131846
17.319023 -52.477531 -0.042639732
17.309494 -52.523899 0.33370721
17.302879 -52.572052 0.51728308
17.298592 -52.621639 0.54568243
17.294571 -52.671394 0.55648434
17.290588 -52.721169 0.56488657
17.286751 -52.771034 0.56369042
17.281982 -52.820328 0.62408471
17.278198 -52.870228 0.61888909
17.275208 -52.920609 0.5617013
17.271294 -52.970428 0.5653044
17.26738 -53.020248 0.56890738
17.263588 -53.070141 0.56451166
17.259644 -53.119938 0.57051432
17.255875 -53.169849 0.56451881
17.252068 -53.219734 0.56092298
17.248558 -53.269798 0.53812981
17.246208 -53.32058 0.43774855
17.243301 -53.371014 0.37496161
17.239563 -53.420944 0.36656654
17.226494 -53.46513 0.97887778
17.220734 -53.513813 1.1048622
17.21669 -53.563553 1.117264
17.212692 -53.613319 1.126466
17.208954 -53.663242 1.1188707
17.205994 -53.71365 1.0592834
17.203003 -53.764038 1.0012957
17.19989 -53.814346 0.95210671
17.196938 -53.864758 0.89171934
17.193954 -53.91515 0.83373177
17.191063 -53.965599 0.76934505
17.188042 -54.015965 0.71375704
17.185226 -54.06646 0.64457095
17.182571 -54.11705 0.56498647
17.179802 -54.167572 0.49260104
17.177353 -54.218296 0.39861882
17.174606 -54.268826 0.32543337
17.172119 -54.319527 0.23385084
17.169647 -54.370228 0.14226818
17.167725 -54.421276 0.013091087
17.165459 -54.472103 -0.092089415
17.164101 -54.523502 -0.25886059
17.162865 -54.574966 -0.43283081
17.155212 -52.17062 -0.87048054
17.152084 -52.220928 -0.91966963
17.149574 -52.271606 -1.0088527
17.145309 -52.321213 -0.98205304
17.14151 -52.371098 -0.98564911
17.137619 -52.420933 -0.98364592
17.131531 -52.469414 -0.83526468
17.11055 -52.508736 0.30176735
17.10334 -52.556526 0.52453732
17.099365 -52.606308 0.53213978
17.095436 -52.656113 0.53734255
17.091454 -52.705887 0.5457449
17.087502 -52.755684 0.55174756
17.083374 -52.80537 0.5697484
17.07959 -52.85527 0.56455266
17.075722 -52.905113 0.56575608
17.071999 -52.955051 0.55656111
17.068184 -53.004929 0.55376506
17.064354 -53.054802 0.55176902
17.060493 -53.104652 0.55217242
17.056435 -53.154381 0.56537414
17.052582 -53.204239 0.56497765
17.051422 -53.255745 0.38620818
17.047577 -53.305611 0.38501191
17.043663 -53.355431 0.38861501
17.040169 -53.40551 0.36422229
17.027016 -53.449638 0.98213267
17.021423 -53.498428 1.0969188
17.017288 -53.548107 1.1157196
17.013374 -53.597927 1.1193227
17.009583 -53.64782 1.1149268
17.006683 -53.698261 1.05134
17.003601 -53.748592 0.99975133
17.000618 -53.798985 0.94176364
16.997643 -53.84938 0.88297606
16.994537 -53.899696 0.83298731
16.991608 -53.950123 0.77100015
16.988716 -54.000565 0.7074132
16.985977 -54.051113 0.63262808
16.983131 -54.101582 0.56584179
16.980293 -54.152061 0.49825549
16.977776 -54.20274 0.40907264
16.97509 -54.253315 0.33108795
16.972641 -54.304039 0.23710573
16.970505 -54.354946 0.12312651
16.968201 -54.405758 0.019545794
16.966225 -54.456764 -0.10483217
16.964668 -54.508038 -0.25800538
16.962944 -54.559204 -0.39998031
17.026115 -51.310593 -1.1868384
17.022545 -51.360619 -1.205632
17.018364 -51.410275 -1.1844316
17.013985 -51.459805 -1.1496334
17.009613 -51.509342 -1.1156349
17.005234 -51.558872 -1.0808365
17.001289 -51.608681 -1.0756338
16.998108 -51.658943 -1.1200235
16.994232 -51.708786 -1.1188202
16.990776 -51.758884 -1.1456125
16.98687 -51.808704 -1.1420095
16.982597 -51.858311 -1.1152101
16.978249 -51.907856 -1.0820112
16.974091 -51.957527 -1.0624108
16.969322 -52.006821 -1.0020161
16.96537 -52.056618 -0.99601364
16.96151 -52.106468 -0.99561024
16.957603 -52.156284 -0.99200726
16.953835 -52.206196 -0.99800253
16.949936 -52.25602 -0.99519944
16.946045 -52.305855 -0.99319601
16.942062 -52.355629 -0.98479366
16.938271 -52.405525 -0.98918962
16.932152 -52.453987 -0.83920884
16.908417 -52.491615 0.48099566
16.90387 -52.541042 0.5269922
16.899933 -52.590847 0.53219509
16.896141 -52.640739 0.52779925
16.892143 -52.690502 0.53780138
16.888443 -52.740456 0.52700663
16.884445 -52.790222 0.53620875
16.880287 -52.839893 0.55580926
16.876587 -52.889839 0.54581439
16.872574 -52.939598 0.55581641
16.86869 -52.989433 0.55781972
16.864891 -53.039326 0.553424
16.861023 -53.089169 0.55462742
16.857422 -53.139179 0.53743362
16.853905 -53.189243 0.51464045
16.851089 -53.239738 0.44545448
16.848274 -53.290234 0.37626851
16.844337 -53.340034 0.38147128
16.840614 -53.389973 0.37227631
16.827835 -53.434334 0.96539044
16.822037 -53.482998 1.0937746
16.817947 -53.532707 1.1093758
16.814072 -53.58255 1.1105793
16.810341 -53.632481 1.1021839
16.807373 -53.682877 1.0433965
16.804276 -53.7332 0.99260759
16.801163 -53.783508 0.94341874
16.798096 -53.833855 0.8902303
16.79512 -53.884243 0.83224261
16.792252 -53.934708 0.76625609
16.789452 -53.98521 0.69627023
16.78653 -54.035645 0.63348317
16.783722 -54.086136 0.5642972
16.780968 -54.136669 0.49111187
16.778336 -54.187279 0.40912783
16.775848 -54.237972 0.31834507
16.773293 -54.288631 0.23156178
16.771164 -54.339546 0.11678267
16.768814 -54.390327 0.016401529
16.766716 -54.441261 -0.099977493
16.765106 -54.4925 -0.24995136
16.952583 -49.649117 -1.0929151
16.949036 -49.699158 -1.1133084
16.945305 -49.749088 -1.1217036
16.941513 -49.798981 -1.1260991
16.937538 -49.848763 -1.1184969
16.933289 -49.898376 -1.0924971
16.929245 -49.948112 -1.0800953
16.925308 -49.997917 -1.0748925
16.921539 -50.047829 -1.0808883
16.917343 -50.097469 -1.0580881
16.913544 -50.147362 -1.0624838
16.90976 -50.197258 -1.0668797
16.906158 -50.247269 -1.0840735
16.901428 -50.296585 -1.0260787
16.897659 -50.346493 -1.032074
16.894302 -50.396652 -1.0652657
16.890305 -50.446419 -1.0560634
16.886368 -50.496227 -1.0508609
16.882469 -50.546051 -1.0480576
16.878578 -50.595886 -1.0460544
16.874695 -50.645721 -1.0440509
16.870811 -50.695557 -1.0420477
16.86618 -50.744938 -0.99125171
16.862549 -50.79493 -1.0060458
16.858849 -50.844879 -1.0168409
16.855156 -50.894833 -1.0276356
16.851074 -50.94455 -1.0128343
16.847198 -50.994392 -1.011631
16.843559 -51.04438 -1.0264249
16.839439 -51.094067 -1.0084243
16.835426 -51.143829 -0.99842215
16.831764 -51.193802 -1.0116167
16.827873 -51.243629 -1.0088134
16.824066 -51.293514 -1.0124092
16.820168 -51.343342 -1.0096064
16.816139 -51.393097 -0.99880409
16.812195 -51.442894 -0.99280167
16.808449 -51.492817 -1.0003967
16.804634 -51.542694 -1.0031929
16.800758 -51.592537 -1.0019894
16.796875 -51.642372 -0.99998617
16.792938 -51.692177 -0.9947834
16.789108 -51.742046 -0.99677944
16.785149 -51.791836 -0.98997688
16.781464 -51.841797 -1.0015717
16.777496 -51.891579 -0.9939692
16.773689 -51.941467 -0.99756527
16.769814 -51.99131 -0.99636173
16.766006 -52.041195 -0.99995756
16.762062 -52.090992 -0.99395514
16.758202 -52.140842 -0.99355149
16.754372 -52.190712 -0.99554777
16.750427 -52.240509 -0.98954487
16.746582 -52.290375 -0.99074125
16.742722 -52.340221 -0.99033761
16.73909 -52.390221 -1.0059319
16.713821 -52.426899 0.41665709
16.708382 -52.475777 0.52184486
16.704262 -52.525471 0.53904581
16.700493 -52.575378 0.5330503
16.696526 -52.62516 0.54065275
16.692833 -52.675114 0.52985799
16.689064 -52.725025 0.52386236
16.68512 -52.774822 0.52986503
16.681068 -52.824558 0.54226673
16.677132 -52.874363 0.5474695
16.673439 -52.924316 0.53667474
16.669502 -52.974121 0.54187751
16.66555 -53.023918 0.54788017
16.661987 -53.073952 0.5282867
16.658241 -53.123867 0.52149129
16.655334 -53.174313 0.45790458
16.652657 -53.224884 0.37991977
16.648834 -53.274765 0.37712371
16.644974 -53.324612 0.37752724
16.641426 -53.374664 0.35633409
16.628296 -53.418808 0.97264469
16.622658 -53.467567 1.0906304
16.618568 -53.517277 1.1062317
16.614594 -53.567059 1.113834
16.61071 -53.616894 1.1158373
16.607895 -53.667389 1.0466514
16.604942 -53.7178 0.98626399
16.601677 -53.768013 0.94747353
16.598648 -53.818378 0.89188552
16.595657 -53.868763 0.8346976
16.592812 -53.919239 0.7671113
16.589851 -53.969646 0.70752406
16.587128 -54.020199 0.63193882
16.584328 -54.070698 0.56195307
16.581703 -54.121311 0.47996891
16.57885 -54.171783 0.41318262
16.576401 -54.2225 0.32000029
16.573853 -54.273163 0.23241711
16.571472 -54.323921 0.13443542
16.569473 -54.37492 0.010857582
16.567253 -54.425777 -0.097522497
16.565613 -54.476997 -0.24509668
16.776901 -49.334904 -1.1320751
16.773239 -49.384876 -1.1452694
16.768814 -49.43438 -1.1072717
16.764488 -49.483948 -1.0764728
16.760109 -49.533478 -1.0416744
16.755692 -49.582985 -1.0044765
16.751663 -49.632729 -0.99287462
16.747864 -49.682617 -0.99647069
16.744049 -49.732502 -1.0000663
16.740204 -49.78236 -1.0004628
16.736382 -49.832237 -1.0032587
16.732391 -49.882008 -0.9940567
16.728592 -49.9319 -0.99845219
16.724808 -49.981792 -1.0028481
16.720963 -50.031658 -1.0040445
16.716934 -50.081402 -0.99244261
16.713234 -50.131355 -1.0032372
16.709328 -50.181175 -0.99963427
16.705414 -50.230995 -0.99603128
16.701462 -50.280792 -0.99002886
16.697723 -50.330715 -0.99762392
16.693954 -50.380623 -1.0036194
16.689995 -50.430412 -0.99681711
16.686172 -50.480293 -0.99961281
16.682373 -50.530178 -1.0032089
16.678421 -50.579975 -0.99720621
16.674644 -50.629875 -1.0024018
16.670654 -50.679646 -0.99319959
16.666893 -50.729561 -0.99999499
16.663071 -50.77943 -1.0019913
16.659157 -50.82925 -0.99838829
16.655296 -50.879101 -0.99798465
16.651451 -50.928963 -0.99918079
16.647591 -50.978813 -0.99877739
16.643745 -51.028679 -0.99997377
16.639908 -51.078541 -1.0011697
16.636063 -51.128407 -1.0023661
16.632111 -51.178196 -0.99556351
16.628403 -51.228142 -1.0055585
16.624489 -51.277962 -1.0019555
16.620613 -51.327801 -1.000752
16.616638 -51.377586 -0.99314976
16.612946 -51.427536 -1.0039444
16.60907 -51.477379 -1.0027411
16.605095 -51.527161 -0.99513865
16.601265 -51.577034 -0.99713469
16.59726 -51.626793 -0.98713279
16.59362 -51.676777 -1.0011272
16.589783 -51.726646 -1.0031233
16.585899 -51.776482 -1.0011201
16.582024 -51.826324 -0.99991655
16.578186 -51.876186 -1.0011129
16.574303 -51.926029 -0.9999094
16.570488 -51.97591 -1.0027053
16.566597 -52.025742 -1.0007021
16.562691 -52.075562 -0.99709916
16.558846 -52.12542 -0.99749565
16.555046 -52.175312 -1.0018911
16.551086 -52.225101 -0.99508858
16.547188 -52.274929 -0.99228549
16.543411 -52.324829 -0.99748135
16.539604 -52.374718 -1.0010772
16.535767 -52.42458 -1.0022736
16.508888 -52.460274 0.52669954
16.504761 -52.50996 0.54470038
16.500847 -52.55978 0.54830337
16.497307 -52.609829 0.5271101
16.49334 -52.659611 0.53471255
16.489464 -52.709454 0.53591597
16.485466 -52.75922 0.54511821
16.481636 -52.809093 0.54312193
16.477798 -52.858955 0.54192567
16.473595 -52.908596 0.56472588
16.469528 -52.958321 0.57872736
16.466393 -53.008621 0.53033829
16.462654 -53.058544 0.52274299
16.458916 -53.108467 0.51514769
16.457237 -53.159668 0.36997306
16.453285 -53.209457 0.37677562
16.449501 -53.259357 0.37158
16.445587 -53.309177 0.37518299
16.441917 -53.359146 0.36278844
16.428986 -53.403416 0.96550107
16.423363 -53.452183 1.082687
16.419083 -53.501774 1.1110864
16.415199 -53.551613 1.1122897
16.411446 -53.601532 1.1054943
16.408318 -53.651833 1.0571051
16.405281 -53.702194 1.002317
16.402313 -53.75259 0.94352937
16.399323 -53.802979 0.88554168
16.396271 -53.853325 0.83235335
16.393471 -53.903831 0.76156759
16.390526 -53.954247 0.70118022
16.387604 -54.004673 0.63919318
16.384995 -54.05529 0.55640924
16.382225 -54.105816 0.48402369
16.379463 -54.156345 0.41083837
16.376831 -54.206951 0.32965422
16.374535 -54.257763 0.22607338
16.372261 -54.30859 0.12089288
16.369949 -54.359394 0.018111944
16.367882 -54.410347 -0.10066676
16.366043 -54.461449 -0.23544264
16.364471 -54.512707 -0.3870163
16.363602 -54.5644 -0.58578277
16.593246 -49.120247 -1.1552305
16.588936 -49.169819 -1.1252317
16.584419 -49.219261 -1.0808349
16.58004 -49.268799 -1.0468364
16.57563 -49.31831 -1.0096383
16.571709 -49.368126 -1.0060353
16.567848 -49.417976 -1.0056317
16.563995 -49.467834 -1.0060282
16.560097 -49.517662 -1.0032248
16.556335 -49.567577 -1.0100203
16.552505 -49.617439 -1.0112166
16.548416 -49.667149 -0.99561548
16.544548 -49.716999 -0.99521208
16.540886 -49.766972 -1.0084062
16.536964 -49.816788 -1.0040035
16.533127 -49.86665 -1.0051997
16.529205 -49.91647 -1.0015965
16.525337 -49.966312 -1.0003934
16.521454 -50.016151 -0.99918985
16.517715 -50.066074 -1.0067852
16.513702 -50.115837 -0.99678326
16.509949 -50.165752 -1.0035787
16.505981 -50.215534 -0.99597621
16.502258 -50.265472 -1.0051711
16.498421 -50.315338 -1.0063672
16.494446 -50.36512 -0.99876499
16.490707 -50.415043 -1.0063603
16.486656 -50.464779 -0.99395871
16.482941 -50.514717 -1.0031536
16.479118 -50.564598 -1.0059495
16.475212 -50.614418 -1.0023465
16.471336 -50.664257 -1.001143
16.467499 -50.714123 -1.0023394
16.463646 -50.763977 -1.0027359
16.459671 -50.813763 -0.9951334
16.455933 -50.863686 -1.0027287
16.452049 -50.913528 -1.0015254
16.448082 -50.96331 -0.99392271
16.444313 -51.013218 -0.99991846
16.440582 -51.063148 -1.0083137
16.436775 -51.113033 -1.0119095
16.43277 -51.162796 -1.0019073
16.42897 -51.212681 -1.0055032
16.425125 -51.262543 -1.0066996
16.421204 -51.312359 -1.0022964
16.417313 -51.36219 -1.0002933
16.413521 -51.412086 -1.0046892
16.4095 -51.461838 -0.99388695
16.405724 -51.511738 -0.9990828
16.401901 -51.561619 -1.0018787
16.398079 -51.611488 -1.003875
16.39415 -51.661293 -0.99867225
16.390305 -51.711159 -0.99986839
16.386444 -51.761005 -0.99946499
16.382561 -51.810848 -0.99826145
16.378761 -51.860737 -1.0018573
16.375 -51.910652 -1.0086527
16.370972 -51.960396 -0.99705076
16.367226 -52.010319 -1.0046463
16.363388 -52.060184 -1.0058427
16.35955 -52.110046 -1.0070388
16.355614 -52.159851 -1.0018361
16.351799 -52.209732 -1.004632
16.347847 -52.259529 -0.99862933
16.343887 -52.309319 -0.99182677
16.340103 -52.359219 -0.99702263
16.336449 -52.409195 -1.010217
16.309708 -52.444969 0.50995731
16.305817 -52.494804 0.51196051
16.301903 -52.544624 0.51556361
16.297958 -52.594421 0.52156627
16.293991 -52.644203 0.52916873
16.289909 -52.69392 0.54397011
16.286072 -52.743782 0.54277384
16.282463 -52.793797 0.52557993
16.278717 -52.843712 0.51878452
16.27475 -52.893501 0.52558708
16.270996 -52.943417 0.51879168
16.267166 -52.99329 0.51679552
16.263374 -53.043182 0.51239979
16.260048 -53.093357 0.47760868
16.257645 -53.144112 0.38042676
16.253906 -53.194035 0.37283146
16.250175 -53.243965 0.36443627
16.246223 -53.293762 0.37043905
16.242516 -53.343708 0.36044407
16.229561 -53.387962 0.96475649
16.224129 -53.436852 1.0691444
16.219803 -53.486412 1.1007432
16.215881 -53.536228 1.1043463
16.212021 -53.586079 1.1047497
16.208885 -53.636372 1.0571604
16.205826 -53.686718 1.0039721
16.202858 -53.737114 0.94518447
16.199913 -53.787533 0.8839972
16.196861 -53.837879 0.83080888
16.194038 -53.888374 0.76162291
16.19101 -53.938732 0.70683455
16.188202 -53.989235 0.63684869
16.185493 -54.039795 0.56046391
16.182564 -54.090214 0.49927664
16.180176 -54.140976 0.40129507
16.177582 -54.191601 0.31771123
16.175148 -54.242332 0.22292912
16.172623 -54.293003 0.13454604
16.17057 -54.343971 0.014167786
16.168442 -54.394886 -0.10061145
16.166733 -54.446064 -0.24338627
16.165077 -54.497269 -0.38936067
16.405296 -48.955162 -1.148387
16.401207 -49.004879 -1.1335857
16.396484 -49.054195 -1.0755906
16.391685 -49.103474 -1.0135965
16.387657 -49.153221 -1.0019946
16.383919 -49.203144 -1.0095901
16.380035 -49.252983 -1.0083866
16.376236 -49.302872 -1.0119824
16.372276 -49.352661 -1.0051801
16.368446 -49.402531 -1.0071759
16.364555 -49.452366 -1.005173
16.360779 -49.502266 -1.0103683
16.356789 -49.552044 -1.0019665
16.353012 -49.601944 -1.0071619
16.349152 -49.651794 -1.0067582
16.345253 -49.701618 -1.0039554
16.34137 -49.751453 -1.0019522
16.337509 -49.801311 -1.0023484
16.333755 -49.851227 -1.0091438
16.329781 -49.901009 -1.0015414
16.32592 -49.950859 -1.0011377
16.322128 -50.000751 -1.0055337
16.318207 -50.050564 -1.0011306
16.31443 -50.100471 -1.0071263
16.310524 -50.150291 -1.0035231
16.306747 -50.200191 -1.0087187
16.302841 -50.250019 -1.0059156
16.298973 -50.299862 -1.0047121
16.295128 -50.349724 -1.0059085
16.291229 -50.399551 -1.0031054
16.287338 -50.449387 -1.001102
16.283585 -50.499302 -1.0078974
16.279671 -50.549122 -1.0042944
16.275871 -50.599007 -1.0078902
16.271988 -50.648842 -1.005887
16.268127 -50.6987 -1.0062833
16.264229 -50.748528 -1.0034802
16.260353 -50.798367 -1.0022769
16.256477 -50.848209 -1.0010736
16.252708 -50.898117 -1.0070691
16.248894 -50.947998 -1.009865
16.245079 -50.997875 -1.012661
16.241219 -51.047726 -1.0122576
16.237495 -51.097664 -1.0214524
16.233582 -51.147484 -1.0178497
16.22963 -51.197273 -1.0110471
16.225624 -51.24704 -1.0018449
16.221634 -51.296806 -0.99264264
16.217827 -51.346695 -0.99623871
16.213928 -51.396523 -0.99343538
16.210022 -51.44635 -0.99063206
16.206161 -51.496197 -0.99022865
16.202332 -51.54607 -0.99222469
16.198456 -51.595909 -0.99102163
16.194611 -51.645767 -0.99141788
16.190758 -51.695625 -0.99181414
16.186813 -51.745422 -0.98581171
16.182999 -51.795307 -0.98940754
16.179115 -51.845142 -0.98740411
16.175331 -51.895042 -0.99259996
16.171654 -51.945004 -1.0041947
16.167725 -51.994816 -0.99979162
16.163803 -52.044628 -0.99538875
16.16011 -52.094582 -1.0061836
16.156403 -52.144527 -1.0161786
16.152443 -52.194317 -1.009376
16.148468 -52.244099 -1.0017734
16.144669 -52.293983 -1.0053692
16.140785 -52.343826 -1.0041659
16.137291 -52.393898 -1.0277591
16.109848 -52.429245 0.53880835
16.105896 -52.479038 0.54481101
16.102333 -52.529076 0.52521753
16.098373 -52.578865 0.53202009
16.094597 -52.628765 0.52682447
16.090782 -52.678646 0.52402842
16.086945 -52.728508 0.52283216
16.082977 -52.778297 0.52963459
16.079079 -52.828125 0.5324378
16.075523 -52.878166 0.51204443
16.071724 -52.928055 0.5084486
16.067795 -52.977867 0.51285148
16.064339 -53.027958 0.48685896
16.06176 -53.078602 0.40167546
16.058258 -53.128674 0.37808263
16.054466 -53.178566 0.37368679
16.050674 -53.228458 0.36929095
16.046844 -53.278332 0.36729491
16.043152 -53.328285 0.35650003
16.030266 -53.372585 0.9560132
16.024719 -53.421398 1.0683999
16.020447 -53.470993 1.0959992
16.016479 -53.520782 1.1028017
16.012672 -53.570663 1.1000056
16.009712 -53.621067 1.0404183
16.00647 -53.671303 0.999228
16.003479 -53.721684 0.94204032
16.000412 -53.77203 0.88885188
15.997581 -53.82251 0.8212657
15.994469 -53.872826 0.77127671
15.99173 -53.923363 0.69729161
15.988716 -53.97374 0.64090347
15.985947 -54.024261 0.56851804
15.983398 -54.074917 0.48173475
15.980614 -54.125435 0.4101491
15.978035 -54.176067 0.32576537
15.975708 -54.226864 0.22378433
15.973167 -54.277527 0.13620114
15.971024 -54.328438 0.022221804
15.969032 -54.379436 -0.10135603
15.967079 -54.430462 -0.2281332
15.965973 -54.48201 -0.41090202
16.209358 -48.889633 -1.1247389
16.204887 -48.939102 -1.0835414
16.200005 -48.988331 -1.0159481
16.196167 -49.038193 -1.0171442
16.192291 -49.088036 -1.0159409
16.188309 -49.13781 -1.0075388
16.184471 -49.187675 -1.0087352
16.180588 -49.237518 -1.0075316
16.176788 -49.287403 -1.0111275
16.17289 -49.337231 -1.0083244
16.168991 -49.387058 -1.0055213
16.165184 -49.436943 -1.0091171
16.161415 -49.486851 -1.0151124
16.157417 -49.536621 -1.0059104
16.153679 -49.586544 -1.0135057
16.149818 -49.636391 -1.0131021
16.145866 -49.686188 -1.0070996
16.142097 -49.736099 -1.0130949
16.138168 -49.785912 -1.008692
16.134361 -49.835789 -1.011488
16.130501 -49.885643 -1.0118845
16.126656 -49.935501 -1.0122807
16.122765 -49.985336 -1.0102777
16.118927 -50.035198 -1.0114737
16.115044 -50.085041 -1.0102706
16.111122 -50.134853 -1.0058675
16.107468 -50.18483 -1.019062
16.103447 -50.234581 -1.00826
16.099564 -50.284416 -1.0062566
16.095695 -50.334267 -1.0058532
16.091835 -50.384113 -1.0054498
16.088036 -50.43401 -1.0098455
16.084152 -50.483841 -1.0078421
16.080261 -50.533676 -1.0058389
16.076347 -50.583496 -1.0022359
16.072525 -50.633369 -1.0042319
16.068741 -50.68327 -1.0094275
16.065018 -50.7332 -1.0178227
16.061203 -50.783085 -1.0214188
16.05703 -50.832741 -1.0002184
16.053116 -50.882561 -0.99661541
16.049294 -50.932434 -0.99861145
16.045319 -50.982216 -0.99100924
16.04155 -51.032124 -0.99700451
16.037643 -51.081944 -0.99340153
16.033737 -51.131771 -0.99059868
16.029839 -51.181599 -0.98779535
16.026062 -51.231499 -0.99299097
16.022247 -51.28138 -0.99578691
16.018295 -51.331177 -0.98978424
16.014526 -51.381084 -0.99577975
16.010612 -51.430904 -0.99217701
16.006798 -51.480782 -0.99497271
16.002876 -51.530594 -0.99057007
15.999046 -51.580463 -0.99256611
15.99514 -51.630283 -0.98896313
15.991318 -51.680164 -0.99175882
15.987511 -51.730042 -0.994555
15.983582 -51.779854 -0.99015212
15.979866 -51.829792 -0.99934721
15.975899 -51.879581 -0.99254465
15.972084 -51.929462 -0.99534082
15.968185 -51.97929 -0.9925375
15.964249 -52.029095 -0.98733473
15.960472 -52.078995 -0.99253035
15.956596 -52.128838 -0.99132681
15.95266 -52.178642 -0.98612428
15.948853 -52.228527 -0.98971987
15.944977 -52.27837 -0.98851657
15.941269 -52.328316 -0.99851155
15.914558 -52.364105 0.5200628
15.909988 -52.413525 0.56685925
15.906052 -52.463329 0.57206213
15.902176 -52.513168 0.57326555
15.898643 -52.563217 0.55207229
15.895294 -52.613388 0.51808095
15.891357 -52.663193 0.52328384
15.887558 -52.713078 0.51968789
15.883751 -52.762962 0.51609194
15.880096 -52.812939 0.5028975
15.875961 -52.862625 0.52089834
15.87204 -52.912437 0.52530134
15.868111 -52.96225 0.52970421
15.864128 -53.012024 0.53810656
15.862259 -53.063095 0.40653002
15.859436 -53.11359 0.33734405
15.855415 -53.163342 0.34814584
15.851456 -53.213131 0.3549484
15.847458 -53.262901 0.36415064
15.843903 -53.312943 0.34375727
15.830788 -53.357094 0.95926797
15.825645 -53.406158 1.0444586
15.820984 -53.455521 1.0976543
15.817047 -53.505322 1.1028569
15.813248 -53.55521 1.099261
15.810242 -53.605583 1.0428731
15.80706 -53.655857 0.99768353
15.804115 -53.706268 0.93729627
15.801125 -53.756657 0.8793087
15.798035 -53.806984 0.82851982
15.795166 -53.857445 0.76253343
15.792351 -53.90794 0.69334745
15.789436 -53.958374 0.6305604
15.78656 -54.008831 0.56537378
15.784004 -54.059479 0.47939038
15.781311 -54.110054 0.40140569
15.778542 -54.160572 0.32982004
15.776138 -54.211323 0.23263824
15.773895 -54.262165 0.12585795
15.771843 -54.313133 0.0054795742
15.769585 -54.363968 -0.10050082
15.767944 -54.415188 -0.24807501
15.765778 -54.46608 -0.36045456
16.008972 -48.873581 -1.0606933
16.004631 -48.923134 -1.0282946
16.000565 -48.972855 -1.0142932
15.996727 -49.02272 -1.0154891
15.992889 -49.07259 -1.0174851
15.988998 -49.122417 -1.0146823
15.985138 -49.172268 -1.0142789
15.981194 -49.222073 -1.0090761
15.977249 -49.27187 -1.0030732
15.97361 -49.321861 -1.0178676
15.969627 -49.371635 -1.0094652
15.965813 -49.421513 -1.0122612
15.96196 -49.471371 -1.0126574
15.958199 -49.521286 -1.0194528
15.954292 -49.571106 -1.0158501
15.950432 -49.620956 -1.0154464
15.946579 -49.670811 -1.0158429
15.942665 -49.720631 -1.0122397
15.938774 -49.770466 -1.0102363
15.934883 -49.820293 -1.0074334
15.931084 -49.870186 -1.0118289
15.927261 -49.920059 -1.0138254
15.923439 -49.969936 -1.0166211
15.919479 -50.019726 -1.0098186
15.915627 -50.069584 -1.010215
15.911781 -50.119438 -1.0106115
15.907867 -50.169258 -1.0070083
15.904083 -50.219158 -1.0122042
15.900192 -50.268986 -1.0094008
15.89624 -50.318783 -1.0033984
15.89241 -50.368656 -1.0053945
15.888687 -50.418594 -1.0145893
15.884827 -50.468445 -1.0141859
15.880814 -50.518204 -1.0041838
15.877098 -50.568142 -1.0133789
15.873482 -50.618137 -1.0289731
15.869156 -50.667706 -0.99817419
15.865334 -50.717579 -1.0001702
15.861465 -50.767426 -0.99976683
15.857605 -50.817276 -0.99936342
15.853722 -50.867119 -0.99815989
15.849823 -50.916946 -0.99535656
15.845932 -50.966778 -0.99335337
15.842148 -51.016674 -0.99774933
15.838287 -51.066521 -0.99734569
15.834442 -51.116386 -0.99854183
15.83046 -51.166161 -0.99013972
15.82666 -51.216053 -0.99453545
15.822754 -51.265873 -0.99093246
15.81897 -51.315777 -0.99612808
15.815086 -51.365608 -0.99412489
15.811264 -51.415489 -0.99692059
15.807465 -51.465374 -1.0005164
15.803551 -51.515194 -0.99691343
15.799728 -51.565063 -0.99890971
15.795784 -51.614864 -0.99290705
15.791962 -51.664742 -0.99570298
15.788086 -51.714584 -0.99449968
15.784233 -51.764439 -0.99489594
15.780373 -51.814289 -0.99449253
15.776482 -51.864124 -0.99248934
15.772652 -51.913994 -0.99448538
15.768753 -51.963821 -0.99168229
15.764915 -52.013687 -0.99287844
15.761124 -52.06358 -0.9972744
15.757172 -52.113377 -0.9912715
15.753387 -52.163269 -0.99566746
15.749527 -52.213127 -0.99606371
15.745575 -52.262917 -0.98926115
15.741692 -52.312759 -0.98805809
15.715042 -52.348587 0.52651715
15.711029 -52.398346 0.53651929
15.707115 -52.448166 0.54012227
15.703011 -52.497864 0.55652344
15.699272 -52.547791 0.54892814
15.695602 -52.597755 0.53653359
15.691902 -52.647709 0.52573884
15.688225 -52.69767 0.51414418
15.684212 -52.747429 0.52414608
15.680275 -52.797234 0.52934885
15.676781 -52.847313 0.50495625
15.672966 -52.897194 0.50216019
15.669098 -52.947044 0.50256371
15.665695 -52.997173 0.47257185
15.662308 -53.04731 0.44178009
15.659103 -53.097569 0.39819002
15.655502 -53.147579 0.38099623
15.652046 -53.197681 0.35420394
15.648148 -53.247509 0.35700703
15.644463 -53.297466 0.34541237
15.631393 -53.341652 0.95772362
15.625961 -53.390537 1.0621114
15.621628 -53.440098 1.0937102
15.617783 -53.48996 1.092514
