# .PCD v0.7 - Point Cloud Data file format
VERSION 0.7
FIELDS x y z
SIZE 4 4 4
TYPE F F F
COUNT 1 1 1
WIDTH 1589
HEIGHT 1
VIEWPOINT 0 0 0 1 0 0 0
POINTS 1589
DATA ascii
136.93896 -49.402946 1.596
136.98889 -49.405525 1.5488
137.03883 -49.408096 1.4960001
137.08876 -49.410675 1.4512
137.1387 -49.413254 1.3944
137.18863 -49.415833 1.3288
137.23856 -49.418404 1.2711999
137.2885 -49.420982 1.2136
137.33842 -49.423561 1.1488
137.38837 -49.426132 1.0752
137.43829 -49.428711 1.0072
137.48824 -49.43129 0.92640001
137.53816 -49.433868 0.84320003
129.68829 -49.229065 -0.4224
129.73822 -49.231636 -0.42480001
129.78815 -49.234215 -0.41760001
129.83809 -49.236794 -0.4208
129.88802 -49.239372 -0.4152
129.93796 -49.241943 -0.4224
129.98788 -49.244522 -0.4208
130.03783 -49.247101 -0.4224
130.08775 -49.249672 -0.4208
130.1377 -49.252251 -0.39199999
130.18762 -49.254829 -0.3888
130.23756 -49.257408 -0.38479999
130.28749 -49.259979 -0.384
130.33742 -49.262558 -0.384
130.38736 -49.265137 -0.39120001
130.43729 -49.267715 -0.38159999
130.48723 -49.270287 -0.3888
130.53716 -49.272865 -0.3784
130.5871 -49.275444 -0.37760001
130.63702 -49.278015 -0.38080001
130.68697 -49.280594 -0.38479999
130.73689 -49.283173 -0.38319999
130.78682 -49.285751 -0.38159999
130.83676 -49.288322 -0.38319999
130.88669 -49.290901 -0.38240001
130.93663 -49.29348 -0.3856
130.98656 -49.296059 -0.39120001
131.0365 -49.29863 -0.3888
131.08643 -49.301208 -0.38159999
131.13637 -49.303787 -0.38479999
131.18629 -49.306358 -0.38800001
131.23622 -49.308937 -0.3856
131.28616 -49.311516 -0.37920001
131.33609 -49.314095 -0.38080001
131.38603 -49.316666 -0.3856
131.43596 -49.319244 -0.38
131.4859 -49.321823 -0.38800001
131.53583 -49.324402 -0.38640001
131.58577 -49.326973 -0.384
131.6357 -49.329552 -0.39520001
131.68562 -49.33213 -0.45039999
131.73557 -49.334702 -0.47839999
131.78549 -49.33728 -1.0544
131.83543 -49.339859 -1.0344
131.88536 -49.342438 -1.0352
131.9353 -49.345009 -1.0352
131.98523 -49.347588 -1.0368
132.03517 -49.350166 -1.0328
132.0851 -49.352737 -1.0272
132.13503 -49.355316 -1.0296
132.18497 -49.357895 -1.0352
132.23489 -49.360474 -1.0344
132.28484 -49.363045 -1.0319999
132.33476 -49.365623 -1.04
132.3847 -49.368202 -1.0336
132.43463 -49.370781 -1.0319999
132.48457 -49.373352 -1.0376
132.5345 -49.375931 -1.036
132.58443 -49.37851 -1.0319999
132.63437 -49.381081 -1.0328
132.6843 -49.383659 -1.0312001
132.73424 -49.386238 -1.0344
132.78416 -49.388817 -1.0368
132.83411 -49.391388 -1.0416
132.88403 -49.393967 -1.0384001
132.93398 -49.396545 -1.0352
132.9839 -49.399124 -1.0432
133.03384 -49.401695 -1.0384001
133.08377 -49.404274 -1.0368
133.1337 -49.406853 -1.0416
133.18364 -49.409424 -1.0416
133.23357 -49.412003 -1.0408
133.28351 -49.414581 -1.048
133.33344 -49.41716 -1.048
133.38338 -49.419731 -1.0472
133.4333 -49.42231 -1.0391999
133.48325 -49.424889 -1.044
133.53317 -49.427467 -1.0488
133.5831 -49.430038 -1.048
133.63304 -49.432617 -1.0448
133.68297 -49.435196 -1.04
133.73291 -49.437767 -1.0456001
133.78284 -49.440346 -1.0448
133.83278 -49.442924 -1.0432
133.88271 -49.445503 -1.0432
133.93265 -49.448074 -1.0368
133.98257 -49.450653 -1.0352
134.0325 -49.453232 -1.0384001
134.08244 -49.455811 -1.0408
134.13237 -49.458382 -1.04
134.18231 -49.46096 -1.044
134.23224 -49.463539 -1.04
134.28218 -49.46611 -1.0432
134.33211 -49.468689 -1.036
134.38205 -49.471268 -1.04
134.43198 -49.473846 -1.0384001
134.4819 -49.476418 -1.0424
134.53185 -49.478996 -1.04
134.58177 -49.481575 -1.0376
134.63171 -49.484154 -1.0432
134.68164 -49.486725 -1.0368
134.73158 -49.489304 -1.0456001
134.78151 -49.491882 -1.0408
134.83145 -49.494453 -1.0416
134.88138 -49.497032 -1.0432
134.9313 -49.499611 -1.0368
134.98125 -49.50219 -1.0448
135.03117 -49.504761 -1.04
135.08112 -49.507339 -1.04
135.13104 -49.509918 -1.0448
135.18098 -49.512497 -1.044
135.23091 -49.515068 -1.0432
135.28085 -49.517647 -1.0432
135.33078 -49.520226 0.65600002
135.38071 -49.522797 0.81440002
135.43065 -49.525375 0.85839999
135.48058 -49.527954 0.90240002
135.53052 -49.530533 0.9368
135.58044 -49.533104 0.94959998
135.63039 -49.535683 0.94
135.68031 -49.538261 0.94400001
135.73026 -49.54084 0.93919998
135.78018 -49.543411 0.94160002
135.83011 -49.54599 0.94400001
135.88005 -49.548569 0.94319999
135.92998 -49.55114 0.94480002
135.97992 -49.553719 0.9472
136.02985 -49.556297 0.94800001
136.07979 -49.558876 0.9472
136.12971 -49.561447 0.94880003
136.17966 -49.564026 0.95279998
136.22958 -49.566605 0.94400001
136.27951 -49.569183 0.94639999
136.32945 -49.571754 0.94559997
136.37938 -49.574333 0.94239998
136.42932 -49.576912 0.93040001
136.47925 -49.579483 1.008
136.52919 -49.582062 1.5391999
136.57912 -49.584641 1.6328
136.62906 -49.587219 1.6792001
136.67899 -49.58979 1.676
136.72891 -49.592369 1.6752
136.77885 -49.594948 1.656
136.82878 -49.597519 1.5976
136.87872 -49.600098 1.5568
136.92865 -49.602676 1.5176001
136.97859 -49.605255 1.4568
137.02852 -49.607826 1.4112
137.07846 -49.610405 1.3496
137.12839 -49.612984 1.2888
137.17833 -49.615562 1.2288001
137.22826 -49.618134 1.1672
137.27818 -49.620712 1.1008
137.32813 -49.623291 1.0208
137.37805 -49.625862 0.9544
137.42799 -49.628441 0.87120003
137.47792 -49.63102 0.78479999
137.52786 -49.633598 0.68000001
137.57779 -49.636169 0.61440003
129.62805 -49.426231 -0.58399999
129.67798 -49.42881 -0.41760001
129.72792 -49.431381 -0.4208
129.77785 -49.43396 -0.41839999
129.82779 -49.436539 -0.42320001
129.87772 -49.439117 -0.4208
129.92764 -49.441689 -0.4208
129.97758 -49.444267 -0.42160001
130.02751 -49.446846 -0.41679999
130.07745 -49.449417 -0.39199999
130.12738 -49.451996 -0.3856
130.17732 -49.454575 -0.38479999
130.22725 -49.457153 -0.38
130.27719 -49.459724 -0.38479999
130.32712 -49.462303 -0.38
130.37704 -49.464882 -0.38080001
130.42699 -49.467461 -0.37920001
130.47691 -49.470032 -0.38080001
130.52686 -49.47261 -0.38
130.57678 -49.475189 -0.38240001
130.62672 -49.47776 -0.38319999
130.67665 -49.480339 -0.38640001
130.72659 -49.482918 -0.38
130.77652 -49.485497 -0.38
130.82645 -49.488068 -0.38080001
130.87639 -49.490646 -0.3872
130.92632 -49.493225 -0.38080001
130.97626 -49.495804 -0.38080001
131.02618 -49.498375 -0.38080001
131.07613 -49.500954 -0.3888
131.12605 -49.503532 -0.38319999
131.17599 -49.506104 -0.38319999
131.22592 -49.508682 -0.3856
131.27585 -49.511261 -0.3856
131.32579 -49.51384 -0.38800001
131.37572 -49.516411 -0.39199999
131.42566 -49.51899 -0.384
131.47559 -49.521568 -0.38479999
131.52553 -49.524139 -0.3856
131.57545 -49.526718 -0.3856
131.6254 -49.529297 -0.38080001
131.67532 -49.531876 -0.3784
131.72525 -49.534447 -0.38319999
131.77519 -49.537025 -0.43040001
131.82512 -49.539604 -0.45039999
131.87506 -49.542183 -1.0568
131.92499 -49.544754 -1.0247999
131.97493 -49.547333 -1.0312001
132.02486 -49.549911 -1.0344
132.0748 -49.552483 -1.0336
132.12473 -49.555061 -1.0304
132.17465 -49.55764 -1.0376
132.22459 -49.560219 -1.0344
132.27452 -49.56279 -1.0368
132.32446 -49.565369 -1.0352
132.37439 -49.567947 -1.036
132.42433 -49.570526 -1.0319999
132.47426 -49.573097 -1.0319999
132.5242 -49.575676 -1.0312001
132.57413 -49.578255 -1.0336
132.62405 -49.580826 -1.0304
132.674 -49.583405 -1.0296
132.72392 -49.585983 -1.0328
132.77386 -49.588562 -1.0368
132.82379 -49.591133 -1.0288
132.87373 -49.593712 -1.028
132.92366 -49.596291 -1.0368
132.9736 -49.598869 -1.0376
133.02353 -49.60144 -1.0319999
133.07346 -49.604019 -1.0368
133.1234 -49.606598 -1.036
133.17332 -49.609169 -1.0352
133.22327 -49.611748 -1.04
133.27319 -49.614326 -1.0328
133.32314 -49.616905 -1.0319999
133.37306 -49.619476 -1.04
133.423 -49.622055 -1.0376
133.47293 -49.624634 -1.0408
133.52287 -49.627213 -1.0384001
133.5728 -49.629784 -1.0416
133.62273 -49.632362 -1.044
133.67267 -49.634941 -1.0384001
133.7226 -49.637512 -1.0376
133.77254 -49.640091 -1.0344
133.82246 -49.64267 -1.0391999
133.87241 -49.645248 -1.0384001
133.92233 -49.64782 -1.04
133.97227 -49.650398 -1.0416
134.0222 -49.652977 -1.0424
134.07213 -49.655556 -1.0432
134.12207 -49.658127 -1.0424
134.172 -49.660706 -1.0432
134.22194 -49.663284 -1.0384001
134.27187 -49.665855 -1.04
134.32181 -49.668434 -1.0391999
134.37173 -49.671013 -1.0384001
134.42168 -49.673592 -1.0408
134.4716 -49.676163 -1.0416
134.52153 -49.678741 -1.0384001
134.57147 -49.68132 -1.04
134.6214 -49.683899 -1.04
134.67134 -49.68647 -1.0376
134.72127 -49.689049 -1.04
134.77121 -49.691628 -1.0384001
134.82114 -49.694199 -1.0368
134.87108 -49.696777 -1.0432
134.92101 -49.699356 -1.0391999
134.97093 -49.701935 -1.0408
135.02087 -49.704506 -1.0376
135.0708 -49.707085 -1.0408
135.12074 -49.709663 -1.04
135.17067 -49.712242 -1.0424
135.22061 -49.714813 0.7744
135.27054 -49.717392 0.82480001
135.32048 -49.719971 0.87599999
135.37041 -49.722542 0.93199998
135.42033 -49.725121 0.94239998
135.47028 -49.727699 0.94239998
135.5202 -49.730278 0.94
135.57014 -49.732849 0.94800001
135.62007 -49.735428 0.94480002
135.67001 -49.738007 0.9472
135.71994 -49.740585 0.94559997
135.76988 -49.743156 0.94480002
135.81981 -49.745735 0.94239998
135.86974 -49.748314 0.94559997
135.91968 -49.750885 0.94959998
135.9696 -49.753464 0.94559997
136.01955 -49.756042 0.94880003
136.06947 -49.758621 0.94959998
136.11942 -49.761192 0.93919998
136.16934 -49.763771 0.94319999
136.21928 -49.76635 0.95039999
136.26921 -49.768929 0.94480002
136.31915 -49.7715 0.93279999
136.36908 -49.774078 0.97439998
136.41901 -49.776657 1.2168
136.46895 -49.779228 1.5824
136.51888 -49.781807 1.6784
136.56882 -49.784386 1.6752
136.61874 -49.786964 1.6727999
136.66869 -49.789536 1.6592
136.71861 -49.792114 1.6144
136.76855 -49.794693 1.5688
136.81848 -49.797272 1.524
136.86841 -49.799843 1.4672
136.91835 -49.802422 1.4191999
136.96828 -49.805 1.3616
137.01822 -49.807571 1.3056
137.06815 -49.81015 1.2536
137.11809 -49.812729 1.188
137.16801 -49.815308 1.1160001
137.21796 -49.817879 1.044
137.26788 -49.820457 0.98479998
137.31781 -49.823036 0.89840001
137.36775 -49.825607 0.7992
137.41768 -49.828186 0.7256
137.46762 -49.830765 0.63520002
128.86874 -49.587311 -0.40959999
128.91867 -49.58989 -0.412
128.9686 -49.592461 -0.41280001
129.01854 -49.595039 -0.4224
129.06847 -49.597618 -0.42399999
129.11841 -49.600197 -0.41600001
129.16833 -49.602768 -0.42399999
129.21828 -49.605347 -0.4104
129.2682 -49.607925 -0.42559999
129.31815 -49.610504 -0.43599999
129.36807 -49.613075 -0.47920001
129.418 -49.615654 -0.46160001
129.46794 -49.618233 -0.46000001
129.51787 -49.620804 -0.44080001
129.56781 -49.623383 -0.4368
129.61774 -49.625961 -0.44080001
129.66768 -49.62854 -0.42399999
129.71761 -49.631111 -0.41760001
129.76755 -49.63369 -0.4136
129.81747 -49.636269 -0.4152
129.8674 -49.638847 -0.41440001
129.91734 -49.641418 -0.40400001
129.96727 -49.643997 -0.38960001
130.01721 -49.646576 -0.3768
130.06714 -49.649147 -0.38159999
130.11708 -49.651726 -0.3752
130.16701 -49.654305 -0.38159999
130.21695 -49.656883 -0.38800001
130.26688 -49.659454 -0.38080001
130.3168 -49.662033 -0.38800001
130.36674 -49.664612 -0.3888
130.41667 -49.667191 -0.38319999
130.46661 -49.669762 -0.384
130.51654 -49.67234 -0.38800001
130.56648 -49.674919 -0.3752
130.61641 -49.67749 -0.3856
130.66635 -49.680069 -0.38080001
130.71628 -49.682648 -0.38080001
130.76622 -49.685226 -0.38640001
130.81615 -49.687798 -0.384
130.86607 -49.690376 -0.38159999
130.91602 -49.692955 -0.38479999
130.96594 -49.695534 -0.38319999
131.01588 -49.698105 -0.3944
131.06581 -49.700684 -0.384
131.11575 -49.703262 -0.38
131.16568 -49.705833 -0.39120001
131.21562 -49.708412 -0.384
131.26555 -49.710991 -0.38
131.31548 -49.71357 -0.3928
131.36542 -49.716141 -0.384
131.41534 -49.718719 -0.3856
131.46529 -49.721298 -0.38800001
131.51521 -49.723877 -0.3888
131.56516 -49.726448 -0.3944
131.61508 -49.729027 -0.3944
131.66502 -49.731606 -0.3784
131.71495 -49.734177 -0.38240001
131.76488 -49.736755 -0.3872
131.81482 -49.739334 -0.38080001
131.86475 -49.741913 -0.38319999
131.91469 -49.744484 -0.38319999
131.96461 -49.747063 -0.3872
132.01456 -49.749641 -0.38240001
132.06448 -49.752213 -1.0608
132.11443 -49.754791 -1.0432
132.16435 -49.75737 -1.0312001
132.21428 -49.759949 -1.0344
132.26422 -49.76252 -1.0352
132.31415 -49.765099 -1.0368
132.36409 -49.767677 -1.036
132.41402 -49.770256 -1.04
132.46396 -49.772827 -1.0312001
132.51389 -49.775406 -1.0319999
132.56383 -49.777985 -1.0352
132.61375 -49.780556 -1.0368
132.66368 -49.783134 -1.0328
132.71362 -49.785713 -1.0304
132.76355 -49.788292 -1.0312001
132.81349 -49.790863 -1.0384001
132.86342 -49.793442 -1.0368
132.91336 -49.796021 -1.0352
132.96329 -49.798599 -1.04
133.01323 -49.80117 -1.0328
133.06316 -49.803749 -1.0328
133.11308 -49.806328 -1.0312001
133.16302 -49.808899 -1.0319999
133.21295 -49.811478 -1.0344
133.26289 -49.814056 -1.0264
133.31282 -49.816635 -1.0319999
133.36276 -49.819206 -1.0352
133.41269 -49.821785 -1.0336
133.46263 -49.824364 -1.036
133.51256 -49.826942 -1.0319999
133.56248 -49.829514 -1.036
133.61243 -49.832092 -1.0336
133.66235 -49.834671 -1.0344
133.7123 -49.837242 -1.0368
133.76222 -49.839821 -1.0384001
133.81216 -49.8424 -1.036
133.86209 -49.844978 -1.0352
133.91203 -49.847549 -1.0336
133.96196 -49.850128 -1.0424
134.0119 -49.852707 -1.0376
134.06183 -49.855286 -1.0352
134.11176 -49.857857 -1.0424
134.1617 -49.860435 -1.0416
134.21162 -49.863014 -1.0352
134.26157 -49.865585 -1.0368
134.31149 -49.868164 -1.0408
134.36143 -49.870743 -1.0376
134.41136 -49.873322 -1.0376
134.4613 -49.875893 -1.0408
134.51123 -49.878471 -1.0408
134.56116 -49.88105 -1.0319999
134.6111 -49.883629 -1.0344
134.66103 -49.8862 -1.0328
134.71097 -49.888779 -1.036
134.76089 -49.891357 -1.0319999
134.81084 -49.893929 -1.0319999
134.86076 -49.896507 -1.0352
134.91071 -49.899086 -1.0408
134.96063 -49.901665 -1.0416
135.01056 -49.904236 -1.0352
135.0605 -49.906815 0.76959997
135.11043 -49.909393 0.80000001
135.16037 -49.911972 0.8416
135.2103 -49.914543 0.8976
135.26024 -49.917122 0.9472
135.31017 -49.919701 0.94
135.36011 -49.922272 0.94160002
135.41003 -49.92485 0.9472
135.45996 -49.927429 0.94880003
135.5099 -49.930008 0.94559997
135.55983 -49.932579 0.94559997
135.60977 -49.935158 0.94959998
135.6597 -49.937737 0.94480002
135.70964 -49.940315 0.94319999
135.75957 -49.942886 0.9472
135.80951 -49.945465 0.94400001
135.85944 -49.948044 0.94319999
135.90936 -49.950615 0.94
135.9593 -49.953194 0.94160002
136.00923 -49.955772 0.94880003
136.05917 -49.958351 0.94480002
136.1091 -49.960922 0.94319999
136.15904 -49.963501 0.94080001
136.20897 -49.96608 0.93360001
136.25891 -49.968658 1.0192
136.30884 -49.97123 1.5376
136.35876 -49.973808 1.6496
136.40871 -49.976387 1.6736
136.45863 -49.978958 1.676
136.50858 -49.981537 1.6736
136.5585 -49.984116 1.656
136.60844 -49.986694 1.6112
136.65837 -49.989265 1.5599999
136.70831 -49.991844 1.5184
136.75824 -49.994423 1.4696
136.80817 -49.996994 1.4184
136.85811 -49.999573 1.3696001
136.90804 -50.002151 1.308
136.95798 -50.00473 1.2552
137.0079 -50.007301 1.1928
137.05785 -50.00988 1.1248
137.10777 -50.012459 1.0576
137.15771 -50.015038 0.98320001
137.20764 -50.017609 0.92000002
128.85843 -49.787041 -0.40239999
128.90837 -49.789619 -0.4048
128.9583 -49.792191 -0.40720001
129.00822 -49.794769 -0.4048
129.05817 -49.797348 -0.40560001
129.10809 -49.799927 -0.40560001
129.15804 -49.802498 -0.4048
129.20796 -49.805077 -0.4136
129.2579 -49.807655 -0.40799999
129.30783 -49.810234 -0.40400001
129.35777 -49.812805 -0.4016
129.4077 -49.815384 -0.4032
129.45763 -49.817963 -0.39840001
129.50757 -49.820534 -0.40079999
129.5575 -49.823112 -0.40239999
129.60744 -49.825691 -0.39680001
129.65736 -49.82827 -0.40720001
129.70731 -49.830841 -0.37439999
129.75723 -49.83342 -0.3712
129.80717 -49.835999 -0.3712
129.8571 -49.838577 -0.37360001
129.90704 -49.841148 -0.37279999
129.95697 -49.843727 -0.38319999
130.0069 -49.846306 -0.3768
130.05684 -49.848877 -0.37360001
130.10677 -49.851456 -0.37760001
130.15671 -49.854034 -0.37760001
130.20663 -49.856613 -0.37439999
130.25658 -49.859184 -0.37439999
130.3065 -49.861763 -0.36880001
130.35645 -49.864342 -0.3712
130.40637 -49.86692 -0.37200001
130.4563 -49.869492 -0.37200001
130.50624 -49.87207 -0.37360001
130.55617 -49.874649 -0.37200001
130.60611 -49.87722 -0.38080001
130.65604 -49.879799 -0.3768
130.70598 -49.882378 -0.3664
130.75591 -49.884956 -0.37599999
130.80585 -49.887527 -0.384
130.85577 -49.890106 -0.3768
130.9057 -49.892685 -0.3768
130.95564 -49.895264 1.1488
131.00557 -49.897835 1.1504
131.05551 -49.900414 1.1512001
131.10544 -49.902992 1.1544
131.15538 -49.905563 -0.37760001
131.20531 -49.908142 -0.36880001
131.25525 -49.910721 -0.3768
131.30518 -49.9133 -0.3784
131.3551 -49.915871 -0.37599999
131.40504 -49.918449 -0.37040001
131.45497 -49.921028 -0.37360001
131.50491 -49.923599 -0.3784
131.55484 -49.926178 -0.37439999
131.60478 -49.928757 -0.3752
131.65471 -49.931335 -0.37200001
131.70465 -49.933907 -0.37439999
131.75458 -49.936485 -0.3784
131.8045 -49.939064 -0.37279999
131.85445 -49.941643 -0.3784
131.90437 -49.944214 -0.37920001
131.95432 -49.946793 -0.37599999
132.00424 -49.949371 -0.37200001
132.05418 -49.951942 -0.3752
132.10411 -49.954521 -0.37040001
132.15405 -49.9571 -0.37279999
132.20398 -49.959679 -0.3696
132.25391 -49.96225 -0.37360001
132.30385 -49.964828 -0.37200001
132.35378 -49.967407 -0.35679999
132.40372 -49.969986 -0.368
132.45364 -49.972557 -0.34639999
132.50359 -49.975136 -1.0544
132.55351 -49.977715 -1.052
132.60345 -49.980286 -1.048
132.65338 -49.982864 -1.0432
132.70331 -49.985443 -1.0384001
132.75325 -49.988022 -1.0288
132.80318 -49.990593 -1.0319999
132.85312 -49.993172 -1.04
132.90305 -49.99575 -1.0432
132.95299 -49.998329 -1.052
133.00291 -50.0009 -1.048
133.05286 -50.003479 -1.048
133.10278 -50.006058 -1.044
133.15271 -50.008629 -1.048
133.20265 -50.011208 -1.0472
133.25258 -50.013786 -1.0408
133.30252 -50.016365 -1.0208
133.35245 -50.018936 -1.0088
133.40239 -50.021515 -0.98720002
133.45232 -50.024094 -0.99199998
133.50226 -50.026672 -0.98479998
133.55219 -50.029243 -0.96399999
133.60211 -50.031822 -0.97439998
133.65205 -50.034401 -0.97839999
133.70198 -50.036972 -0.97439998
133.75192 -50.039551 -0.96399999
133.80185 -50.04213 -0.6232
133.85179 -50.044708 -1.0032001
133.90172 -50.047279 -1.0064
133.95166 -50.049858 -1.008
134.00159 -50.052437 -1.0272
134.05151 -50.055016 -1.0376
134.10146 -50.057587 -1.048
134.15138 -50.060165 -1.0496
134.20132 -50.062744 -1.0496
134.25125 -50.065315 -1.0504
134.30119 -50.067894 -1.056
134.35112 -50.070473 -1.0496
134.40106 -50.073051 -1.0472
134.45099 -50.075623 -1.0472
134.50093 -50.078201 0.80080003
134.55086 -50.08078 0.78799999
134.60078 -50.083359 0.77679998
134.65073 -50.08593 0.792
134.70065 -50.088509 0.80080003
134.7506 -50.091087 0.79680002
134.80052 -50.093658 0.82080001
134.85046 -50.096237 0.82560003
134.90039 -50.098816 0.84719998
134.95033 -50.101395 0.88
135.00026 -50.103966 0.88559997
135.05019 -50.106544 0.95200002
135.10013 -50.109123 0.95520002
135.15005 -50.111702 0.94559997
135.2 -50.114273 0.94880003
135.24992 -50.116852 0.94959998
135.29987 -50.119431 0.94959998
135.34979 -50.122002 0.95200002
135.39973 -50.12458 0.94559997
135.44966 -50.127159 0.93839997
135.49959 -50.129738 0.9472
135.54953 -50.132309 0.94400001
135.59946 -50.134888 0.94800001
135.6494 -50.137466 0.94319999
135.69933 -50.140045 0.9472
135.74927 -50.142616 0.94400001
135.79919 -50.145195 0.94480002
135.84914 -50.147774 0.94559997
135.89906 -50.150345 0.94480002
135.94899 -50.152924 0.94880003
135.99893 -50.155502 0.94160002
136.04886 -50.158081 0.94319999
136.0988 -50.160652 0.91280001
136.14873 -50.163231 1.0616
136.19867 -50.16581 1.5488
136.2486 -50.168388 1.6696
136.29854 -50.170959 1.6752
136.34846 -50.173538 1.6744
136.39841 -50.176117 1.676
136.44833 -50.178688 1.6632
136.49826 -50.181267 1.6104
136.5482 -50.183846 1.5664001
136.59813 -50.186424 1.5224
136.64807 -50.188995 1.4752001
136.698 -50.191574 1.4248
136.74794 -50.194153 1.3664
136.79787 -50.196732 1.3096
136.84781 -50.199303 1.2584
136.89774 -50.201881 1.1896
136.94766 -50.20446 1.1160001
136.9976 -50.207031 1.0592
137.04753 -50.20961 0.98479998
137.09747 -50.212189 0.91439998
137.1474 -50.214767 0.8448
137.19734 -50.217339 0.7608
137.24727 -50.219917 0.6688
128.84813 -49.986778 -0.4032
128.89806 -49.989357 -0.40400001
128.948 -49.991928 -0.39359999
128.99792 -49.994507 -0.40000001
129.04785 -49.997086 -0.4032
129.09779 -49.999664 -0.40720001
129.14772 -50.002235 -0.39199999
129.19766 -50.004814 -0.39199999
129.24759 -50.007393 -0.39199999
129.29753 -50.009972 0.98559999
129.34746 -50.012543 0.98079997
129.3974 -50.015121 0.98320001
129.44733 -50.0177 0.98479998
129.49725 -50.020271 0.9824
129.5472 -50.02285 0.98000002
129.59712 -50.025429 0.97600001
129.64706 -50.028008 0.97680002
129.69699 -50.030579 0.97280002
129.74693 -50.033157 0.98000002
129.79686 -50.035736 0.9752
129.8468 -50.038315 0.9824
129.89673 -50.040886 0.97839999
129.94666 -50.043465 0.9824
129.9966 -50.046043 0.98720002
130.04652 -50.048615 0.98559999
130.09647 -50.051193 0.99680001
130.14639 -50.053772 0.98479998
130.19633 -50.056351 0.97600001
130.24626 -50.058922 0.97439998
130.2962 -50.061501 0.97280002
130.34613 -50.064079 0.96799999
130.39606 -50.066658 0.96880001
130.446 -50.069229 0.96880001
130.49593 -50.071808 0.96719998
130.54587 -50.074387 0.97039998
130.59579 -50.076958 0.972
130.64574 -50.079536 1.0424
130.69566 -50.082115 1.1016001
130.74561 -50.084694 1.0808001
130.79553 -50.087265 1.1272
130.84546 -50.089844 1.1256
130.8954 -50.092422 1.1424
130.94533 -50.095001 1.1352
130.99527 -50.097572 1.1512001
131.0452 -50.100151 1.1528
131.09514 -50.10273 1.0312001
131.14507 -50.105301 0.97119999
131.19501 -50.10788 0.97119999
131.24493 -50.110458 0.96960002
131.29488 -50.113037 0.96399999
131.3448 -50.115608 0.96160001
131.39473 -50.118187 0.96799999
131.44467 -50.120766 0.96719998
131.4946 -50.123337 0.96399999
131.54454 -50.125916 0.96960002
131.59447 -50.128494 0.96319997
131.64441 -50.131073 0.9648
131.69434 -50.133644 0.96560001
131.74428 -50.136223 0.96640003
131.7942 -50.138802 0.95999998
131.84413 -50.14138 0.95840001
131.89407 -50.143951 0.96079999
131.944 -50.14653 0.96319997
131.99394 -50.149109 0.96799999
132.04387 -50.15168 0.96560001
132.09381 -50.154259 0.96640003
132.14374 -50.156837 0.96719998
132.19368 -50.159416 0.9576
132.24361 -50.161987 0.9576
132.29353 -50.164566 0.96240002
132.34348 -50.167145 0.96560001
132.3934 -50.169724 0.96319997
132.44334 -50.172295 0.95679998
132.49327 -50.174873 0.95999998
132.54321 -50.177452 0.96079999
132.59314 -50.180023 0.96079999
132.64308 -50.182602 0.95279998
132.69301 -50.185181 0.95840001
132.74294 -50.187759 0.96240002
132.79288 -50.190331 0.9576
132.8428 -50.192909 0.95999998
132.89275 -50.195488 0.95679998
132.94267 -50.198067 0.95679998
132.99261 -50.200638 0.9576
133.04254 -50.203217 0.95520002
133.09248 -50.205795 0.95520002
133.14241 -50.208366 0.95999998
133.19234 -50.210945 0.9544
133.24228 -50.213524 0.95599997
133.29221 -50.216103 0.95679998
133.34215 -50.218674 0.95279998
133.39207 -50.221252 0.9576
133.44202 -50.223831 0.95200002
133.49194 -50.22641 0.95039999
133.54189 -50.228981 0.9544
133.59181 -50.23156 0.94880003
133.64175 -50.234138 0.95120001
133.69168 -50.23671 0.94800001
133.74161 -50.239288 0.94480002
133.79155 -50.241867 0.95039999
133.84148 -50.244446 0.9576
133.89142 -50.247017 0.9544
133.94135 -50.249596 0.95359999
133.99129 -50.252174 0.95039999
134.04121 -50.254753 0.94959998
134.09116 -50.257324 0.95359999
134.14108 -50.259903 0.95359999
134.19101 -50.262482 0.95200002
134.24095 -50.265053 0.9544
134.29088 -50.267632 0.95359999
134.34082 -50.27021 0.95679998
134.39075 -50.272789 0.95039999
134.44069 -50.27536 0.94959998
134.49062 -50.277939 0.95359999
134.54056 -50.280518 0.95279998
134.59048 -50.283096 0.95279998
134.64041 -50.285667 0.94880003
134.69035 -50.288246 0.94639999
134.74028 -50.290825 0.95039999
134.79022 -50.293396 0.95520002
134.84015 -50.295975 0.94800001
134.89009 -50.298553 0.95039999
134.94002 -50.301132 0.95039999
134.98996 -50.303703 0.94480002
135.03989 -50.306282 0.94800001
135.08981 -50.308861 0.94880003
135.13976 -50.31144 0.94800001
135.18968 -50.314011 0.9472
135.23962 -50.316589 0.94959998
135.28955 -50.319168 0.95039999
135.33949 -50.321739 0.9472
135.38942 -50.324318 0.94880003
135.43936 -50.326897 0.95039999
135.48929 -50.329475 0.94239998
135.53922 -50.332047 0.9368
135.58916 -50.334625 0.94400001
135.63908 -50.337204 0.9472
135.68903 -50.339783 0.94880003
135.73895 -50.342354 0.9472
135.78889 -50.344933 0.94480002
135.83882 -50.347511 0.95200002
135.88876 -50.350082 0.94959998
135.93869 -50.352661 0.93519998
135.98862 -50.35524 0.98000002
136.03856 -50.357819 1.0664001
136.08849 -50.36039 1.5528001
136.13843 -50.362968 1.6720001
136.18835 -50.365547 1.6808
136.2383 -50.368126 1.6784
136.28822 -50.370697 1.6727999
136.33817 -50.373276 1.6408
136.38809 -50.375854 1.6072
136.43802 -50.378426 1.5528001
136.48796 -50.381004 1.512
136.53789 -50.383583 1.4608001
136.58783 -50.386162 1.4112
136.63776 -50.388733 1.3552001
136.6877 -50.391312 1.3024
136.73763 -50.39389 1.244
136.78757 -50.396469 1.1872
136.83749 -50.39904 1.1208
136.88742 -50.401619 1.0528001
136.93736 -50.404198 0.98479998
128.83781 -50.186508 -0.42640001
128.88776 -50.189087 -0.44159999
128.93768 -50.191658 -0.46239999
128.98763 -50.194237 -0.46239999
129.03755 -50.196815 -0.46239999
129.08748 -50.199394 0.98720002
129.13742 -50.201965 0.9928
129.18735 -50.204544 0.9928
129.23729 -50.207123 0.99919999
129.28722 -50.209702 1.0008
129.33716 -50.212273 1.0112
129.38708 -50.214851 1.024
129.43703 -50.21743 1.0224
129.48695 -50.220001 1.0432
129.53688 -50.22258 1.0656
129.58682 -50.225159 1.0688
129.63675 -50.227737 1.0552
129.68669 -50.230309 1.052
129.73662 -50.232887 1.0648
129.78656 -50.235466 1.1008
129.83649 -50.238045 1.1072
129.88643 -50.240616 1.112
129.93636 -50.243195 1.1088001
129.98628 -50.245773 1.1095999
130.03622 -50.248344 1.1136
130.08615 -50.250923 1.1088001
130.13609 -50.253502 1.1088001
130.18602 -50.256081 1.112
130.23596 -50.258652 1.1368001
130.28589 -50.26123 1.1184
130.33583 -50.263809 1.1224
130.38576 -50.266388 1.124
130.43568 -50.268959 1.1264
130.48563 -50.271538 1.1368001
130.53555 -50.274117 1.1288
130.58549 -50.276688 1.1272
130.63542 -50.279266 1.1168
130.68536 -50.281845 1.1184
130.73529 -50.284424 1.1208
130.78523 -50.286995 1.1232001
130.83516 -50.289574 1.128
130.8851 -50.292152 1.1232001
130.93503 -50.294731 1.1176
130.98495 -50.297302 1.1128
131.0349 -50.299881 1.104
131.08482 -50.30246 1.0992
131.13477 -50.305031 0.95520002
131.18469 -50.30761 0.96079999
131.23463 -50.310188 0.96640003
131.28456 -50.312767 0.96240002
131.3345 -50.315338 0.96319997
131.38443 -50.317917 0.96240002
131.43436 -50.320496 0.96240002
131.4843 -50.323074 0.9648
131.53423 -50.325645 0.96240002
131.58417 -50.328224 0.96240002
131.63409 -50.330803 0.96399999
131.68404 -50.333374 0.96319997
131.73396 -50.335953 0.95679998
131.78391 -50.338531 0.95279998
131.83383 -50.34111 0.95279998
131.88376 -50.343681 0.95920002
131.9337 -50.34626 0.95999998
131.98363 -50.348839 0.95599997
132.03357 -50.35141 0.95359999
132.0835 -50.353989 0.95599997
132.13344 -50.356567 0.9576
132.18336 -50.359146 0.95200002
132.23331 -50.361717 0.95120001
132.28323 -50.364296 0.95359999
132.33316 -50.366875 0.95359999
132.3831 -50.369453 0.95679998
132.43303 -50.372025 0.95599997
132.48297 -50.374603 0.95120001
132.5329 -50.377182 0.95679998
132.58284 -50.379753 0.95120001
132.63277 -50.382332 0.95679998
132.68271 -50.384911 0.94559997
132.73264 -50.387489 0.95679998
132.78256 -50.39006 0.95200002
132.8325 -50.392639 0.95520002
132.88243 -50.395218 0.94959998
132.93237 -50.397797 0.95359999
132.9823 -50.400368 0.95359999
133.03224 -50.402946 0.95120001
133.08217 -50.405525 0.95120001
133.13211 -50.408096 0.9544
133.18204 -50.410675 0.95520002
133.23196 -50.413254 0.95999998
133.28191 -50.415833 0.94800001
133.33183 -50.418404 0.95279998
133.38177 -50.420982 0.95200002
133.4317 -50.423561 0.9544
133.48164 -50.42614 0.9472
133.53157 -50.428711 0.9544
133.58151 -50.43129 0.95279998
133.63144 -50.433868 0.95039999
133.68137 -50.43644 0.95200002
133.73131 -50.439018 0.95039999
133.78123 -50.441597 0.95039999
133.83118 -50.444176 0.95679998
133.8811 -50.446747 0.95599997
133.93105 -50.449326 0.94639999
133.98097 -50.451904 0.94400001
134.03091 -50.454483 0.94800001
134.08084 -50.457054 0.95200002
134.13078 -50.459633 0.94480002
134.18071 -50.462212 0.95200002
134.23064 -50.464783 0.94880003
134.28058 -50.467361 0.94959998
134.33051 -50.46994 0.95039999
134.38045 -50.472519 0.94959998
134.43037 -50.47509 0.94880003
134.48032 -50.477669 0.94559997
134.53024 -50.480247 0.94080001
134.58018 -50.482826 0.95120001
134.63011 -50.485397 0.94800001
134.68004 -50.487976 0.95200002
134.72998 -50.490555 0.94880003
134.77991 -50.493126 0.94800001
134.82985 -50.495705 0.94400001
134.87978 -50.498283 0.94880003
134.92972 -50.500862 0.9472
134.97964 -50.503433 0.94959998
135.02959 -50.506012 0.94880003
135.07951 -50.508591 0.9472
135.12944 -50.511169 0.94880003
135.17938 -50.513741 0.95039999
135.22931 -50.516319 0.95520002
135.27925 -50.518898 0.95279998
135.32918 -50.521469 0.95359999
135.37912 -50.524048 0.94559997
135.42905 -50.526627 0.9472
135.47899 -50.529205 0.94959998
135.52892 -50.531776 0.94800001
135.57884 -50.534355 0.94639999
135.62878 -50.536934 0.95039999
135.67871 -50.539513 0.94959998
135.72865 -50.542084 0.94880003
135.77858 -50.544662 0.94160002
135.82852 -50.547241 0.93040001
135.87845 -50.549812 1.0664001
135.92839 -50.552391 1.5376
135.97832 -50.55497 1.6792001
136.02824 -50.557549 1.6824
136.07819 -50.56012 1.6744
136.12811 -50.562698 1.6848
136.17805 -50.565277 1.6727999
136.22798 -50.567856 1.6303999
136.27792 -50.570427 1.5848
136.32785 -50.573006 1.544
136.37779 -50.575584 1.508
136.42772 -50.578156 1.4496
136.47765 -50.580734 1.396
136.52759 -50.583313 1.3456
136.57751 -50.585892 1.2904
136.62746 -50.588463 1.228
136.67738 -50.591042 1.164
136.72733 -50.59362 1.1
136.77725 -50.596191 1.0344
136.82719 -50.59877 0.97280002
136.87712 -50.601349 0.9016
136.92706 -50.603928 0.82319999
128.82751 -50.386246 1.052
128.87744 -50.388824 1.0584
128.92738 -50.391396 1.0048
128.97731 -50.393974 1.0184
129.02725 -50.396553 1.0039999
129.07718 -50.399132 1.0096
129.12711 -50.401703 1.0352
129.17705 -50.404282 1.0592
129.22697 -50.40686 1.0944
129.27692 -50.409439 1.1095999
129.32684 -50.41201 1.1208
129.37679 -50.414589 1.1296
129.42671 -50.417168 1.1368001
129.47665 -50.419739 1.1312
129.52658 -50.422318 1.1416
129.57651 -50.424896 1.1368001
129.62645 -50.427475 1.1312
129.67638 -50.430046 1.128
129.72632 -50.432625 1.1312
129.77625 -50.435204 1.1416
129.82619 -50.437782 1.1384
129.87611 -50.440353 1.1375999
129.92606 -50.442932 1.1303999
129.97598 -50.445511 1.1336
130.02591 -50.448082 1.1496
130.07585 -50.450661 1.1464
130.12578 -50.453239 1.1384
130.17572 -50.455818 1.1288
130.22565 -50.458389 1.1256
130.27559 -50.460968 1.1248
130.32552 -50.463547 1.1303999
130.37546 -50.466125 1.148
130.42538 -50.468697 1.1616
130.47531 -50.471275 1.1624
130.52525 -50.473854 1.1672
130.57518 -50.476425 1.1464
130.62512 -50.479004 1.1368001
130.67505 -50.481583 1.1488
130.72499 -50.484161 1.1576
130.77492 -50.486732 1.1632
130.82486 -50.489311 1.1672
130.87479 -50.49189 1.1608
130.92471 -50.494469 1.1608
130.97466 -50.49704 1.1536
131.02458 -50.499619 1.1512001
131.07452 -50.502197 1.1432
131.12445 -50.504768 1.1008
131.17439 -50.507347 0.95520002
131.22432 -50.509926 0.9648
131.27426 -50.512505 0.96079999
131.32419 -50.515076 0.95920002
131.37411 -50.517654 0.96640003
131.42406 -50.520233 0.96319997
131.47398 -50.522812 0.95840001
131.52393 -50.525383 0.96240002
131.57385 -50.527962 0.95840001
131.62379 -50.53054 0.9648
131.67372 -50.533112 0.96160001
131.72366 -50.53569 0.96399999
131.77359 -50.538269 0.95999998
131.82353 -50.540848 0.95359999
131.87346 -50.543419 0.9576
131.92339 -50.545998 0.95840001
131.97333 -50.548576 0.96240002
132.02325 -50.551147 0.95840001
132.0732 -50.553726 0.95999998
132.12312 -50.556305 0.9648
132.17307 -50.558884 0.95840001
132.22299 -50.561455 0.95359999
132.27293 -50.564034 0.94959998
132.32286 -50.566612 0.95359999
132.37279 -50.569191 0.96079999
132.42273 -50.571762 0.94959998
132.47266 -50.574341 0.95520002
132.5226 -50.57692 0.95520002
132.57253 -50.579491 0.95520002
132.62247 -50.582069 0.95520002
132.67239 -50.584648 0.9544
132.72234 -50.587227 0.95599997
132.77226 -50.589798 0.95039999
132.82219 -50.592377 0.95999998
132.87213 -50.594955 0.95520002
132.92206 -50.597534 0.95039999
132.972 -50.600105 0.95039999
133.02193 -50.602684 0.94959998
133.07187 -50.605263 0.94959998
133.1218 -50.607834 0.9544
133.17174 -50.610413 0.95120001
133.22166 -50.612991 0.95599997
133.27159 -50.61557 0.94880003
133.32153 -50.618141 0.9472
133.37146 -50.62072 0.95279998
133.4214 -50.623299 0.95359999
133.47133 -50.625877 0.95359999
133.52127 -50.628448 0.95279998
133.5712 -50.631027 0.95520002
133.62114 -50.633606 0.95359999
133.67107 -50.636177 0.94559997
133.72099 -50.638756 0.94959998
133.77094 -50.641335 0.95279998
133.82086 -50.643913 0.95200002
133.8708 -50.646484 0.94959998
133.92073 -50.649063 0.94880003
133.97067 -50.651642 0.95359999
134.0206 -50.654221 0.95279998
134.07054 -50.656792 0.95279998
134.12047 -50.65937 0.95039999
134.17039 -50.661949 0.94639999
134.22034 -50.66452 0.94959998
134.27026 -50.667099 0.94400001
134.32021 -50.669678 0.95120001
134.37013 -50.672256 0.94559997
134.42007 -50.674828 0.94559997
134.47 -50.677406 0.96719998
134.51994 -50.679985 0.95279998
134.56987 -50.682564 0.95279998
134.61981 -50.685135 0.9544
134.66974 -50.687714 0.95039999
134.71967 -50.690292 0.94639999
134.76961 -50.692863 0.95359999
134.81953 -50.695442 0.95120001
134.86948 -50.698021 0.95200002
134.9194 -50.7006 0.9544
134.96935 -50.703171 0.95120001
135.01927 -50.70575 0.94800001
135.06921 -50.708328 0.95599997
135.11914 -50.710907 0.95279998
135.16907 -50.713478 0.95520002
135.21901 -50.716057 0.94880003
135.26894 -50.718636 0.95520002
135.31888 -50.721207 0.94880003
135.3688 -50.723785 0.94880003
135.41875 -50.726364 0.94559997
135.46867 -50.728943 0.94480002
135.51862 -50.731514 0.95279998
135.56854 -50.734093 0.9472
135.61847 -50.736671 0.94800001
135.66841 -50.73925 0.92159998
135.71834 -50.741821 1.0344
135.76828 -50.7444 1.5464
135.81821 -50.746979 1.5448
135.86815 -50.74955 1.6768
135.91808 -50.752129 1.6768
135.96802 -50.754707 1.6776
136.01794 -50.757286 1.6808
136.06787 -50.759857 1.6536
136.11781 -50.762436 1.6168
136.16774 -50.765015 1.5664001
136.21768 -50.767593 1.524
136.26761 -50.770164 1.4664
136.31755 -50.772743 1.4312
136.36748 -50.775322 1.3696001
136.41742 -50.777893 1.3272001
136.46735 -50.780472 1.2616
136.51727 -50.783051 1.2056
136.56721 -50.785629 1.1488
136.61714 -50.7882 1.0904
136.66708 -50.790779 1.0296
136.71701 -50.793358 0.94639999
128.8172 -50.585983 1.1095999
128.86714 -50.588562 1.1072
128.91707 -50.591133 1.1072
128.96701 -50.593712 1.1272
129.01694 -50.596291 1.136
129.06688 -50.598869 1.1464
129.11681 -50.60144 1.1375999
129.16673 -50.604019 1.1136
129.21667 -50.606598 1.1168
129.2666 -50.609177 1.1424
129.31654 -50.611748 1.156
129.36647 -50.614326 1.1632
129.41641 -50.616905 1.1544
129.46634 -50.619476 1.14
129.51628 -50.622055 1.1544
129.56621 -50.624634 1.1568
129.61613 -50.627213 1.1504
129.66608 -50.629784 1.1392
129.716 -50.632362 1.1368001
129.76595 -50.634941 1.148
129.81587 -50.63752 1.1664
129.86581 -50.640091 1.1736
129.91574 -50.64267 1.1536
129.96568 -50.645248 1.1328
130.01561 -50.64782 1.1568
130.06554 -50.650398 1.1568
130.11548 -50.652977 1.1592
130.16541 -50.655556 1.1736
130.21535 -50.658127 1.1447999
130.26527 -50.660706 1.1488
130.31522 -50.663284 1.1688
130.36514 -50.665863 1.1568
130.41508 -50.668434 1.1808
130.46501 -50.671013 1.1784
130.51494 -50.673592 1.1664
130.56488 -50.676163 1.1584001
130.61481 -50.678741 1.1512001
130.66475 -50.68132 1.136
130.71468 -50.683899 1.1496
130.76462 -50.68647 1.156
130.81454 -50.689049 1.1552
130.86449 -50.691628 1.1504
130.91441 -50.694206 1.1568
130.96434 -50.696777 1.168
131.01428 -50.699356 1.1832
131.06421 -50.701935 1.1727999
131.11415 -50.704506 1.1408
131.16408 -50.707085 1.04
131.21402 -50.709663 0.99199998
131.26395 -50.712242 0.97280002
131.31389 -50.714813 0.97280002
131.36382 -50.717392 0.97359997
131.41374 -50.719971 0.96799999
131.46368 -50.722549 0.96560001
131.51361 -50.725121 0.97039998
131.56355 -50.727699 0.972
131.61348 -50.730278 0.96719998
131.66342 -50.732849 0.97039998
131.71335 -50.735428 0.9752
131.76329 -50.738007 0.97039998
131.81322 -50.740585 0.96640003
131.86316 -50.743156 0.95599997
131.91309 -50.745735 0.94559997
131.96301 -50.748314 0.93919998
132.01295 -50.750885 0.94239998
132.06288 -50.753464 0.94239998
132.11282 -50.756042 0.94800001
132.16275 -50.758621 0.9544
132.21269 -50.761192 0.95279998
132.26262 -50.763771 0.95999998
132.31256 -50.76635 0.95200002
132.36249 -50.768929 0.95200002
132.41241 -50.7715 0.94639999
132.46236 -50.774078 0.95039999
132.51228 -50.776657 0.95520002
132.56223 -50.779228 0.95279998
132.61215 -50.781807 0.95039999
132.66209 -50.784386 0.95039999
132.71202 -50.786964 0.95359999
132.76196 -50.789536 0.95520002
132.81189 -50.792114 0.95279998
132.86182 -50.794693 0.95359999
132.91176 -50.797272 0.95679998
132.96169 -50.799843 0.94800001
133.01163 -50.802422 0.94800001
133.06155 -50.805 0.95120001
133.1115 -50.807571 0.95039999
133.16142 -50.81015 0.94800001
133.21136 -50.812729 0.94959998
133.26129 -50.815308 0.95200002
133.31122 -50.817879 0.95200002
133.36116 -50.820457 0.9472
133.41109 -50.823036 0.94480002
133.46103 -50.825615 0.95200002
133.51096 -50.828186 0.94959998
133.5609 -50.830765 0.94080001
133.61082 -50.833344 0.95120001
133.66077 -50.835915 0.95279998
133.71069 -50.838493 0.95200002
133.76062 -50.841072 0.95039999
133.81056 -50.843651 0.95359999
133.86049 -50.846222 0.94800001
133.91043 -50.848801 0.95359999
133.96036 -50.851379 0.95359999
134.0103 -50.853958 0.95200002
134.06023 -50.856529 0.92799997
134.11017 -50.859108 0.94559997
134.1601 -50.861687 0.96880001
134.21002 -50.864258 0.94639999
134.25996 -50.866837 0.94639999
134.30989 -50.869415 0.94080001
134.35983 -50.871994 0.96319997
134.40976 -50.874565 0.95200002
134.4597 -50.877144 0.95120001
134.50963 -50.879723 0.94559997
134.55957 -50.882301 0.95200002
134.6095 -50.884872 0.94800001
134.65942 -50.887451 0.95200002
134.70937 -50.89003 0.94959998
134.75929 -50.892601 0.94639999
134.80923 -50.89518 0.94319999
134.85916 -50.897758 0.9472
134.9091 -50.900337 0.94880003
134.95903 -50.902908 0.95279998
135.00897 -50.905487 0.94880003
135.0589 -50.908066 0.94319999
135.10884 -50.910645 0.94639999
135.15877 -50.913216 0.94800001
135.20869 -50.915794 0.95120001
135.25864 -50.918373 0.95279998
135.30856 -50.920944 0.94639999
135.35851 -50.923523 0.9472
135.40843 -50.926102 0.95200002
135.45837 -50.92868 0.94480002
135.5083 -50.931252 0.92479998
135.55824 -50.93383 1.0104001
135.60817 -50.936409 1.4208
135.6581 -50.938988 1.5416
135.70804 -50.941559 1.6799999
135.75797 -50.944138 1.6776
135.80791 -50.946716 1.6832
135.85783 -50.949287 1.6799999
135.90778 -50.951866 1.6592
135.9577 -50.954445 1.6232001
136.00764 -50.957024 1.5888
136.05757 -50.959595 1.5328
136.1075 -50.962173 1.4912
136.15744 -50.964752 1.4384
136.20737 -50.967331 1.396
136.25731 -50.969902 1.3408
136.30724 -50.972481 1.2872
136.35718 -50.97506 1.2344
136.4071 -50.977631 1.1688
136.45705 -50.980209 1.128
136.50697 -50.982788 1.0464
136.5569 -50.985367 1.016
128.8069 -50.785713 1.1375999
128.85683 -50.788292 1.1152
128.90677 -50.790863 1.1264
128.9567 -50.793442 1.136
129.00664 -50.796021 1.1512001
129.05656 -50.798599 1.16
129.10651 -50.80117 1.164
129.15643 -50.803749 1.1584001
129.20636 -50.806328 1.1328
129.2563 -50.808907 1.1208
129.30623 -50.811478 1.1296
129.35617 -50.814056 1.1608
129.4061 -50.816635 1.1727999
129.45604 -50.819206 1.1768
129.50597 -50.821785 1.1768
129.55591 -50.824364 1.1776
129.60583 -50.826942 1.1808
129.65576 -50.829514 1.1736
129.7057 -50.832092 1.1696
129.75563 -50.834671 1.176
129.80557 -50.83725 1.1768
129.8555 -50.839821 1.184
129.90544 -50.8424 1.1912
129.95537 -50.844978 1.184
130.00531 -50.847549 1.1872
130.05524 -50.850128 1.1784
130.10516 -50.852707 1.1792001
130.15511 -50.855286 1.16
130.20503 -50.857857 1.1592
130.25497 -50.860435 1.1672
130.3049 -50.863014 1.1552
130.35484 -50.865593 1.1576
130.40477 -50.868164 1.1584001
130.45471 -50.870743 1.1712
130.50464 -50.873322 1.1608
130.55457 -50.875893 1.1632
130.60451 -50.878471 1.156
130.65443 -50.88105 1.148
130.70438 -50.883629 1.1432
130.7543 -50.8862 1.148
130.80424 -50.888779 1.1544
130.85417 -50.891357 1.1584001
130.90411 -50.893936 1.1504
130.95404 -50.896507 1.156
131.00397 -50.899086 1.1392
131.05391 -50.901665 1.1552
131.10384 -50.904236 1.1408
131.15378 -50.906815 1.1128
131.2037 -50.909393 0.9824
131.25365 -50.911972 0.97839999
131.30357 -50.914543 0.97439998
131.35352 -50.917122 0.97839999
131.40344 -50.919701 0.97359997
131.45338 -50.922272 0.97359997
131.50331 -50.92485 0.97600001
131.55324 -50.927429 0.972
131.60318 -50.930008 0.97280002
131.65311 -50.932579 0.96319997
131.70305 -50.935158 0.97039998
131.75298 -50.937737 0.97359997
131.80292 -50.940315 0.97039998
131.85284 -50.942886 0.97039998
131.90279 -50.945465 0.9648
131.95271 -50.948044 0.96799999
132.00264 -50.950615 0.97119999
132.05258 -50.953194 0.96880001
132.10251 -50.955772 0.96960002
132.15245 -50.958351 0.96560001
132.20238 -50.960922 0.96319997
132.25232 -50.963501 0.94800001
132.30225 -50.96608 0.93760002
132.35219 -50.968658 0.94559997
132.40211 -50.97123 0.94319999
132.45204 -50.973808 0.95279998
132.50198 -50.976387 0.95599997
132.55191 -50.978958 0.95200002
132.60185 -50.981537 0.9576
132.65178 -50.984116 0.95599997
132.70172 -50.986694 0.9544
132.75165 -50.989265 0.95359999
132.80159 -50.991844 0.95520002
132.85152 -50.994423 0.94880003
132.90144 -50.997002 0.95599997
132.95139 -50.999573 0.9576
133.00131 -51.002151 0.96160001
133.05125 -51.00473 0.94239998
133.10118 -51.007301 0.94880003
133.15112 -51.00988 0.94639999
133.20105 -51.012459 0.94880003
133.25099 -51.015038 0.95679998
133.30092 -51.017609 0.95520002
133.35085 -51.020187 0.95279998
133.40079 -51.022766 0.94319999
133.45071 -51.025345 0.95039999
133.50066 -51.027916 0.95039999
133.55058 -51.030495 0.94880003
133.60052 -51.033073 0.95279998
133.65045 -51.035645 0.95279998
133.70039 -51.038223 0.9544
133.75032 -51.040802 0.94319999
133.80025 -51.043381 0.94400001
133.85019 -51.045952 0.94880003
133.90012 -51.048531 0.95599997
133.95006 -51.051109 0.95120001
133.99998 -51.053688 0.95039999
134.04993 -51.056259 0.95279998
134.09985 -51.058838 0.9472
134.1498 -51.061417 0.95120001
134.19972 -51.063988 0.94080001
134.24965 -51.066566 0.94959998
134.29959 -51.069145 0.94639999
134.34952 -51.071724 0.94559997
134.39946 -51.074295 0.95359999
134.44939 -51.076874 0.95840001
134.49933 -51.079453 0.94880003
134.54926 -51.082031 0.95279998
134.5992 -51.084602 0.95520002
134.64912 -51.087181 0.95520002
134.69907 -51.08976 0.95200002
134.74899 -51.092331 0.94959998
134.79892 -51.09491 0.95200002
134.84886 -51.097488 0.95200002
134.89879 -51.100067 0.9472
134.94873 -51.102638 0.94800001
134.99866 -51.105217 0.94880003
135.0486 -51.107796 0.95279998
135.09853 -51.110374 0.95120001
135.14847 -51.112946 0.94880003
135.19839 -51.115524 0.94639999
135.24832 -51.118103 0.95359999
135.29826 -51.120674 0.94160002
135.34819 -51.123253 0.91600001
135.39813 -51.125832 1.0232
135.44806 -51.12841 1.5448
135.498 -51.130981 1.548
135.54793 -51.13356 1.676
135.59787 -51.136139 1.6776
135.6478 -51.138718 1.6832
135.69772 -51.141289 1.6784
135.74767 -51.143867 1.6528
135.79759 -51.146446 1.6056
135.84753 -51.149017 1.5784
135.89746 -51.151596 1.5384001
135.9474 -51.154175 1.4944
135.99733 -51.156754 1.4552
136.04727 -51.159325 1.4
136.0972 -51.161903 1.3576
136.14713 -51.164482 1.3024
136.19707 -51.167061 1.2472
136.24699 -51.169632 1.1936001
136.29694 -51.172211 1.14
136.34686 -51.174789 1.0880001
136.3968 -51.177361 0.99919999
128.79659 -50.985451 1.1432
128.84653 -50.988029 1.1447999
128.89645 -50.990601 1.1528
128.9464 -50.993179 1.1664
128.99632 -50.995758 1.1904
129.04626 -50.998337 1.1976
129.09619 -51.000908 1.1888
129.14613 -51.003487 1.1488
129.19606 -51.006065 1.1447999
129.24599 -51.008644 1.124
129.29593 -51.011215 1.1248
129.34586 -51.013794 1.1504
129.3958 -51.016373 1.1720001
129.44572 -51.018944 1.1799999
129.49567 -51.021523 1.1848
129.54559 -51.024101 1.1752
129.59554 -51.02668 1.176
129.64546 -51.029251 1.1816
129.69539 -51.03183 1.1808
129.74533 -51.034409 1.1912
129.79526 -51.036987 1.1896
129.8452 -51.039558 1.1864001
129.89513 -51.042137 1.1864001
129.94507 -51.044716 1.1824
129.995 -51.047287 1.184
130.04494 -51.049866 1.1776
130.09486 -51.052444 1.1736
130.14479 -51.055023 1.1672
130.19473 -51.057594 1.1608
130.24466 -51.060173 1.16
130.2946 -51.062752 1.156
130.34453 -51.065331 1.156
130.39447 -51.067902 1.1488
130.4444 -51.07048 1.1496
130.49434 -51.073059 1.1512001
130.54427 -51.07563 1.1496
130.59419 -51.078209 1.1496
130.64413 -51.080788 1.1504
130.69406 -51.083366 1.1375999
130.744 -51.085938 1.1432
130.79393 -51.088516 1.1544
130.84387 -51.091095 1.1592
130.8938 -51.093674 1.1584001
130.94374 -51.096245 1.148
130.99367 -51.098824 1.1528
131.04359 -51.101402 1.1584001
131.09354 -51.103973 1.1592
131.14346 -51.106552 1.1312
131.19341 -51.109131 1.036
131.24333 -51.11171 1.0848
131.29327 -51.114281 0.9752
131.3432 -51.116859 0.97600001
131.39314 -51.119438 0.9824
131.44307 -51.122009 0.97439998
131.493 -51.124588 0.97119999
131.54294 -51.127167 0.97359997
131.59286 -51.129745 0.97119999
131.64281 -51.132317 0.97119999
131.69273 -51.134895 0.97359997
131.74268 -51.137474 0.972
131.7926 -51.140053 0.972
131.84254 -51.142624 0.97280002
131.89247 -51.145203 0.96240002
131.94241 -51.147781 0.96640003
131.99234 -51.150352 0.97119999
132.04227 -51.152931 0.96719998
132.09221 -51.15551 0.96560001
132.14214 -51.158089 0.972
132.19208 -51.16066 0.96880001
132.242 -51.163239 0.9648
132.29195 -51.165817 0.96399999
132.34187 -51.168396 0.96640003
132.39182 -51.170967 0.96399999
132.44174 -51.173546 0.93599999
132.49167 -51.176125 0.94559997
132.54161 -51.178696 0.94480002
132.59154 -51.181274 0.95200002
132.64148 -51.183853 0.95039999
132.69141 -51.186432 0.95120001
132.74135 -51.189003 0.94959998
132.79128 -51.191582 0.94480002
132.84122 -51.19416 0.97359997
132.89114 -51.196739 0.96799999
132.94107 -51.19931 0.97680002
132.99101 -51.201889 0.95120001
133.04094 -51.204468 0.9576
133.09088 -51.207039 0.94959998
133.14081 -51.209618 0.95520002
133.19075 -51.212196 0.95120001
133.24068 -51.214775 0.95359999
133.29062 -51.217346 0.95359999
133.34055 -51.219925 0.96079999
133.39047 -51.222504 0.96240002
133.44041 -51.225082 0.95520002
133.49034 -51.227654 0.96240002
133.54028 -51.230232 0.94559997
133.59021 -51.232811 0.95279998
133.64015 -51.235382 0.95200002
133.69008 -51.237961 0.94880003
133.74002 -51.24054 0.95200002
133.78995 -51.243118 0.95120001
133.83987 -51.245689 0.95120001
133.88982 -51.248268 0.94319999
133.93974 -51.250847 0.94880003
133.98969 -51.253426 0.94959998
134.03961 -51.255997 0.95599997
134.08955 -51.258575 0.94639999
134.13948 -51.261154 0.95599997
134.18942 -51.263725 0.94959998
134.23935 -51.266304 0.9472
134.28928 -51.268883 0.94400001
134.33922 -51.271461 0.94880003
134.38914 -51.274033 0.94880003
134.43909 -51.276611 0.95039999
134.48901 -51.27919 0.95200002
134.53896 -51.281769 0.9544
134.58888 -51.28434 0.94880003
134.63882 -51.286919 0.94880003
134.68875 -51.289497 0.94559997
134.73868 -51.292068 0.94639999
134.78862 -51.294647 0.95200002
134.83855 -51.297226 0.94800001
134.88849 -51.299805 0.94480002
134.93842 -51.302376 0.94800001
134.98836 -51.304955 0.94959998
135.03828 -51.307533 0.94639999
135.08823 -51.310112 0.94959998
135.13815 -51.312683 0.9472
