# .PCD v0.7 - Point Cloud Data file format
VERSION 0.7
FIELDS x y z
SIZE 4 4 4
TYPE F F F
COUNT 1 1 1
WIDTH 1572
HEIGHT 1
VIEWPOINT 0 0 0 1 0 0 0
POINTS 1572
DATA ascii
64.755035 -61.747208 -0.35519999
64.759499 -61.797009 -0.49360001
64.763962 -61.846809 -0.64399999
64.368477 -59.673428 -1.48
64.37294 -59.723228 -1.4895999
64.377396 -59.773029 -0.2464
64.381859 -59.82283 0.092
64.386322 -59.872631 0.132
64.390785 -59.922428 0.18080001
64.395241 -59.972233 0.2216
64.399704 -60.02203 0.24959999
64.404167 -60.071835 0.28799999
64.408623 -60.121632 0.3136
64.413086 -60.171432 0.32159999
64.417549 -60.221233 0.30880001
64.422005 -60.271034 0.3064
64.426468 -60.320835 0.32319999
64.430931 -60.370636 0.29440001
64.435394 -60.420437 0.30239999
64.43985 -60.470238 0.2976
64.444313 -60.520039 0.2832
64.448776 -60.569836 0.2872
64.453232 -60.61964 0.292
64.457695 -60.669437 0.26159999
64.462158 -60.719242 0.35679999
64.466614 -60.769039 0.74400002
64.471077 -60.818844 0.86879998
64.47554 -60.868641 0.87919998
64.479996 -60.918442 0.87840003
64.484459 -60.968243 0.87440002
64.488922 -61.018044 0.81760001
64.493385 -61.067844 0.77280003
64.497841 -61.117645 0.71920002
64.502304 -61.167446 0.67119998
64.506767 -61.217243 0.59759998
64.511223 -61.267048 0.54320002
64.515686 -61.316845 0.46799999
64.520149 -61.36665 0.4152
64.524605 -61.416447 0.33680001
64.529068 -61.466251 0.2536
64.533531 -61.516048 0.17120001
64.537987 -61.565853 0.098399997
64.54245 -61.61565 -0.0104
64.546913 -61.665451 -0.108
64.551376 -61.715252 -0.2112
64.555832 -61.765053 -0.3416
64.560295 -61.814854 -0.4984
64.066673 -58.545856 -1.4960001
64.071136 -58.595657 -1.484
64.160355 -59.591671 -1.484
64.16481 -59.641468 -1.4808
64.169273 -59.691269 -1.4848
64.173737 -59.74107 -1.4984
64.178192 -59.790871 -1.4976
64.182655 -59.840672 0.0832
64.187119 -59.890472 0.1344
64.191582 -59.940273 0.1416
64.196037 -59.990074 0.22239999
64.2005 -60.039875 0.27919999
64.204964 -60.089676 0.29840001
64.209419 -60.139477 0.31439999
64.213882 -60.189274 0.31439999
64.218346 -60.239079 0.30720001
64.222801 -60.288876 0.31279999
64.227264 -60.33868 0.30320001
64.231728 -60.388477 0.30000001
64.236191 -60.438278 0.29120001
64.240646 -60.488079 0.28560001
64.24511 -60.53788 0.2888
64.249573 -60.587681 0.28560001
64.254028 -60.637482 0.23999999
64.258492 -60.687283 0.2264
64.262955 -60.737083 0.34079999
64.26741 -60.786884 0.73839998
64.271873 -60.836685 0.86879998
64.276337 -60.886486 0.87760001
64.280792 -60.936283 0.88160002
64.285255 -60.986088 0.87440002
64.289719 -61.035885 0.81760001
64.294182 -61.08569 0.77520001
64.298637 -61.135487 0.72719997
64.303101 -61.185287 0.65920001
64.307564 -61.235088 0.5984
64.312019 -61.284889 0.53600001
64.316483 -61.33469 0.472
64.320946 -61.384491 0.40799999
64.325401 -61.434292 0.33360001
64.329865 -61.484093 0.25119999
64.334328 -61.533894 0.17839999
64.338783 -61.583694 0.092
64.343246 -61.633495 0.0016
64.34771 -61.683292 -0.104
64.352173 -61.733097 -0.212
64.356628 -61.782894 -0.33840001
64.361092 -61.832699 -0.47679999
63.86747 -58.563702 -1.4967999
63.871933 -58.613503 -1.4967999
63.876389 -58.6633 -1.5008
63.880852 -58.7131 -1.4952
63.885315 -58.762901 -1.4960001
63.889778 -58.812702 -1.5048
63.894234 -58.862503 -1.4984
63.898697 -58.912304 -1.5064
63.90316 -58.962105 -1.5104001
63.907616 -59.011906 -1.508
63.912079 -59.061707 -1.5016
63.916542 -59.111507 -1.508
63.920998 -59.161308 -1.5039999
63.925461 -59.211109 -1.484
63.929924 -59.26091 -1.492
63.934387 -59.310707 -1.5
63.938843 -59.360512 -1.488
63.943306 -59.410309 -1.4912
63.947769 -59.46011 -1.4960001
63.952225 -59.509911 -1.4864
63.956688 -59.559711 -1.492
63.961151 -59.609512 -1.4848
63.965607 -59.659313 -1.4936
63.97007 -59.709114 -1.492
63.974533 -59.758915 -1.492
63.978989 -59.808716 0.072800003
63.983452 -59.858517 0.090400003
63.987915 -59.908318 0.1472
63.992378 -59.958115 0.1904
63.996834 -60.007919 0.2192
64.001297 -60.057716 0.25279999
64.00576 -60.107521 0.2744
64.010216 -60.157318 0.28080001
64.014679 -60.207119 0.28240001
64.019142 -60.25692 0.3048
64.023598 -60.306721 0.3168
64.028061 -60.356522 0.30160001
64.032524 -60.406322 0.32640001
64.036987 -60.456123 0.30880001
64.041443 -60.505924 0.2976
64.045906 -60.555725 0.29280001
64.050369 -60.605526 0.28560001
64.054825 -60.655327 0.15279999
64.059288 -60.705124 0.13519999
64.063751 -60.754929 0.54320002
64.068207 -60.804726 0.73680001
64.07267 -60.85453 0.8488
64.077133 -60.904327 0.88080001
64.081589 -60.954128 0.87760001
64.086052 -61.003929 0.8768
64.090515 -61.05373 0.8136
64.094978 -61.103531 0.76319999
64.099434 -61.153332 0.72320002
64.103897 -61.203133 0.66000003
64.10836 -61.252934 0.59759998
64.112816 -61.302734 0.54000002
64.117279 -61.352535 0.47679999
64.121742 -61.402336 0.40560001
64.126198 -61.452133 0.33759999
64.130661 -61.501938 0.2624
64.135124 -61.551735 0.17200001
64.13958 -61.60154 0.092
64.144043 -61.651337 0.0136
64.148506 -61.701138 -0.104
64.152969 -61.750938 -0.2024
64.157425 -61.800739 -0.32640001
64.161888 -61.85054 -0.4576
64.166351 -61.900341 -0.60320002
64.170807 -61.950142 -0.8136
63.735191 -59.328552 -1.484
63.739647 -59.378353 -1.4832
63.74411 -59.428154 -1.508
63.748573 -59.477955 -1.492
63.753029 -59.527756 -1.4895999
63.757492 -59.577557 -1.4888
63.761955 -59.627357 -1.4904
63.766411 -59.677158 -1.4992
63.770874 -59.726955 -1.4895999
63.775337 -59.77676 -1.4904
63.779793 -59.826557 0.0112
63.784256 -59.876362 0.084799998
63.788719 -59.926159 0.148
63.793182 -59.97596 0.1912
63.797638 -60.025761 0.23119999
63.802101 -60.075562 0.264
63.806564 -60.125362 0.2888
63.81102 -60.175163 0.2888
63.815483 -60.224964 0.2888
63.819946 -60.274765 0.296
63.824402 -60.324566 0.32319999
63.828865 -60.374367 0.33360001
63.833328 -60.424168 0.296
63.837784 -60.473965 0.296
63.842247 -60.523769 0.2872
63.84671 -60.573566 0.27599999
63.851173 -60.623367 0.25999999
63.855629 -60.673168 0.156
63.860092 -60.722969 0.1312
63.864555 -60.77277 0.148
63.869011 -60.822571 0.73360002
63.873474 -60.872372 0.87279999
63.877937 -60.922173 0.87840003
63.882393 -60.971973 0.884
63.886856 -61.021774 0.87279999
63.891319 -61.071575 0.8168
63.895782 -61.121376 0.77280003
63.900238 -61.171177 0.7216
63.904701 -61.220974 0.66000003
63.909164 -61.270775 0.60079998
63.91362 -61.320576 0.5424
63.918083 -61.370377 0.4824
63.922546 -61.420177 0.4016
63.927002 -61.469978 0.32960001
63.931465 -61.519779 0.26640001
63.935928 -61.56958 0.1832
63.940384 -61.619381 0.092799999
63.944847 -61.669182 0.0088
63.94931 -61.718983 -0.093599997
63.953773 -61.768784 -0.2112
63.958229 -61.818584 -0.324
63.962692 -61.868385 -0.46239999
63.967155 -61.918186 -0.58880001
63.576134 -59.794601 -1.4928
63.580589 -59.844402 0.1024
63.585052 -59.894203 0.20559999
63.589516 -59.944004 0.1472
63.593979 -59.993801 0.16
63.598434 -60.043606 0.19599999
63.602898 -60.093403 0.22480001
63.607361 -60.143208 0.2456
63.611816 -60.193005 0.28080001
63.61628 -60.242805 0.27759999
63.620743 -60.292606 0.34959999
63.625198 -60.342407 0.30399999
63.629662 -60.392208 0.3048
63.634125 -60.442009 0.2728
63.63858 -60.49181 0.28400001
63.643044 -60.541611 0.27520001
63.647507 -60.591412 0.2728
63.65197 -60.641209 0.2608
63.656425 -60.691013 0.27759999
63.660889 -60.74081 0.13600001
63.665352 -60.790615 0.14
63.669807 -60.840412 0.74159998
63.674271 -60.890217 0.82639998
63.678734 -60.940014 0.88080001
63.683189 -60.989815 0.884
63.687653 -61.039616 0.8768
63.692116 -61.089417 0.82160002
63.696579 -61.139217 0.76480001
63.701035 -61.189018 0.71600002
63.705498 -61.238819 0.66799998
63.709961 -61.288616 0.60320002
63.714417 -61.338421 0.5456
63.71888 -61.388218 0.48800001
63.723343 -61.438023 0.40799999
63.727798 -61.48782 0.33360001
63.732262 -61.537624 0.27200001
63.736725 -61.587421 0.18880001
63.74118 -61.637226 0.1
63.745644 -61.687023 0.0104
63.750107 -61.736824 -0.092
63.75457 -61.786625 -0.1944
63.759026 -61.836426 -0.31600001
63.763489 -61.886227 -0.456
63.767952 -61.936028 -0.60960001
63.385849 -59.912048 0.0744
63.390312 -59.961845 0.1336
63.394775 -60.011646 0.1408
63.399231 -60.061447 0.1928
63.403694 -60.111248 0.23199999
63.408157 -60.161049 0.25839999
63.412613 -60.21085 0.44
63.417076 -60.260651 0.30160001
63.421539 -60.310452 0.30239999
63.425995 -60.360252 0.29280001
63.430458 -60.410053 0.29840001
63.434921 -60.459854 0.30239999
63.439377 -60.509651 0.32960001
63.44384 -60.559456 0.2728
63.448303 -60.609253 0.26640001
63.452766 -60.659054 0.25760001
63.457222 -60.708855 0.25999999
63.461685 -60.758656 0.2696
63.466148 -60.808456 0.41999999
63.470604 -60.858257 0.736
63.475067 -60.908058 0.83679998
63.47953 -60.957859 0.88080001
63.483986 -61.00766 0.87519997
63.488449 -61.057461 0.8768
63.492912 -61.107262 0.83039999
63.497375 -61.157063 0.77280003
63.501831 -61.206863 0.71200001
63.506294 -61.25666 0.6688
63.510757 -61.306461 0.60879999
63.515213 -61.356262 0.54400003
63.519676 -61.406063 0.484
63.524139 -61.455864 0.412
63.528595 -61.505665 0.352
63.533058 -61.555466 0.26480001
63.537521 -61.605267 0.1864
63.541977 -61.655067 0.1104
63.54644 -61.704868 0.0080000004
63.550903 -61.754669 -0.096000001
63.555367 -61.80447 -0.2096
63.559822 -61.854271 -0.3136
63.564285 -61.904072 -0.44080001
63.568748 -61.953873 -0.61760002
63.182182 -59.880089 0.0104
63.186646 -59.92989 0.0832
63.191109 -59.979691 0.1328
63.195572 -60.029488 0.16
63.200027 -60.079292 0.18799999
63.204491 -60.129089 0.2344
63.208954 -60.178894 0.2816
63.213409 -60.228691 0.292
63.217873 -60.278492 0.2904
63.222336 -60.328293 0.29280001
63.226791 -60.378094 0.2872
63.231255 -60.427895 0.28
63.235718 -60.477695 0.28400001
63.240173 -60.527496 0.28400001
63.244637 -60.577297 0.31200001
63.2491 -60.627098 0.28799999
63.253563 -60.676899 0.26480001
63.258018 -60.7267 0.25839999
63.262482 -60.776497 0.25600001
63.266945 -60.826302 0.3184
63.2714 -60.876099 0.73280001
63.275864 -60.925903 0.84560001
63.280327 -60.9757 0.88239998
63.284782 -61.025501 0.87840003
63.289246 -61.075302 0.87440002
63.293709 -61.125103 0.81999999
63.298172 -61.174904 0.78079998
63.302628 -61.224705 0.72799999
63.307091 -61.274506 0.66960001
63.311554 -61.324306 0.60000002
63.31601 -61.374107 0.53920001
63.320473 -61.423908 0.49520001
63.324936 -61.473709 0.42480001
63.329391 -61.523506 0.33759999
63.333855 -61.573311 0.27360001
63.338318 -61.623108 0.19760001
63.342773 -61.672913 0.1064
63.347237 -61.72271 0.0080000004
63.3517 -61.772511 -0.0792
63.356163 -61.822311 -0.2008
63.360619 -61.872112 -0.29359999
63.365082 -61.921913 -0.45519999
63.369545 -61.971714 -0.60320002
62.987442 -59.947735 0.062399998
62.991905 -59.997532 0.1312
62.996368 -60.047333 0.14560001
63.000824 -60.097134 0.1592
63.005287 -60.146935 0.22
63.00975 -60.196735 0.24160001
63.014206 -60.246536 0.2552
63.018669 -60.296337 0.28479999
63.023132 -60.346138 0.28799999
63.027588 -60.395939 0.28560001
63.032051 -60.44574 0.3504
63.036514 -60.495541 0.3696
63.04097 -60.545338 0.35600001
63.045433 -60.595142 0.3256
63.049896 -60.644939 0.32960001
63.054359 -60.694744 0.2728
63.058815 -60.744541 0.2712
63.063278 -60.794342 0.2624
63.067741 -60.844143 0.32960001
63.072197 -60.893944 0.736
63.07666 -60.943745 0.8168
63.081123 -60.993546 0.87840003
63.085579 -61.043346 0.88239998
63.090042 -61.093147 0.87840003
63.094505 -61.142948 0.82880002
63.098969 -61.192749 0.77200001
63.103424 -61.24255 0.71759999
63.107887 -61.292347 0.6728
63.11235 -61.342152 0.6056
63.116806 -61.391949 0.55919999
63.121269 -61.441753 0.484
63.125732 -61.49155 0.42879999
63.130188 -61.541351 0.336
63.134651 -61.591152 0.2744
63.139114 -61.640953 0.1928
63.14357 -61.690754 0.1
63.148033 -61.740555 0.019200001
63.152496 -61.790356 -0.079999998
63.15696 -61.840157 -0.1856
63.161415 -61.889957 -0.30880001
63.165878 -61.939758 -0.4384
63.170341 -61.989559 -0.58560002
63.174797 -62.039356 -0.76880002
62.783775 -59.915775 -0.32800001
62.788239 -59.96558 0.30000001
62.792702 -60.015377 0.12720001
62.797165 -60.065174 0.152
62.80162 -60.114979 0.1736
62.806084 -60.164776 0.20720001
62.810547 -60.214581 0.24079999
62.815002 -60.264378 0.26480001
62.819466 -60.314182 0.30000001
62.823929 -60.363979 0.30880001
62.828384 -60.413784 0.3064
62.832848 -60.463581 0.3136
62.837311 -60.513386 0.33199999
62.841766 -60.563183 0.34799999
62.84623 -60.612988 0.2976
62.850693 -60.662785 0.3224
62.855156 -60.712585 0.2992
62.859612 -60.762386 0.27360001
62.864075 -60.812183 0.25839999
62.868538 -60.861988 0.31439999
62.872993 -60.911785 0.73760003
62.877457 -60.96159 0.83039999
62.88192 -61.011387 0.8768
62.886375 -61.061192 0.87919998
62.890839 -61.110989 0.87840003
62.895302 -61.160793 0.82800001
62.899765 -61.21059 0.7712
62.904221 -61.260395 0.72240001
62.908684 -61.310192 0.67519999
62.913147 -61.359993 0.60640001
62.917603 -61.409794 0.56160003
62.922066 -61.459595 0.49360001
62.926529 -61.509396 0.41679999
62.930984 -61.559193 0.35440001
62.935448 -61.608997 0.2712
62.939911 -61.658794 0.2024
62.944366 -61.708599 0.1176
62.94883 -61.758396 0.031199999
62.953293 -61.808201 -0.088799998
62.957756 -61.857998 -0.1864
62.962212 -61.907803 -0.3048
62.966675 -61.9576 -0.4224
62.971138 -62.007404 -0.56959999
62.589043 -59.983421 0.56160003
62.593506 -60.033222 0.12639999
62.597969 -60.083019 0.1592
62.602425 -60.132824 0.1824
62.606888 -60.182621 0.20720001
62.611351 -60.232426 0.228
62.615807 -60.282223 0.244
62.62027 -60.332024 0.26320001
62.624733 -60.381824 0.30559999
62.629189 -60.431625 0.3432
62.633652 -60.481426 0.32080001
62.638115 -60.531227 0.29280001
62.642578 -60.581028 0.27520001
62.647034 -60.630829 0.27680001
62.651497 -60.68063 0.29840001
62.65596 -60.730427 0.34720001
62.660416 -60.780231 0.31040001
62.664879 -60.830029 0.1992
62.669342 -60.879833 0.2208
62.673798 -60.92963 0.74159998
62.678261 -60.979435 0.84399998
62.682724 -61.029232 0.87279999
62.68718 -61.079033 0.8768
62.691643 -61.128834 0.87840003
62.696106 -61.178635 0.83679998
62.700569 -61.228436 0.77999997
62.705025 -61.278236 0.72479999
62.709488 -61.328037 0.67040002
62.713951 -61.377834 0.62
62.718407 -61.427639 0.54960001
62.72287 -61.477436 0.48719999
62.727333 -61.527241 0.43439999
62.731789 -61.577038 0.35600001
62.736252 -61.626842 0.27919999
62.740715 -61.67664 0.1992
62.745171 -61.726444 0.1176
62.749634 -61.776241 0.0055999998
62.754097 -61.826042 -0.075199999
62.75856 -61.875843 -0.18799999
62.763016 -61.925644 -0.3064
62.767479 -61.975445 -0.43920001
62.771942 -62.025246 -0.588
62.389832 -60.001263 0.068800002
62.394295 -60.051064 0.1488
62.398758 -60.100864 0.1408
62.403214 -60.150665 0.1464
62.407677 -60.200466 0.1432
62.41214 -60.250267 0.1496
62.416595 -60.300068 0.18960001
62.421059 -60.349865 0.2872
62.425522 -60.39967 0.3328
62.429977 -60.449467 0.34
62.434441 -60.499271 0.31200001
62.438904 -60.549068 0.29519999
62.443359 -60.598869 0.28240001
62.447823 -60.64867 0.29679999
62.452286 -60.698471 0.296
62.456749 -60.748272 0.33039999
62.461205 -60.798073 0.28479999
62.465668 -60.847874 0.25839999
62.470131 -60.897675 0.252
62.474586 -60.947475 0.73839998
62.47905 -60.997276 0.8136
62.483513 -61.047077 0.87760001
62.487968 -61.096874 0.87760001
62.492432 -61.146679 0.8696
62.496895 -61.196476 0.83520001
62.501358 -61.246281 0.7744
62.505814 -61.296078 0.73040003
62.510277 -61.345879 0.67760003
62.51474 -61.395679 0.61199999
62.519196 -61.44548 0.56800002
62.523659 -61.495281 0.4912
62.528122 -61.545082 0.42160001
62.532578 -61.594883 0.3488
62.537041 -61.644684 0.28639999
62.541504 -61.694485 0.19679999
62.545959 -61.744286 0.1136
62.550423 -61.794086 0.016000001
62.554886 -61.843884 -0.0744
62.559349 -61.893688 -0.1928
62.563805 -61.943485 -0.2784
62.568268 -61.99329 -0.45840001
62.572731 -62.043087 -0.57440001
62.577187 -62.092888 -0.7568
62.190636 -60.019108 0.0792
62.195099 -60.068905 0.1256
62.199562 -60.118706 0.1256
62.204018 -60.168507 0.13600001
62.208481 -60.218307 0.38800001
62.212944 -60.268108 0.40079999
62.2174 -60.317909 0.39120001
62.221863 -60.36771 0.368
62.226326 -60.417511 0.34079999
62.230782 -60.467312 0.32879999
62.235245 -60.517113 0.29519999
62.239708 -60.566914 0.2888
62.244171 -60.616711 0.2992
62.248627 -60.666515 0.3184
62.25309 -60.716312 0.31999999
62.257553 -60.766117 0.33520001
62.262009 -60.815914 0.29440001
62.266472 -60.865715 0.30559999
62.270935 -60.915516 0.29840001
62.275391 -60.965317 0.74239999
62.279854 -61.015118 0.8344
62.284317 -61.064919 0.87199998
62.288773 -61.114719 0.88080001
62.293236 -61.16452 0.8768
62.297699 -61.214321 0.84799999
62.302162 -61.264122 0.77600002
62.306618 -61.313923 0.73519999
62.311081 -61.36372 0.67360002
62.315544 -61.413525 0.60799998
62.32 -61.463322 0.55760002
62.324463 -61.513126 0.4928
62.328926 -61.562923 0.42640001
62.333382 -61.612724 0.3664
62.337845 -61.662525 0.27919999
62.342308 -61.712326 0.20479999
62.346764 -61.762127 0.1128
62.351227 -61.811928 0.021600001
62.35569 -61.861729 -0.079999998
62.360153 -61.91153 -0.1816
62.364609 -61.96133 -0.3008
62.369072 -62.011131 -0.43360001
62.373535 -62.060932 -0.56080002
62.377991 -62.110729 -0.77999997
61.991425 -60.036953 0.2448
61.995888 -60.08675 0.32800001
62.000351 -60.136551 0.36160001
62.004807 -60.186352 0.39039999
62.00927 -60.236153 0.4208
62.013733 -60.285954 0.40560001
62.018188 -60.335754 0.36719999
62.022652 -60.385555 0.3328
62.027115 -60.435356 0.3312
62.03157 -60.485157 0.28960001
62.036034 -60.534958 0.29280001
62.040497 -60.584759 0.29440001
62.044952 -60.634556 0.31119999
62.049416 -60.684361 0.29440001
62.053879 -60.734158 0.29840001
62.058342 -60.783958 0.30239999
62.062798 -60.833759 0.32480001
62.067261 -60.88356 0.25760001
62.071724 -60.933361 0.3184
62.07618 -60.983162 0.7288
62.080643 -61.032963 0.76319999
62.085106 -61.082764 0.87440002
62.089561 -61.132565 0.88
62.094025 -61.182365 0.88480002
62.098488 -61.232166 0.8344
62.102951 -61.281967 0.78799999
62.107407 -61.331768 0.74400002
62.11187 -61.381565 0.67199999
62.116333 -61.431366 0.62639999
62.120789 -61.481167 0.57120001
62.125252 -61.530968 0.49759999
62.129715 -61.580769 0.43599999
62.134171 -61.630569 0.3608
62.138634 -61.68037 0.29120001
62.143097 -61.730171 0.208
62.147552 -61.779972 0.1256
62.152016 -61.829773 0.0288
62.156479 -61.879574 -0.064000003
62.160942 -61.929375 -0.168
62.165398 -61.979176 -0.2872
62.169861 -62.028976 -0.42320001
62.174324 -62.078777 -0.58960003
62.17878 -62.128574 -0.7432
61.792229 -60.054794 0.20559999
61.796692 -60.104595 0.31279999
61.801155 -60.154392 0.32480001
61.805611 -60.204197 0.3152
61.810074 -60.253994 0.30160001
61.814537 -60.303799 0.30000001
61.818993 -60.353596 0.30559999
61.823456 -60.403397 0.31439999
61.827919 -60.453197 0.30880001
61.832375 -60.502998 0.3152
61.836838 -60.552799 0.32879999
61.841301 -60.6026 0.33759999
61.845764 -60.652401 0.3328
61.85022 -60.702202 0.324
61.854683 -60.752003 0.3272
61.859146 -60.801804 0.33039999
61.863602 -60.851604 0.32159999
61.868065 -60.901402 0.156
61.872528 -60.951206 0.15360001
61.876984 -61.001003 0.73199999
61.881447 -61.050808 0.75199997
61.88591 -61.100605 0.88160002
61.890366 -61.150406 0.88080001
61.894829 -61.200207 0.87919998
61.899292 -61.250008 0.84079999
61.903755 -61.299809 0.7816
61.908211 -61.349609 0.73519999
61.912674 -61.39941 0.68000001
61.917137 -61.449211 0.62239999
61.921593 -61.499012 0.57520002
61.926056 -61.548813 0.49759999
61.930519 -61.598614 0.4488
61.934975 -61.648411 0.36320001
61.939438 -61.698215 0.29280001
61.943901 -61.748013 0.212
61.948357 -61.797817 0.1208
61.95282 -61.847614 0.047200002
61.957283 -61.897415 -0.0704
61.961746 -61.947216 -0.1688
61.966202 -61.997017 -0.27759999
61.970665 -62.046818 -0.4104
61.597488 -60.122437 0.2832
61.601952 -60.172237 0.30000001
61.606407 -60.222038 0.30000001
61.61087 -60.271839 0.30000001
61.615334 -60.32164 0.32159999
61.619789 -60.371441 0.3256
61.624252 -60.421242 0.32640001
61.628716 -60.471043 0.3272
61.633171 -60.520844 0.32480001
61.637634 -60.570644 0.31119999
61.642097 -60.620445 0.38319999
61.646561 -60.670242 0.3328
61.651016 -60.720047 0.30239999
61.655479 -60.769844 0.3184
61.659943 -60.819645 0.32159999
61.664398 -60.869446 0.1648
61.668861 -60.919247 0.15279999
61.673325 -60.969048 0.1408
61.67778 -61.018848 0.1376
61.682243 -61.068649 0.76480001
61.686707 -61.11845 0.87199998
61.691162 -61.168251 0.88080001
61.695625 -61.218052 0.88319999
61.700089 -61.267853 0.8344
61.704552 -61.317654 0.78399998
61.709007 -61.367455 0.7288
61.71347 -61.417252 0.67919999
61.717934 -61.467052 0.61839998
61.722389 -61.516853 0.56160003
61.726852 -61.566654 0.49439999
61.731316 -61.616455 0.44639999
61.735771 -61.666256 0.36000001
61.740234 -61.716057 0.2904
61.744698 -61.765858 0.21600001
61.749153 -61.815659 0.1304
61.753616 -61.865459 0.028000001
61.75808 -61.91526 -0.064000003
61.762543 -61.965061 -0.17120001
61.766998 -62.014862 -0.27599999
61.771461 -62.064663 -0.4368
61.775925 -62.114464 -0.59200001
61.78038 -62.164261 -0.73199999
61.393822 -60.090481 0.28080001
61.398285 -60.140282 0.29359999
61.402748 -60.190079 0.2888
61.407204 -60.239883 0.2976
61.411667 -60.28968 0.3096
61.41613 -60.339485 0.31439999
61.420586 -60.389282 0.30160001
61.425049 -60.439083 0.31439999
61.429512 -60.488884 0.31760001
61.433968 -60.538685 0.32159999
61.438431 -60.588486 0.32080001
61.442894 -60.638287 0.3168
61.447357 -60.688087 0.32480001
61.451813 -60.737888 0.31200001
61.456276 -60.787689 0.33520001
61.460739 -60.83749 0.2904
61.465195 -60.887291 0.1512
61.469658 -60.937088 0.1504
61.474121 -60.986893 0.1424
61.478577 -61.03669 0.1224
61.48304 -61.086494 0.76719999
61.487503 -61.136292 0.87840003
61.491959 -61.186092 0.88080001
61.496422 -61.235893 0.87919998
61.500885 -61.285694 0.84240001
61.505348 -61.335495 0.78640002
61.509804 -61.385296 0.73680001
61.514267 -61.435097 0.67760003
61.51873 -61.484898 0.61919999
61.523186 -61.534698 0.5704
61.527649 -61.584499 0.50319999
61.532112 -61.6343 0.43279999
61.536568 -61.684097 0.3608
61.541031 -61.733902 0.29840001
61.545494 -61.783699 0.2112
61.54995 -61.833504 0.132
61.554413 -61.883301 0.039999999
61.558876 -61.933102 -0.062399998
61.563339 -61.982903 -0.1648
61.567795 -62.032703 -0.2832
61.572258 -62.082504 -0.41679999
61.576721 -62.132305 -0.55440003
61.581177 -62.182106 -0.73199999
61.194618 -60.108326 0.2712
61.199081 -60.158123 0.2992
61.203545 -60.207924 0.3048
61.208 -60.257725 0.30239999
61.212463 -60.307526 0.30000001
61.216927 -60.357327 0.292
61.221382 -60.407127 0.3008
61.225845 -60.456928 0.31439999
61.230309 -60.506729 0.31760001
61.234764 -60.55653 0.3184
61.239227 -60.606331 0.33039999
61.24369 -60.656132 0.32480001
61.248154 -60.705929 0.32800001
61.252609 -60.755733 0.3344
61.257072 -60.805531 0.33680001
61.261536 -60.855331 0.28400001
61.265991 -60.905132 0.15360001
61.270454 -60.954933 0.1488
61.274918 -61.004734 0.148
61.279373 -61.054535 0.132
61.283836 -61.104336 0.77280003
61.2883 -61.154137 0.87840003
61.292755 -61.203938 0.88080001
61.297218 -61.253738 0.88480002
61.301682 -61.303539 0.86080003
61.306145 -61.35334 0.78799999
61.3106 -61.403141 0.74000001
61.315063 -61.452938 0.68480003
61.319527 -61.502739 0.62480003
61.323982 -61.55254 0.56559998
61.328445 -61.602341 0.50639999
61.332909 -61.652142 0.44400001
61.337364 -61.701942 0.37279999
61.341827 -61.751743 0.28799999
61.346291 -61.801544 0.2104
61.350746 -61.851345 0.1464
61.355209 -61.901146 0.044799998
61.359673 -61.950947 -0.045600001
61.364136 -62.000748 -0.1648
61.368591 -62.050549 -0.26640001
61.373055 -62.100349 -0.40000001
61.377518 -62.15015 -0.5248
61.381973 -62.199947 -0.69440001
60.995415 -60.126171 0.2344
60.999878 -60.175968 0.30239999
61.004341 -60.225765 0.3048
61.008797 -60.27557 0.31600001
61.01326 -60.325367 0.30320001
61.017723 -60.375172 0.308
61.022179 -60.424969 0.3168
61.026642 -60.474773 0.32960001
61.031105 -60.52457 0.32960001
61.035561 -60.574375 0.31999999
61.040024 -60.624172 0.31760001
61.044487 -60.673977 0.33680001
61.04895 -60.723774 0.33759999
61.053406 -60.773579 0.33199999
61.057869 -60.823376 0.3328
61.062332 -60.873177 0.35519999
61.066788 -60.922977 0.22319999
61.071251 -60.972775 0.1432
61.075714 -61.022579 0.1648
61.08017 -61.072376 0.1296
61.084633 -61.122181 0.74959999
61.089096 -61.171978 0.86479998
61.093552 -61.221783 0.87760001
61.098015 -61.27158 0.87760001
61.102478 -61.321384 0.85759997
61.106941 -61.371181 0.7816
61.111397 -61.420986 0.7392
61.11586 -61.470783 0.6832
61.120323 -61.520584 0.6408
61.124779 -61.570385 0.56400001
61.129242 -61.620186 0.50400001
61.133705 -61.669987 0.44800001
61.138161 -61.719784 0.36719999
61.142624 -61.769588 0.30320001
61.147087 -61.819386 0.2304
61.151543 -61.86919 0.1416
61.156006 -61.918987 0.042399999
61.160469 -61.968792 -0.051199999
61.164932 -62.018589 -0.164
61.169388 -62.068394 -0.26159999
61.173851 -62.118191 -0.41679999
61.178314 -62.167995 -0.54799998
60.796219 -60.144012 0.25040001
60.800682 -60.193813 0.29120001
60.805145 -60.24361 0.3328
60.809601 -60.293415 0.34400001
60.814064 -60.343212 0.34959999
60.818527 -60.393017 0.34799999
60.822983 -60.442814 0.32800001
60.827446 -60.492615 0.32879999
60.831909 -60.542416 0.3184
60.836365 -60.592216 0.3096
60.840828 -60.642017 0.31600001
60.845291 -60.691818 0.31920001
60.849747 -60.741619 0.34
60.85421 -60.79142 0.35120001
60.858673 -60.841221 0.35280001
60.863136 -60.891018 0.3136
60.867592 -60.940823 0.3168
60.872055 -60.99062 0.1584
60.876518 -61.040424 0.45359999
60.880974 -61.090221 0.50239998
60.885437 -61.140026 0.74879998
60.8899 -61.189823 0.8768
60.894356 -61.239624 0.88080001
60.898819 -61.289425 0.87840003
60.903282 -61.339226 0.84719998
60.907745 -61.389027 0.78960001
60.912201 -61.438828 0.74080002
60.916664 -61.488628 0.68080002
60.921127 -61.538425 0.63200003
60.925583 -61.58823 0.56720001
60.930046 -61.638027 0.50639999
60.934509 -61.687832 0.44080001
60.938965 -61.737629 0.36559999
60.943428 -61.787434 0.308
60.947891 -61.837231 0.2296
60.952347 -61.887035 0.14560001
60.95681 -61.936832 0.039999999
60.961273 -61.986633 -0.047200002
60.965736 -62.036434 -0.16
60.970192 -62.086235 -0.2696
60.974655 -62.136036 -0.37360001
60.979118 -62.185837 -0.52880001
60.983574 -62.235638 -0.69919997
60.592552 -60.112053 0.308
60.597015 -60.161854 0.1512
60.601479 -60.211655 0.1856
60.605942 -60.261456 0.296
60.610397 -60.311256 0.32319999
60.614861 -60.361057 0.32480001
60.619324 -60.410858 0.3096
60.623779 -60.460659 0.3224
60.628242 -60.510456 0.31600001
60.632706 -60.560261 0.32080001
60.637161 -60.610058 0.324
60.641624 -60.659863 0.32879999
60.646088 -60.70966 0.31760001
60.650543 -60.75946 0.29280001
60.655006 -60.809261 0.32480001
60.65947 -60.859062 0.28400001
60.663933 -60.908863 0.25760001
60.668388 -60.958664 0.2624
60.672852 -61.008465 0.2832
60.677315 -61.058266 0.2568
60.68177 -61.108067 0.73360002
60.686234 -61.157867 0.74559999
60.690697 -61.207668 0.8768
60.695152 -61.257465 0.88160002
60.699615 -61.30727 0.87919998
60.704079 -61.357067 0.84399998
60.708542 -61.406872 0.79119998
60.712997 -61.456669 0.74400002
60.717461 -61.50647 0.68480003
60.721924 -61.556271 0.63520002
60.726379 -61.606071 0.57599998
60.730843 -61.655872 0.50319999
60.735306 -61.705673 0.44400001
60.739761 -61.755474 0.36399999
60.744225 -61.805275 0.29840001
60.748688 -61.855076 0.2208
60.753143 -61.904877 0.14480001
60.757607 -61.954678 0.053599998
60.76207 -62.004475 -0.048799999
60.766533 -62.054279 -0.1584
60.770988 -62.104076 -0.25839999
60.775452 -62.153881 -0.39919999
60.779915 -62.203678 -0.54799998
60.78437 -62.253479 -0.72719997
60.388893 -60.080097 0.228
60.393349 -60.129894 0.26879999
60.397812 -60.179699 0.28080001
60.402275 -60.229496 0.2
60.406738 -60.279297 0.30000001
60.411194 -60.329098 0.3136
60.415657 -60.378899 0.31279999
60.42012 -60.428699 0.31119999
60.424576 -60.4785 0.31600001
60.429039 -60.528301 0.32800001
60.433502 -60.578102 0.3008
60.437958 -60.627903 0.30880001
60.442421 -60.677704 0.2904
60.446884 -60.727505 0.31999999
60.45134 -60.777302 0.33360001
60.455803 -60.827106 0.32879999
60.460266 -60.876904 0.308
60.464729 -60.926708 0.2888
60.469185 -60.976505 0.23199999
60.473648 -61.026306 0.24959999
60.478111 -61.076107 0.25279999
60.482567 -61.125908 0.65200001
60.48703 -61.175709 0.74800003
60.491493 -61.22551 0.87440002
60.495949 -61.275311 0.8768
60.500412 -61.325111 0.8768
60.504875 -61.374912 0.83920002
60.509338 -61.424713 0.78640002
60.513794 -61.474514 0.74000001
60.518257 -61.524311 0.68239999
60.52272 -61.574116 0.63200003
60.527176 -61.623913 0.57520002
60.531639 -61.673717 0.52160001
60.536102 -61.723515 0.45039999
60.540558 -61.773315 0.37279999
60.545021 -61.823116 0.30559999
60.549484 -61.872917 0.2256
60.55394 -61.922718 0.15279999
60.558403 -61.972519 0.060800001
60.562866 -62.02232 -0.044
60.567329 -62.072121 -0.1392
60.571785 -62.121922 -0.2448
60.576248 -62.171722 -0.39359999
60.580711 -62.221523 -0.52319998
60.585167 -62.27132 -0.67839998
60.194145 -60.147739 0.29840001
60.198608 -60.197544 0.31119999
60.203072 -60.247341 0.3536
60.207535 -60.297138 0.34560001
60.21199 -60.346943 0.3256
60.216454 -60.39674 0.31040001
60.220917 -60.446545 0.3096
60.225372 -60.496342 0.324
60.229836 -60.546146 0.32800001
60.234299 -60.595943 0.3184
60.238754 -60.645748 0.2992
60.243217 -60.695545 0.3064
60.247681 -60.74535 0.30239999
60.252136 -60.795147 0.33360001
60.256599 -60.844952 0.3272
60.261063 -60.894749 0.3064
60.265526 -60.94455 0.33039999
60.269981 -60.99435 0.2728
60.274445 -61.044147 0.26480001
60.278908 -61.093952 0.34639999
60.283363 -61.143749 0.38960001
60.287827 -61.193554 0.74400002
60.29229 -61.243351 0.87519997
60.296745 -61.293156 0.87840003
60.301208 -61.342953 0.88080001
60.305672 -61.392757 0.85839999
60.310135 -61.442554 0.79839998
60.31459 -61.492359 0.74400002
60.319054 -61.542156 0.69760001
60.323517 -61.591957 0.63279998
60.327972 -61.641758 0.57359999
60.332436 -61.691559 0.5104
60.336899 -61.74136 0.44479999
60.341354 -61.791157 0.3856
60.345818 -61.840961 0.3256
60.350281 -61.890759 0.2272
60.354736 -61.940563 0.1568
60.3592 -61.99036 0.054400001
60.363663 -62.040165 -0.0352
60.368126 -62.089962 -0.1432
60.372581 -62.139767 -0.2608
60.377045 -62.189564 -0.384
60.381508 -62.239368 -0.50639999
60.385963 -62.289165 -0.68800002
60.003868 -60.265186 0.1664
60.008331 -60.314983 0.3184
60.012787 -60.364788 0.34799999
60.01725 -60.414585 0.31200001
60.021713 -60.46439 0.31279999
60.026169 -60.514187 0.3256
60.030632 -60.563988 0.3312
60.035095 -60.613789 0.31999999
60.039551 -60.663589 0.32960001
60.044014 -60.71339 0.31439999
60.048477 -60.763191 0.31999999
60.052933 -60.812992 0.3168
60.057396 -60.862793 0.29440001
60.061859 -60.912594 0.3064
60.066322 -60.962395 0.3008
60.070778 -61.012196 0.292
60.075241 -61.061993 0.2872
60.079704 -61.111797 0.2552
60.08416 -61.161594 0.53839999
60.088623 -61.211399 0.74159998
60.093086 -61.261196 0.87279999
60.097542 -61.310997 0.88160002
60.102005 -61.360798 0.87840003
60.106468 -61.410599 0.85360003
60.110931 -61.4604 0.80080003
60.115387 -61.510201 0.74400002
60.11985 -61.560001 0.68800002
60.124313 -61.609802 0.6408
60.128769 -61.659603 0.57840002
60.133232 -61.709404 0.51840001
60.137695 -61.759205 0.44400001
60.142151 -61.809002 0.38319999
60.146614 -61.858807 0.30160001
60.151077 -61.908604 0.2216
60.155533 -61.958408 0.1432
60.159996 -62.008205 0.043200001
60.164459 -62.058006 -0.034400001
60.168922 -62.107807 -0.1376
60.173378 -62.157608 -0.25600001
60.177841 -62.207409 -0.38960001
60.182304 -62.25721 -0.52240002
60.18676 -62.307011 -0.6688
59.804665 -60.283028 0.132
59.809128 -60.332829 0.31600001
59.813583 -60.382629 0.3064
59.818047 -60.43243 0.32159999
59.82251 -60.482231 0.33199999
59.826965 -60.532032 0.3448
59.831429 -60.581833 0.35120001
59.835892 -60.631634 0.32960001
59.840347 -60.681435 0.32159999
59.84481 -60.731236 0.3256
59.849274 -60.781036 0.33840001
59.853729 -60.830833 0.30320001
59.858192 -60.880638 0.29359999
59.862656 -60.930435 0.2816
59.867119 -60.980236 0.3048
59.871574 -61.030037 0.31760001
59.876038 -61.079838 0.29440001
59.880501 -61.129639 0.2728
59.884956 -61.17944 0.2744
59.88942 -61.22924 0.74559999
59.893883 -61.279041 0.87519997
59.898338 -61.328842 0.87760001
59.902802 -61.378643 0.88239998
59.907265 -61.428444 0.86000001
59.911728 -61.478245 0.80239999
59.916183 -61.528046 0.74800003
59.920647 -61.577843 0.69520003
59.92511 -61.627644 0.64639997
59.929565 -61.677444 0.57279998
59.934029 -61.727245 0.50639999
59.938492 -61.777046 0.45280001
59.942947 -61.826847 0.37360001
59.947411 -61.876648 0.3184
59.951874 -61.926449 0.2448
59.956329 -61.97625 0.156
59.960793 -62.026051 0.055199999
59.965256 -62.075851 -0.035999998
59.969719 -62.125652 -0.1288
59.974174 -62.175453 -0.2608
59.978638 -62.225254 -0.352
59.983101 -62.275055 -0.51920003
59.601006 -60.251072 0.124
59.605469 -60.300873 0.17839999
59.609932 -60.35067 0.29280001
59.614388 -60.400475 0.3136
59.618851 -60.450272 0.3136
59.623314 -60.500076 0.30559999
59.627769 -60.549873 0.30160001
59.632233 -60.599674 0.2904
59.636696 -60.649475 0.29440001
59.641151 -60.699276 0.29440001
59.645615 -60.749077 0.31920001
59.650078 -60.798878 0.31999999
59.654541 -60.848679 0.31279999
59.658997 -60.898479 0.292
59.66346 -60.94828 0.28639999
59.667923 -60.998081 0.30000001
59.672379 -61.047882 0.31279999
59.676842 -61.097679 0.30320001
59.681305 -61.147484 0.4648
59.68576 -61.197281 0.47119999
59.690224 -61.247086 0.75120002
59.694687 -61.296883 0.86720002
59.699142 -61.346684 0.87279999
59.703606 -61.396484 0.88080001
59.708069 -61.446285 0.852
59.712532 -61.496086 0.80479997
59.716988 -61.545887 0.75199997
59.721451 -61.595688 0.7008
59.725914 -61.645489 0.64719999
59.73037 -61.69529 0.5808
59.734833 -61.74509 0.51120001
59.739296 -61.794891 0.46079999
59.743752 -61.844688 0.38319999
59.748215 -61.894493 0.3152
59.752678 -61.94429 0.2376
59.757133 -61.994095 0.16320001
59.761597 -62.043892 0.059999999
59.76606 -62.093693 -0.0208
59.770523 -62.143494 -0.1328
59.774979 -62.193295 -0.23280001
59.779442 -62.243095 -0.368
59.783905 -62.292896 -0.50239998
59.788361 -62.342697 -0.676
59.792824 -62.392498 -0.84719998
59.797287 -62.442299 -1.1384
59.401794 -60.268917 0.079999998
59.406258 -60.318714 0.1608
59.410721 -60.368515 0.2904
59.415176 -60.418316 0.2976
59.41964 -60.468117 0.30399999
59.424103 -60.517918 0.29440001
59.428558 -60.567719 0.3504
59.433022 -60.617519 0.29440001
59.437485 -60.66732 0.31439999
59.44194 -60.717121 0.324
59.446404 -60.766922 0.3416
59.450867 -60.816723 0.31040001
59.455322 -60.86652 0.29840001
59.459785 -60.916325 0.2992
59.464249 -60.966122 0.292
59.468712 -61.015926 0.31439999
59.473167 -61.065723 0.2976
59.477631 -61.115524 0.29679999
59.482094 -61.165325 0.36480001
59.486549 -61.215126 0.61680001
59.491013 -61.264927 0.74400002
59.495476 -61.314728 0.86879998
59.499931 -61.364529 0.884
59.504395 -61.41433 0.88160002
59.508858 -61.46413 0.86159998
59.513321 -61.513931 0.80400002
59.517776 -61.563732 0.7568
59.52224 -61.613529 0.69520003
59.526703 -61.663334 0.64240003
59.531158 -61.713131 0.57599998
59.535622 -61.762936 0.51200002
59.540085 -61.812733 0.4456
59.54454 -61.862534 0.38960001
59.549004 -61.912334 0.3008
59.553467 -61.962135 0.236
59.557922 -62.011936 0.1552
59.562386 -62.061737 0.079999998
59.566849 -62.111538 -0.0184
59.571312 -62.161339 -0.1224
59.575768 -62.21114 -0.23199999
59.580231 -62.260941 -0.36160001
59.584694 -62.310741 -0.50880003
59.207062 -60.336559 0.168
59.211525 -60.386356 0.27520001
59.215981 -60.436161 0.29840001
59.220444 -60.485958 0.31200001
59.224907 -60.535763 0.31920001
59.229362 -60.58556 0.3168
59.233826 -60.635361 0.29359999
59.238289 -60.685162 0.42719999
59.242744 -60.734962 0.32480001
59.247208 -60.784763 0.31119999
59.251671 -60.834564 0.292
59.256134 -60.884365 0.2992
59.26059 -60.934166 0.30320001
59.265053 -60.983967 0.2872
59.269516 -61.033768 0.2728
59.273972 -61.083569 0.30320001
59.278435 -61.133366 0.28560001
59.282898 -61.18317 0.264
59.287354 -61.232967 0.54479998
59.291817 -61.282772 0.74559999
59.29628 -61.332569 0.8696
59.300735 -61.38237 0.87840003
59.305199 -61.432171 0.88080001
59.309662 -61.481972 0.85600001
59.314125 -61.531773 0.80239999
59.318581 -61.581573 0.75520003
59.323044 -61.631374 0.70639998
59.327507 -61.681175 0.63919997
59.331963 -61.730976 0.57599998
59.336426 -61.780777 0.51279998
59.340889 -61.830578 0.46239999
59.345345 -61.880375 0.38800001
59.349808 -61.93018 0.31439999
59.354271 -61.979977 0.236
59.358727 -62.029781 0.15440001
59.36319 -62.079578 0.0704
59.367653 -62.129379 -0.025599999
59.372116 -62.17918 -0.12639999
59.376572 -62.228981 -0.23119999
59.381035 -62.278782 -0.368
59.385498 -62.328583 -0.46079999
59.389954 -62.378384 -0.66000003
59.003387 -60.304604 0.20479999
59.007851 -60.354404 0.27599999
59.012314 -60.404202 0.3048
59.016769 -60.454006 0.29359999
59.021233 -60.503803 0.29840001
59.025696 -60.553608 0.29440001
59.030151 -60.603405 0.30720001
59.034615 -60.653206 0.32319999
59.039078 -60.703007 0.32960001
59.043533 -60.752808 0.32480001
59.047997 -60.802608 0.324
59.05246 -60.852409 0.31119999
59.056915 -60.90221 0.32080001
59.061378 -60.952011 0.30239999
59.065842 -61.001812 0.29519999
59.070305 -61.051609 0.2816
59.07476 -61.101414 0.3048
59.079224 -61.151211 0.292
59.083687 -61.201015 0.31999999
59.088142 -61.250813 0.62159997
59.092606 -61.300617 0.74239999
59.097069 -61.350414 0.86400002
59.101524 -61.400215 0.87840003
59.105988 -61.450016 0.87760001
59.110451 -61.499817 0.86879998
59.114914 -61.549618 0.80800003
59.11937 -61.599419 0.75520003
59.123833 -61.64922 0.708
59.128296 -61.699017 0.63840002
59.132751 -61.748821 0.58880001
59.137215 -61.798618 0.5176
59.141678 -61.848423 0.46799999
59.146133 -61.89822 0.38319999
59.150597 -61.948025 0.3168
59.15506 -61.997822 0.24160001
59.159515 -62.047626 0.15279999
59.163979 -62.097424 0.071999997
59.168442 -62.147224 -0.012
59.172905 -62.197025 -0.1256
59.177361 -62.246826 -0.23280001
59.181824 -62.296627 -0.384
59.186287 -62.346428 -0.51840001
59.190742 -62.396229 -0.65600002
58.808655 -60.372246 0.26480001
58.813118 -60.422047 0.2872
58.817574 -60.471848 0.30399999
58.822037 -60.521648 0.30160001
58.8265 -60.571449 0.30320001
58.830956 -60.62125 0.30160001
58.835419 -60.671047 0.3272
58.839882 -60.720852 0.32319999
58.844337 -60.770649 0.3256
58.848801 -60.820454 0.31200001
58.853264 -60.870251 0.308
58.857727 -60.920052 0.33039999
58.862183 -60.969852 0.33039999
58.866646 -61.019653 0.2816
58.871109 -61.069454 0.27919999
58.875565 -61.119255 0.28080001
58.880028 -61.169056 0.2872
58.884491 -61.218857 0.31200001
58.888947 -61.268658 0.34079999
58.89341 -61.318459 0.7464
58.897873 -61.368259 0.8664
58.902328 -61.418056 0.87760001
58.906792 -61.467861 0.87840003
58.911255 -61.517658 0.85839999
58.915718 -61.567463 0.80879998
58.920174 -61.61726 0.75279999
58.924637 -61.667061 0.69840002
58.9291 -61.716862 0.64960003
58.933556 -61.766663 0.5808
58.938019 -61.816463 0.52960002
58.942482 -61.866264 0.4544
58.946938 -61.916065 0.39840001
58.951401 -61.965866 0.3168
58.955864 -62.015667 0.25279999
58.96032 -62.065468 0.1656
58.964783 -62.115269 0.076800004
58.969246 -62.165066 -0.025599999
58.973709 -62.21487 -0.1184
58.978165 -62.264668 -0.23999999
58.982628 -62.314472 -0.36160001
58.609451 -60.390087 0.20640001
58.613914 -60.439888 0.28479999
58.61837 -60.489689 0.29440001
58.622833 -60.53949 0.29519999
58.627296 -60.589291 0.29519999
58.631752 -60.639091 0.292
58.636215 -60.688892 0.2976
58.640678 -60.738693 0.3048
58.645134 -60.788494 0.28960001
58.649597 -60.838295 0.29519999
58.65406 -60.888096 0.30239999
58.658524 -60.937893 0.31119999
58.662979 -60.987698 0.2992
58.667442 -61.037495 0.30720001
58.671906 -61.087299 0.30000001
58.676361 -61.137096 0.29120001
58.680824 -61.186897 0.336
58.685287 -61.236698 0.3576
58.689743 -61.286499 0.352
58.694206 -61.3363 0.74080002
58.698669 -61.386101 0.86400002
58.703125 -61.435902 0.88080001
58.707588 -61.485703 0.87919998
58.712051 -61.535503 0.86720002
58.716515 -61.585304 0.81279999
58.72097 -61.635105 0.74879998
58.725433 -61.684902 0.70480001
58.729897 -61.734707 0.6552
58.734352 -61.784504 0.58880001
58.738815 -61.834309 0.54320002
58.743279 -61.884106 0.46239999
58.747734 -61.933907 0.38640001
58.752197 -61.983707 0.3344
58.75666 -62.033508 0.2464
58.761116 -62.083309 0.164
58.765579 -62.13311 0.077600002
58.770042 -62.182911 -0.022399999
58.774506 -62.232712 -0.1128
58.778961 -62.282513 -0.2304
58.783424 -62.332314 -0.35440001
58.787888 -62.382114 -0.51200002
58.792343 -62.431911 -0.6408
58.410248 -60.407932 0.1088
58.414711 -60.457733 0.27039999
58.419167 -60.507534 0.28960001
58.42363 -60.557335 0.29120001
58.428093 -60.607136 0.29280001
58.432549 -60.656937 0.29280001
58.437012 -60.706738 0.308
58.441475 -60.756538 0.29519999
58.44593 -60.806339 0.31119999
58.450394 -60.85614 0.3152
58.454857 -60.905941 0.2976
58.45932 -60.955738 0.29280001
58.463776 -61.005543 0.29280001
58.468239 -61.05534 0.29840001
58.472702 -61.105141 0.2888
58.477158 -61.154942 0.29120001
58.481621 -61.204742 0.2976
58.486084 -61.254543 0.30160001
58.49054 -61.304344 0.30320001
58.495003 -61.354145 0.73839998
58.499466 -61.403946 0.85839999
58.503922 -61.453747 0.88239998
58.508385 -61.503548 0.88080001
58.512848 -61.553349 0.87599999
58.517311 -61.603149 0.81279999
58.521767 -61.65295 0.76560003
58.52623 -61.702747 0.70639998
58.530693 -61.752548 0.63919997
58.535149 -61.802349 0.58960003
58.539612 -61.85215 0.53119999
58.544075 -61.901951 0.4664
58.548531 -61.951752 0.396
58.552994 -62.001553 0.33680001
58.557457 -62.051353 0.23999999
58.561913 -62.101154 0.17039999
58.566376 -62.150955 0.085600004
58.570839 -62.200756 -0.0128
58.575302 -62.250557 -0.1208
58.579758 -62.300358 -0.22
58.584221 -62.350159 -0.3536
58.588684 -62.39996 -0.4824
58.211052 -60.425777 0.1464
58.215515 -60.475574 0.25760001
58.219971 -60.525379 0.2744
58.224434 -60.575176 0.29120001
58.228897 -60.624981 0.31439999
58.233353 -60.674778 0.3048
58.237816 -60.724579 0.31119999
58.242279 -60.77438 0.2992
58.246735 -60.824181 0.3152
58.251198 -60.873981 0.30720001
58.255661 -60.923782 0.296
58.260117 -60.973583 0.28639999
58.26458 -61.023384 0.28
58.269043 -61.073185 0.28240001
58.273506 -61.122986 0.29120001
58.277962 -61.172787 0.26640001
58.282425 -61.222584 0.25440001
58.286888 -61.272388 0.28
58.291344 -61.322186 0.40000001
58.295807 -61.37199 0.74159998
58.30027 -61.421787 0.8696
58.304726 -61.471588 0.87440002
58.309189 -61.521389 0.88239998
58.313652 -61.57119 0.87279999
58.318115 -61.620991 0.80879998
58.322571 -61.670792 0.76880002
58.327034 -61.720592 0.70639998
58.331497 -61.770393 0.64719999
58.335953 -61.820194 0.59759998
58.340416 -61.869995 0.54000002
58.344879 -61.919796 0.46880001
58.349335 -61.969593 0.39520001
58.353798 -62.019398 0.32480001
58.358261 -62.069195 0.25440001
58.362717 -62.118999 0.1688
58.36718 -62.168797 0.075999998
58.371643 -62.218597 -0.0112
58.376106 -62.268398 -0.108
58.380562 -62.318199 -0.212
58.385025 -62.368 -0.3448
58.011841 -60.443619 0.14480001
58.016304 -60.49342 0.2456
58.02076 -60.543221 0.29679999
58.025223 -60.593021 0.3064
58.029686 -60.642822 0.3256
58.034142 -60.692623 0.3048
58.038605 -60.742424 0.2992
58.043068 -60.792225 0.29679999
58.047523 -60.842026 0.30239999
58.051987 -60.891827 0.30320001
58.05645 -60.941628 0.31200001
58.060913 -60.991425 0.308
58.065369 -61.041229 0.28960001
58.069832 -61.091026 0.2976
58.074295 -61.140827 0.292
58.078751 -61.190628 0.2784
58.083214 -61.240429 0.27360001
58.087677 -61.29023 0.292
58.092133 -61.340031 0.3448
58.096596 -61.389832 0.73680001
58.101059 -61.439632 0.85680002
58.105515 -61.489433 0.87760001
58.109978 -61.539234 0.88239998
58.114441 -61.589035 0.87199998
58.118904 -61.638836 0.8168
58.12336 -61.688637 0.76880002
58.127823 -61.738434 0.70560002
58.132286 -61.788235 0.65039998
58.136742 -61.838036 0.59680003
58.141205 -61.887836 0.52960002
58.145668 -61.937637 0.46079999
58.150124 -61.987438 0.396
58.154587 -62.037239 0.34
58.15905 -62.08704 0.25760001
58.163506 -62.136841 0.1768
58.167969 -62.186642 0.088799998
58.172432 -62.236443 -0.0104
58.176895 -62.286243 -0.108
58.181351 -62.336044 -0.2184
58.185814 -62.385845 -0.32879999
58.190277 -62.435646 -0.47679999
58.194733 -62.485443 -0.65920001
58.199196 -62.535244 -0.83679998
57.812645 -60.461464 0.24079999
57.817108 -60.511261 0.29440001
57.821564 -60.561066 0.31920001
57.826027 -60.610863 0.33360001
57.83049 -60.660667 0.3136
57.834946 -60.710464 0.31279999
57.839409 -60.760265 0.31600001
57.843872 -60.810066 0.31279999
57.848328 -60.859867 0.34799999
57.852791 -60.909668 0.30720001
57.857254 -60.959469 0.30880001
57.86171 -61.00927 0.31200001
57.866173 -61.059071 0.31600001
57.870636 -61.108871 0.3048
57.875099 -61.158672 0.2992
57.879555 -61.208473 0.30399999
57.884018 -61.25827 0.2976
57.888481 -61.308075 0.296
57.892937 -61.357872 0.43759999
57.8974 -61.407677 0.7392
57.901863 -61.457474 0.85600001
57.906319 -61.507275 0.87840003
57.910782 -61.557076 0.88080001
57.915245 -61.606876 0.87440002
57.919708 -61.656677 0.8168
57.924164 -61.706478 0.76959997
57.928627 -61.756279 0.70639998
57.93309 -61.80608 0.6656
57.937546 -61.855881 0.6024
57.942009 -61.905682 0.53680003
57.946472 -61.955482 0.46000001
57.950928 -62.00528 0.40000001
57.955391 -62.055084 0.32640001
57.959854 -62.104881 0.2608
57.96431 -62.154686 0.1816
57.968773 -62.204483 0.096799999
57.973236 -62.254284 -0.0080000004
57.977699 -62.304085 -0.1032
57.982155 -62.353886 -0.22
57.986618 -62.403687 -0.33680001
57.991081 -62.453487 -0.46799999
57.995537 -62.503288 -0.61119998
57.613441 -60.479305 0.264
57.617905 -60.529106 0.34639999
57.62236 -60.578907 0.3096
57.626823 -60.628708 0.3048
57.631287 -60.678509 0.32319999
57.635742 -60.72831 0.32159999
57.640205 -60.778111 0.3224
57.644669 -60.827911 0.31760001
57.649124 -60.877712 0.3184
57.653587 -60.927513 0.3064
57.658051 -60.977314 0.30000001
57.662506 -61.027111 0.30399999
57.666969 -61.076916 0.29359999
57.671432 -61.126713 0.31200001
57.675896 -61.176514 0.3048
57.680351 -61.226315 0.2976
57.684814 -61.276115 0.26800001
57.689278 -61.325916 0.26879999
57.693733 -61.375717 0.48559999
57.698196 -61.425518 0.73439997
57.70266 -61.475319 0.86799997
57.707115 -61.52512 0.87519997
57.711578 -61.574921 0.8872
57.716042 -61.624722 0.87760001
57.720505 -61.674522 0.81199998
57.72496 -61.724323 0.76319999
57.729424 -61.77412 0.71600002
57.733887 -61.823921 0.64639997
57.738342 -61.873722 0.60640001
57.742805 -61.923523 0.53359997
57.747269 -61.973324 0.4808
57.751724 -62.023125 0.40000001
57.756187 -62.072926 0.336
57.760651 -62.122726 0.25440001
57.765106 -62.172527 0.176
57.769569 -62.222328 0.085600004
57.774033 -62.272129 -0.0063999998
57.778496 -62.32193 -0.1016
57.782951 -62.371731 -0.2272
57.787415 -62.421532 -0.34639999
57.791878 -62.471333 -0.49360001
57.796333 -62.52113 -0.5952
57.409775 -60.447353 0.31760001
57.414238 -60.49715 0.32080001
57.418701 -60.546947 0.32480001
57.423157 -60.596752 0.32800001
57.42762 -60.646549 0.3272
57.432083 -60.696354 0.30239999
57.436539 -60.746151 0.29679999
57.441002 -60.795956 0.32879999
57.445465 -60.845753 0.32080001
57.449921 -60.895557 0.3224
57.454384 -60.945354 0.3152
57.458847 -60.995159 0.30880001
57.463303 -61.044956 0.31999999
57.467766 -61.094761 0.30320001
57.472229 -61.144558 0.2976
57.476692 -61.194359 0.2888
57.481148 -61.24416 0.28080001
57.485611 -61.293957 0.2376
57.490074 -61.343761 0.2192
57.49453 -61.393559 0.38319999
57.498993 -61.443363 0.74479997
57.503456 -61.49316 0.86479998
57.507912 -61.542965 0.87199998
57.512375 -61.592762 0.88080001
57.516838 -61.642567 0.88160002
57.521301 -61.692364 0.83279997
57.525757 -61.742168 0.7608
57.53022 -61.791965 0.70560002
57.534683 -61.841766 0.66799998
57.539139 -61.891567 0.5952
57.543602 -61.941368 0.53920001
57.548065 -61.991169 0.47279999
57.552521 -62.040966 0.39919999
57.556984 -62.090771 0.32960001
57.561447 -62.140568 0.25760001
57.565903 -62.190372 0.184
57.570366 -62.24017 0.095200002
