# .PCD v0.7 - Point Cloud Data file format
VERSION 0.7
FIELDS x y z
SIZE 4 4 4
TYPE F F F
COUNT 1 1 1
WIDTH 1478
HEIGHT 1
VIEWPOINT 0 0 0 1 0 0 0
POINTS 1478
DATA ascii
142.37788 -26.056816 0.0065059662
142.43292 -26.053272 -0.079188824
142.48862 -26.049534 -0.17606306
142.5457 -26.04538 -0.29689288
142.60373 -26.040951 -0.43369317
142.6617 -26.036533 -0.569695
140.58347 -26.331097 0.021407843
140.63316 -26.329144 0.027543306
140.68275 -26.327217 0.035275698
140.7323 -26.325306 0.043806672
140.78227 -26.323269 0.045150995
140.83218 -26.321247 0.047293782
140.88202 -26.319252 0.051033616
140.9317 -26.317295 0.057169199
140.98181 -26.315216 0.056117773
141.03154 -26.313251 0.061454654
141.08154 -26.311199 0.062000513
141.13142 -26.309189 0.064941883
141.18115 -26.307224 0.070278645
141.23112 -26.305187 0.071622968
141.28104 -26.303162 0.073765874
141.33092 -26.301151 0.076707125
141.38094 -26.299103 0.077252865
141.43062 -26.29715 0.083388329
141.48096 -26.294998 0.078344345
141.49663 -26.303158 0.66820097
141.54268 -26.30228 0.73662114
141.58804 -26.301613 0.81701946
141.63782 -26.299629 0.82155752
141.68736 -26.297722 0.83008862
141.74036 -26.294785 0.77952909
141.79279 -26.292011 0.73855138
141.84573 -26.289093 0.68879032
141.8997 -26.285866 0.62146139
141.95163 -26.283249 0.58926773
142.0062 -26.279839 0.51155806
142.05937 -26.276852 0.4578042
142.1133 -26.27364 0.39127398
142.16661 -26.270603 0.33512449
142.22156 -26.26709 0.25102675
142.27594 -26.263737 0.17651129
142.33093 -26.260208 0.091614962
142.38588 -26.256691 0.0075172186
142.44106 -26.253105 -0.080573082
142.498 -26.248993 -0.19900751
142.55417 -26.245113 -0.30386686
142.61255 -26.240578 -0.44705546
142.67052 -26.23616 -0.58305717
140.59193 -26.530838 0.014433861
140.64148 -26.528923 0.022964835
140.69075 -26.5271 0.036286831
140.74066 -26.525074 0.038429737
140.79059 -26.523048 0.040572643
140.84023 -26.521111 0.047506571
140.8902 -26.519073 0.048850775
140.93997 -26.51709 0.053389311
140.99008 -26.515011 0.052337885
141.04019 -26.512936 0.051286578
141.08969 -26.511036 0.060616136
141.14012 -26.508862 0.053975224
141.18958 -26.506977 0.064103127
141.23921 -26.505035 0.071037292
141.28918 -26.502998 0.072381496
141.3391 -26.500977 0.074524164
141.38869 -26.49905 0.082256794
141.43884 -26.49696 0.080406904
141.48895 -26.494877 0.079355717
141.50481 -26.502983 0.66601801
141.54988 -26.502396 0.75120735
141.59584 -26.501549 0.82122469
141.6459 -26.499481 0.82097173
141.69601 -26.497406 0.81992054
141.7484 -26.494648 0.77974176
141.80176 -26.4916 0.72279358
141.85471 -26.488682 0.67303252
141.90659 -26.486076 0.64163733
141.96049 -26.482864 0.57510686
142.01376 -26.479843 0.51975608
142.06718 -26.476788 0.46200967
142.1218 -26.473366 0.38350153
142.17535 -26.470261 0.32335925
142.22987 -26.466873 0.24644828
142.28394 -26.463615 0.17752266
142.33907 -26.460045 0.090230703
142.39476 -26.456306 -0.0066435337
142.45007 -26.452679 -0.097129345
142.50638 -26.448761 -0.20438445
142.56192 -26.445065 -0.29886305
142.62018 -26.440567 -0.43965602
140.6002 -26.730633 0.010653853
140.64902 -26.728943 0.031961203
140.69893 -26.726921 0.03410399
140.74899 -26.724857 0.033851266
140.79854 -26.722942 0.04238236
140.84822 -26.720993 0.048517704
140.8981 -26.718983 0.051459074
140.94843 -26.716831 0.046415091
140.99792 -26.714931 0.055744648
141.04767 -26.712967 0.061081529
141.09792 -26.710846 0.057634711
141.14792 -26.708794 0.058180571
141.19785 -26.706776 0.060323238
141.24757 -26.704807 0.065660238
141.29768 -26.702724 0.064609051
141.34695 -26.700897 0.077931046
141.39711 -26.698807 0.076081276
141.44725 -26.696712 0.074231386
141.49768 -26.694538 0.067590475
141.51289 -26.702835 0.66543221
141.55638 -26.702717 0.77777123
141.60435 -26.701275 0.81345224
141.6539 -26.69936 0.8219831
141.70419 -26.697231 0.81773782
141.75694 -26.694363 0.77117062
141.8098 -26.691467 0.72300625
141.86223 -26.688702 0.68202877
141.91592 -26.685555 0.61949134
141.96928 -26.682507 0.56254315
142.02185 -26.679695 0.51917028
142.0762 -26.676361 0.44545341
142.12915 -26.673439 0.39569211
142.18372 -26.670029 0.31798244
142.23782 -26.666767 0.24825788
142.29193 -26.663498 0.17853379
142.34674 -26.660019 0.09683156
142.40308 -26.65609 -0.011221886
142.45821 -26.652519 -0.098513842
142.51465 -26.648556 -0.20816445
142.57155 -26.644459 -0.32580018
142.62895 -26.640213 -0.45221972
142.68898 -26.635185 -0.62335652
140.60825 -26.930496 0.010866642
140.6577 -26.928612 0.020994663
140.70743 -26.926643 0.026331663
140.75688 -26.924759 0.036459684
140.80672 -26.922764 0.040199518
140.85649 -26.920784 0.044737816
140.90651 -26.918732 0.045283675
140.95615 -26.91679 0.052217603
141.00578 -26.914848 0.059151411
141.05655 -26.912579 0.046921015
141.10609 -26.910667 0.05545187
141.15596 -26.908657 0.05839324
141.20584 -26.906651 0.06133461
141.25584 -26.904598 0.06188035
141.30573 -26.902588 0.06482172
141.35559 -26.900578 0.06776309
141.40518 -26.898655 0.075495481
141.45534 -26.896561 0.07364583
141.50604 -26.894302 0.06221354
141.52112 -26.902641 0.66245079
141.56363 -26.902817 0.79155898
141.61192 -26.901276 0.82165027
141.66203 -26.899197 0.82059884
141.71213 -26.897121 0.81954741
141.76526 -26.894142 0.76659226
141.81807 -26.891258 0.71922636
141.8707 -26.888435 0.67505503
141.92419 -26.885349 0.61571145
141.97737 -26.882355 0.5619576
142.03041 -26.879406 0.51059937
142.08434 -26.876194 0.44406915
142.13774 -26.873135 0.3863225
142.19167 -26.869919 0.31979227
142.24643 -26.866463 0.2388885
142.3009 -26.863083 0.16277611
142.35603 -26.859509 0.075484157
142.41071 -26.856075 -0.0038224459
142.46695 -26.852173 -0.11027884
142.52338 -26.848213 -0.21992946
142.57953 -26.844334 -0.32478881
142.63747 -26.839935 -0.45999217
142.69618 -26.835297 -0.60877025
140.61581 -27.130501 0.019064546
140.66574 -27.128475 0.021207333
140.71519 -27.126595 0.031335354
140.76529 -27.124516 0.030284166
140.81522 -27.12249 0.032427073
140.86508 -27.120483 0.035368204
140.9146 -27.118584 0.044697762
140.96474 -27.116489 0.042847991
141.01355 -27.114799 0.06415534
141.06412 -27.112583 0.055118799
141.11418 -27.110519 0.054866076
141.1647 -27.108315 0.046628118
141.21364 -27.106583 0.065539837
141.26454 -27.104271 0.050913692
141.31413 -27.102341 0.058646202
141.36395 -27.100346 0.062386036
141.41336 -27.098476 0.073312521
141.46356 -27.096371 0.070664406
141.51349 -27.094345 0.072807074
141.52911 -27.10252 0.66346192
141.57195 -27.102596 0.78698039
141.62044 -27.101002 0.81387758
141.67062 -27.098896 0.81122923
141.72096 -27.096748 0.80618525
141.77414 -27.093758 0.75243163
141.8262 -27.091099 0.7178421
141.87924 -27.08815 0.66648388
141.93237 -27.085171 0.61352849
141.98555 -27.08218 0.55977464
142.03947 -27.078964 0.49324441
142.09251 -27.076019 0.44188619
142.14642 -27.072803 0.37535596
142.20016 -27.069645 0.31201982
142.25488 -27.0662 0.23191452
142.30949 -27.062782 0.15340638
142.36435 -27.059292 0.070905685
142.41959 -27.055691 -0.017983198
142.47527 -27.051952 -0.11485732
142.53128 -27.048119 -0.21732128
142.58875 -27.043854 -0.34453928
142.6442 -27.040188 -0.43742085
142.70523 -27.034859 -0.62612516
140.62433 -27.330227 0.011291981
140.67406 -27.328259 0.016628981
140.72365 -27.326336 0.024361372
140.77344 -27.324352 0.028899789
140.82358 -27.322258 0.027050018
140.87308 -27.320362 0.036379576
140.92282 -27.318394 0.041716456
140.97264 -27.316399 0.045456409
141.02266 -27.314346 0.046001911
141.07318 -27.312145 0.037764072
141.12286 -27.310188 0.043899536
141.17252 -27.30825 0.050833464
141.22224 -27.306282 0.056170344
141.27197 -27.304314 0.061507225
141.32217 -27.302208 0.058858991
141.37181 -27.300266 0.065792799
141.42188 -27.298206 0.065540075
141.47063 -27.296528 0.087646008
141.52185 -27.294113 0.067430139
141.53714 -27.302383 0.66367483
141.58003 -27.302448 0.7863946
141.62871 -27.300797 0.81009769
141.67871 -27.298748 0.8106432
141.72868 -27.296711 0.81198764
141.78204 -27.293663 0.75503969
141.83466 -27.290836 0.71086812
141.88835 -27.287697 0.64833069
141.93994 -27.285175 0.62172651
141.994 -27.281921 0.55280066
142.04677 -27.279053 0.50623345
142.10078 -27.275814 0.4381063
142.15419 -27.272755 0.38035977
142.20895 -27.269291 0.299456
142.26343 -27.265915 0.22334337
142.31763 -27.262619 0.15202212
142.37271 -27.25906 0.065528631
142.42725 -27.255669 -0.011382341
142.48363 -27.251724 -0.12023425
142.5403 -27.247692 -0.23387754
142.59799 -27.243359 -0.36508822
142.65396 -27.23954 -0.46675348
140.63255 -27.530033 0.0083107948
140.68251 -27.527996 0.0096549988
140.73192 -27.526127 0.020581603
140.78175 -27.524132 0.024321437
140.83148 -27.52216 0.029658437
140.88135 -27.520153 0.032599688
140.93123 -27.518143 0.035541058
140.98105 -27.516148 0.039280891
141.03059 -27.514233 0.047811866
141.08118 -27.51202 0.038775325
141.13091 -27.510052 0.044112325
141.1804 -27.508152 0.053441882
141.23074 -27.506008 0.048397779
141.28038 -27.504066 0.055331826
141.33026 -27.502056 0.058273196
141.38026 -27.500004 0.058818936
141.43005 -27.498024 0.063357353
141.47987 -27.496029 0.067097187
141.53055 -27.493782 0.05646348
141.54552 -27.502148 0.65829802
141.58826 -27.502254 0.78341341
141.6373 -27.500492 0.80072832
141.68716 -27.498482 0.80366945
141.73695 -27.496506 0.80820799
141.78995 -27.493568 0.75764799
141.84312 -27.490574 0.70389414
141.89603 -27.487671 0.65493155
141.9491 -27.484707 0.60277462
142.00218 -27.481739 0.55061769
142.05615 -27.478512 0.483289
142.10849 -27.475773 0.44390869
142.16289 -27.47242 0.36939323
142.21732 -27.469055 0.29407907
142.27161 -27.465736 0.22116065
142.32571 -27.462467 0.15143645
142.38127 -27.458767 0.056957722
142.43674 -27.455101 -0.035923719
142.49278 -27.451252 -0.13918614
142.54816 -27.447609 -0.23047066
142.60561 -27.443344 -0.35768867
142.6626 -27.439224 -0.47692144
142.72249 -27.434238 -0.64566272
140.59039 -27.73201 0.011171579
140.64082 -27.729832 0.0045307875
140.69051 -27.727879 0.010666251
140.73996 -27.725994 0.020794153
140.79002 -27.72393 0.02054143
140.83952 -27.722031 0.029870987
140.88972 -27.719929 0.027222633
140.93945 -27.717957 0.032559633
140.98918 -27.715988 0.037896395
141.0385 -27.714146 0.050420046
141.0882 -27.712193 0.05655551
141.13867 -27.710003 0.049116015
141.18622 -27.708683 0.091983557
141.23851 -27.705959 0.053401709
141.28842 -27.703934 0.055544376
141.33844 -27.701881 0.056090355
141.38831 -27.699871 0.059031487
141.4381 -27.697895 0.063569903
141.48843 -27.695744 0.058526039
141.53868 -27.693623 0.055079103
141.55374 -27.701962 0.65531635
141.59575 -27.70229 0.79320836
141.64529 -27.700378 0.80173922
141.69489 -27.698448 0.80947185
141.74509 -27.696346 0.80682349
141.79831 -27.69334 0.75227118
141.85121 -27.69043 0.70330834
141.90411 -27.687527 0.65434551
141.95743 -27.68449 0.59819627
142.01074 -27.681458 0.54204679
142.06396 -27.678452 0.48749423
142.11705 -27.675491 0.43533754
142.17139 -27.672153 0.36162066
142.22475 -27.669106 0.30467272
142.27979 -27.665562 0.21897769
142.33455 -27.662102 0.13807416
142.38922 -27.658665 0.058767438
142.44449 -27.655056 -0.030920029
142.50082 -27.651123 -0.13897347
142.55554 -27.647675 -0.21907878
142.61314 -27.643368 -0.3486923
140.59898 -27.931705 0.001802206
140.64923 -27.929585 -0.0016446114
140.6985 -27.927753 0.011677504
140.74828 -27.925774 0.016215801
140.7982 -27.923752 0.018358707
140.84766 -27.921864 0.028486729
140.8979 -27.919746 0.025039792
140.94745 -27.917835 0.033570886
140.99783 -27.915672 0.027728438
141.04654 -27.914005 0.050632715
141.09799 -27.91153 0.026424408
141.14735 -27.909672 0.038149595
141.19714 -27.907688 0.042687893
141.2471 -27.905655 0.044032097
141.29716 -27.903587 0.043779373
141.34666 -27.901688 0.053108931
141.39644 -27.899708 0.057647228
141.44618 -27.897743 0.062984228
141.49648 -27.895607 0.058738947
141.54727 -27.893318 0.04570961
141.56149 -27.901909 0.66032028
141.6049 -27.901821 0.77425647
141.65352 -27.900185 0.79875803
141.7032 -27.898228 0.80489349
141.75369 -27.896042 0.79745388
141.80672 -27.893089 0.74609566
141.85971 -27.890152 0.6955359
141.91168 -27.887524 0.66254377
141.96579 -27.884254 0.59281921
142.01897 -27.881264 0.53906536
142.07317 -27.877968 0.46774411
142.12573 -27.875156 0.424371
142.18013 -27.871807 0.34985542
142.23376 -27.868675 0.28811622
142.28764 -27.865479 0.22238445
142.343 -27.861835 0.13110018
142.3979 -27.858334 0.047800899
142.45351 -27.854626 -0.047476172
142.50896 -27.850956 -0.14035773
142.5654 -27.846996 -0.25000834
142.62123 -27.843216 -0.34927797
142.6804 -27.83844 -0.50604141
140.60707 -28.131561 0.0012161732
140.65709 -28.129509 0.0017621517
140.70673 -28.127567 0.0086960793
140.75636 -28.125629 0.015630007
140.80647 -28.12355 0.0145787
140.85616 -28.121593 0.020714164
140.90588 -28.119629 0.026050925
140.95586 -28.117592 0.027395248
141.00578 -28.115566 0.029538155
141.05547 -28.113613 0.035673499
141.10464 -28.111813 0.050592661
141.15396 -28.10997 0.063116312
141.20741 -28.106895 0.0045714378
141.25771 -28.104763 0.0003259182
141.30614 -28.10318 0.028021574
141.35532 -28.101379 0.042940855
141.40495 -28.099438 0.049874663
141.45459 -28.0975 0.05680871
141.50502 -28.095325 0.05016768
141.55531 -28.093189 0.045922279
141.5694 -28.101818 0.66292858
141.61234 -28.101868 0.78484988
141.66179 -28.099983 0.79497814
141.71143 -28.098042 0.80191183
141.76205 -28.095814 0.79207706
141.81435 -28.093086 0.75349522
141.86784 -28.089996 0.6941514
141.92056 -28.087147 0.64838266
141.9735 -28.084221 0.59862161
142.02737 -28.08102 0.53288984
142.08093 -28.077919 0.4727478
142.13425 -28.07489 0.41659832
142.18802 -28.071716 0.35246372
142.24269 -28.068283 0.273157
142.29568 -28.06535 0.22259724
142.35123 -28.061649 0.12811875
142.40622 -28.058121 0.043222308
142.46141 -28.054535 -0.044867992
142.51686 -28.050865 -0.13774955
142.57324 -28.046921 -0.24660158
142.63005 -28.042847 -0.36264038
142.68872 -28.038227 -0.51062
140.61502 -28.331448 0.0030261278
140.66531 -28.329315 -0.0012192726
140.7149 -28.327389 0.006513238
140.76474 -28.325394 0.010252953
140.81442 -28.323441 0.016388416
140.86462 -28.321331 0.013740182
140.91403 -28.319466 0.024666786
140.96446 -28.317287 0.018025756
141.01401 -28.315372 0.026556849
141.06387 -28.313362 0.0294981
141.11324 -28.311508 0.041223168
141.16385 -28.309277 0.031388164
141.21332 -28.307392 0.041516304
141.26318 -28.305386 0.044457555
141.3132 -28.303333 0.045003414
141.36298 -28.30135 0.049541712
141.41266 -28.299397 0.055677056
141.46286 -28.297291 0.053028822
141.51222 -28.295433 0.06475389
141.56358 -28.29298 0.042142391
141.57828 -28.30143 0.64876795
141.62061 -28.301662 0.78107023
141.6701 -28.299763 0.79039979
141.7198 -28.297806 0.79653502
141.76999 -28.295704 0.79388666
141.82289 -28.292793 0.74492407
141.8763 -28.289734 0.68717766
141.92915 -28.286842 0.63901329
141.98201 -28.283947 0.59084916
142.03555 -28.280842 0.53070688
142.08934 -28.277672 0.46657228
142.14297 -28.274544 0.40483332
142.19601 -28.271591 0.35347509
142.25069 -28.268158 0.27416837
142.30428 -28.265045 0.21322775
142.3595 -28.261444 0.12433887
142.41455 -28.257896 0.038644075
142.46986 -28.254272 -0.051841974
142.52606 -28.250381 -0.15749979
142.58235 -28.246464 -0.26475477
142.63884 -28.242489 -0.37520385
142.69672 -28.238102 -0.50960863
140.6227 -28.531422 0.0096269846
140.67368 -28.529079 -0.0065962076
140.72295 -28.527248 0.0067260265
140.77301 -28.525188 0.0064730644
140.82297 -28.523144 0.0078175068
140.8728 -28.521152 0.011557341
140.92206 -28.519329 0.024879456
140.97221 -28.517231 0.023029566
141.02205 -28.515232 0.026769638
141.07205 -28.513187 0.027315259
141.12221 -28.511097 0.025465488
141.17139 -28.509289 0.04038465
141.22214 -28.507015 0.028154135
141.27141 -28.505192 0.04147625
141.32152 -28.503109 0.040424824
141.37106 -28.501202 0.048955917
141.42177 -28.498936 0.037523746
141.47095 -28.497143 0.052443027
141.52115 -28.495033 0.049794674
141.57167 -28.492828 0.041556597
141.58492 -28.501705 0.67293644
141.62935 -28.501316 0.76930499
141.6781 -28.499638 0.79141092
141.72789 -28.497654 0.79594922
141.77808 -28.495552 0.79330111
141.83173 -28.49242 0.7315619
141.8842 -28.489635 0.68978572
141.93724 -28.486687 0.6384275
141.99149 -28.483379 0.56630778
142.04407 -28.480564 0.52293444
142.09752 -28.477489 0.46438956
142.15126 -28.474335 0.40105343
142.20471 -28.47126 0.34250855
142.259 -28.467937 0.2695899
142.31325 -28.46463 0.19746995
142.36754 -28.461304 0.12455165
142.42296 -28.457649 0.032468557
142.47795 -28.454121 -0.052427769
142.53429 -28.450188 -0.16048121
142.59058 -28.44627 -0.2677362
142.64772 -28.442101 -0.3893646
142.70639 -28.437481 -0.53734422
140.68228 -28.728786 -0.015965819
140.73117 -28.727062 0.0037446022
140.78119 -28.725018 0.0042902231
140.83101 -28.723011 0.0080301762
140.88083 -28.72102 0.01177001
140.93044 -28.719097 0.019502401
140.98068 -28.716976 0.016055584
141.03036 -28.715023 0.022191048
141.07977 -28.713154 0.033117533
141.13002 -28.711025 0.029670715
141.18027 -28.708912 0.026223898
141.22995 -28.706959 0.032359362
141.27963 -28.704998 0.038494825
141.32951 -28.702991 0.041436195
141.37924 -28.701031 0.046772957
141.42926 -28.698971 0.047318697
141.4794 -28.696888 0.045468926
141.52914 -28.694912 0.050805926
141.58008 -28.692585 0.035381079
141.59496 -28.700985 0.6388123
141.63696 -28.701305 0.77670431
141.68637 -28.699436 0.78763103
141.73643 -28.697376 0.78737831
141.78677 -28.695225 0.78233433
141.83963 -28.692333 0.7341702
141.89252 -28.689426 0.68520737
141.94533 -28.686543 0.6378417
141.99887 -28.683437 0.57769966
142.05209 -28.680439 0.52314711
142.10542 -28.677402 0.46699786
142.15883 -28.674343 0.40925145
142.21307 -28.67104 0.3371315
142.26691 -28.667843 0.2721982
142.32129 -28.664501 0.19768262
142.37587 -28.661091 0.11997318
142.43123 -28.657452 0.028688669
142.48654 -28.653828 -0.06179738
142.54214 -28.650112 -0.15707445
142.59973 -28.645809 -0.28668809
142.6559 -28.641933 -0.39154744
142.71432 -28.637371 -0.53553462
140.64464 -28.929409 -0.090561628
140.69022 -28.928677 -0.014156103
140.73912 -28.926952 0.0055543184
140.78908 -28.924915 0.0068986416
140.83914 -28.922848 0.0066459179
140.88882 -28.920895 0.012781382
140.93861 -28.918919 0.01731956
140.98857 -28.916874 0.018663883
141.03877 -28.914776 0.01601553
141.08804 -28.912945 0.029337645
141.13777 -28.910976 0.034674644
141.18732 -28.909061 0.043205738
141.23808 -28.906796 0.030975103
141.28772 -28.90485 0.037908912
141.33778 -28.90279 0.037656188
141.38785 -28.900723 0.037403464
141.43744 -28.898792 0.045135975
141.48744 -28.896748 0.045681715
141.53703 -28.894825 0.053414226
141.5878 -28.892544 0.041183472
141.60338 -28.90073 0.63263702
141.64532 -28.901073 0.7713275
141.69493 -28.899143 0.77905989
141.74471 -28.897167 0.78359842
141.79514 -28.894985 0.77695751
141.8484 -28.891972 0.72160625
141.90144 -28.889027 0.67024803
141.95416 -28.886166 0.62447953
142.00784 -28.883022 0.56194186
142.06033 -28.880245 0.52016592
142.11435 -28.877003 0.45203853
142.16785 -28.873913 0.39269495
142.2218 -28.870693 0.32536638
142.27522 -28.867626 0.26761973
142.32993 -28.864178 0.18751454
142.3846 -28.860744 0.10820806
142.43903 -28.85738 0.032893896
142.4951 -28.853535 -0.070368409
142.55106 -28.849705 -0.17203355
142.6075 -28.845753 -0.28168428
142.6644 -28.841656 -0.39932001
142.72214 -28.837307 -0.53132915
142.78067 -28.832722 -0.67691326
140.55768 -29.131886 -0.17768097
140.60503 -29.130619 -0.13161945
140.65207 -29.129459 -0.079968095
140.69855 -29.12846 -0.018734455
140.74721 -29.126804 0.0049684048
140.79741 -29.124706 0.0023200512
140.84807 -29.122456 -0.0083134174
140.89836 -29.120327 -0.012558818
140.94725 -29.11861 0.0071513653
140.99713 -29.116596 0.010092735
141.04668 -29.114681 0.018623829
141.09618 -29.112789 0.027953386
141.14606 -29.110775 0.030894756
141.19638 -29.108631 0.025850773
141.24644 -29.106564 0.025598049
141.29655 -29.104481 0.024546623
141.34558 -29.102726 0.041861534
141.39616 -29.100513 0.032824993
141.44566 -29.098606 0.042154551
141.49539 -29.096645 0.047491431
141.54568 -29.094509 0.043246031
141.59634 -29.092266 0.032612324
141.61044 -29.100895 0.64961863
141.65332 -29.100956 0.77233863
141.7027 -29.099102 0.78406382
141.75214 -29.097218 0.79419184
141.80331 -29.094814 0.77477455
141.85683 -29.091732 0.71543097
141.90903 -29.089031 0.67844582
141.96257 -29.085926 0.61830378
142.01514 -29.083118 0.57493091
142.06883 -29.079975 0.51239324
142.12215 -29.076939 0.45624399
142.17616 -29.073704 0.3881166
142.22968 -29.070614 0.32877314
142.28429 -29.067188 0.25026488
142.33801 -29.064037 0.18692863
142.39296 -29.060513 0.10283101
142.4474 -29.057156 0.027516961
142.50323 -29.053371 -0.071752787
142.5593 -29.049519 -0.17501497
142.61597 -29.045498 -0.28865838
142.67383 -29.041111 -0.42306304
140.44812 -29.315441 -1.5946357
140.50041 -29.312717 -1.6332176
140.55057 -29.310619 -1.6350675
140.6002 -29.308681 -1.6281335
140.56473 -29.332043 -0.16069925
140.61205 -29.330784 -0.11383915
140.65959 -29.329472 -0.070971489
140.70602 -29.328487 -0.0089393854
140.75562 -29.326557 -0.0012068748
140.80539 -29.324581 0.0033314228
140.85527 -29.322567 0.0062727928
140.90527 -29.320515 0.0068185329
140.95511 -29.318523 0.010558367
141.00461 -29.316624 0.019887924
141.05447 -29.314617 0.022829294
141.10463 -29.312527 0.020979404
141.15399 -29.310665 0.032704473
141.20499 -29.308323 0.01648128
141.25471 -29.306362 0.021818161
141.30444 -29.304386 0.027155161
141.35432 -29.30238 0.030096531
141.40421 -29.300373 0.033037901
141.45389 -29.298412 0.039173126
141.50385 -29.296383 0.040517449
141.55479 -29.294048 0.02509284
141.60425 -29.292164 0.035220742
141.61945 -29.300465 0.63306236
141.66132 -29.300831 0.77334976
141.71138 -29.298763 0.77309728
141.76115 -29.296787 0.77763557
141.81168 -29.294582 0.7693975
141.86458 -29.291676 0.7204349
141.91785 -29.288654 0.66508389
141.97014 -29.285923 0.62650204
142.02365 -29.282841 0.5671587
142.07751 -29.279644 0.5014267
142.13074 -29.27663 0.44687438
142.18466 -29.273426 0.38034415
142.23827 -29.270313 0.31940365
142.29242 -29.267025 0.24888062
142.34648 -29.263775 0.17995465
142.40175 -29.260151 0.09026742
142.45642 -29.256725 0.010960698
142.51187 -29.253056 -0.081920743
142.56779 -29.249241 -0.18278754
142.62488 -29.24509 -0.30361748
142.68141 -29.241108 -0.41486502
142.73877 -29.236866 -0.54048598
142.79875 -29.231861 -0.71082437
140.20796 -29.524998 -1.6290928
140.25812 -29.5229 -1.6309426
140.3093 -29.520504 -1.6503599
140.35939 -29.518429 -1.6514111
140.40941 -29.516376 -1.6508656
140.45905 -29.514439 -1.6439315
140.50883 -29.512463 -1.6393931
140.55865 -29.510456 -1.6356533
140.60825 -29.508533 -1.6279207
140.57027 -29.532642 -0.11736619
140.61725 -29.531483 -0.064916372
140.66434 -29.530308 -0.014063597
140.71387 -29.5284 -0.0055325031
140.76384 -29.526356 -0.0041882992
140.81363 -29.52438 0.00034999847
140.8634 -29.522388 0.0048884153
140.91318 -29.520412 0.0094268322
140.9632 -29.518368 0.0099725723
141.01344 -29.516239 0.0065257549
141.06281 -29.514385 0.018250823
141.11221 -29.512516 0.029177427
141.1619 -29.510555 0.035312891
141.2128 -29.508244 0.020686626
141.26239 -29.506321 0.028419137
141.31296 -29.504101 0.019382477
141.36298 -29.502056 0.019928455
141.41243 -29.500172 0.030056477
141.46182 -29.498295 0.040982962
141.51202 -29.496189 0.038334608
141.5625 -29.493999 0.030895233
141.61252 -29.491947 0.031440854
141.62735 -29.500362 0.63567066
141.66949 -29.500637 0.77116704
141.71938 -29.498631 0.77410841
141.76878 -29.496769 0.78503489
141.81976 -29.494419 0.7688117
141.87369 -29.491207 0.70228148
141.92593 -29.488499 0.66449809
141.97931 -29.485447 0.60755014
142.03197 -29.482609 0.56258011
142.08492 -29.479694 0.51281881
142.13921 -29.47636 0.4399004
142.19275 -29.473263 0.37975836
142.24574 -29.470333 0.3291986
142.3006 -29.466839 0.2466979
142.35513 -29.463444 0.16978669
142.40952 -29.460094 0.095271349
142.46474 -29.456493 0.0063823462
142.51923 -29.453121 -0.069730282
142.57645 -29.448917 -0.19295561
142.63235 -29.44511 -0.29382253
142.68866 -29.441196 -0.40107739
142.74887 -29.436115 -0.57540834
142.80566 -29.432049 -0.69144702
142.87453 -29.424397 -1.0143036
142.94344 -29.416729 -1.3379586
143.0123 -29.409077 -1.6608149
139.28397 -29.758427 -1.9514725
139.3297 -29.757641 -1.8774624
139.3772 -29.756344 -1.8337964
139.42497 -29.754955 -1.7949215
139.4715 -29.753941 -1.7344865
139.52011 -29.752308 -1.709985
139.56966 -29.750385 -1.7014539
139.6185 -29.748684 -1.6809449
139.66856 -29.746624 -1.6811979
139.71806 -29.744717 -1.6718683
139.76785 -29.742741 -1.66733
139.81758 -29.740772 -1.661993
139.86749 -29.73875 -1.6598501
139.91765 -29.73666 -1.6617
139.96724 -29.734737 -1.6539676
140.01717 -29.732708 -1.6518247
140.06721 -29.730648 -1.6520776
140.11667 -29.728764 -1.6419494
140.16743 -29.726482 -1.65418
140.21809 -29.724247 -1.6648138
140.26779 -29.722286 -1.6586783
140.31798 -29.720181 -1.6613265
140.36697 -29.718441 -1.6432133
140.41731 -29.71629 -1.6482573
140.46732 -29.714237 -1.6477115
140.51729 -29.7122 -1.6463671
140.5667 -29.710331 -1.6354406
140.61583 -29.708546 -1.6197228
140.57774 -29.732677 -0.10757113
140.62515 -29.731396 -0.062308192
140.67261 -29.730106 -0.017843485
140.7222 -29.728184 -0.010111094
140.77231 -29.726101 -0.011162281
140.82195 -29.724163 -0.0042284727
140.8719 -29.722118 -0.0028841496
140.92174 -29.720127 0.00085580349
140.9716 -29.718121 0.0037970543
141.02139 -29.716137 0.0083353519
141.07094 -29.71423 0.016866446
141.12067 -29.712261 0.022203326
141.17068 -29.710209 0.022749186
141.2205 -29.70821 0.026489019
141.27127 -29.705944 0.014258385
141.32104 -29.70396 0.018796682
141.36998 -29.702229 0.037708521
141.42075 -29.699955 0.025477886
141.47057 -29.697956 0.02921772
141.52017 -29.696033 0.036950231
141.57054 -29.693867 0.031107903
141.62079 -29.691753 0.027660966
141.6353 -29.700253 0.6374805
141.67824 -29.700306 0.75940204
141.72737 -29.698521 0.77511978
141.77715 -29.696537 0.77965808
141.82823 -29.694164 0.76183772
141.88132 -29.691204 0.7096808
141.93436 -29.688259 0.65832257
141.98701 -29.685413 0.61335254
142.04071 -29.68227 0.55081487
142.09346 -29.679409 0.50424767
142.14757 -29.676136 0.43452334
142.20074 -29.673145 0.38076949
142.25471 -29.669926 0.3134408
142.30869 -29.666691 0.24611187
142.36353 -29.663204 0.16361117
142.41852 -29.659672 0.078715086
142.4726 -29.656422 0.0097891092
142.5285 -29.652615 -0.091077566
142.5842 -29.648869 -0.1879518
142.6418 -29.644566 -0.31756544
142.69847 -29.640545 -0.43120861
142.7576 -29.635777 -0.58717346
142.81668 -29.631031 -0.74233991
142.87759 -29.625744 -0.92864883
142.94292 -29.619137 -1.1908176
139.19696 -29.960903 -2.0377932
139.2439 -29.959766 -1.984545
139.29097 -29.958591 -1.9336922
139.33801 -29.957417 -1.8820409
139.38538 -29.956158 -1.8359792
139.43231 -29.955029 -1.7827311
139.47911 -29.953922 -1.727087
139.5267 -29.952595 -1.6850179
139.57654 -29.950596 -1.6812782
139.6265 -29.948559 -1.6799338
139.67656 -29.946499 -1.6801866
139.7261 -29.944584 -1.6716557
139.77606 -29.942547 -1.6703113
139.82581 -29.940578 -1.6649745
139.87563 -29.93858 -1.6612346
139.9256 -29.93655 -1.6598903
139.97546 -29.934544 -1.6569489
140.02525 -29.932552 -1.6524105
140.07535 -29.930477 -1.6534619
140.12485 -29.928585 -1.6441324
140.17636 -29.926083 -1.6691393
140.22618 -29.924091 -1.6653996
140.2762 -29.922039 -1.6648538
140.32645 -29.919918 -1.6683005
140.37585 -29.918049 -1.6573739
140.42558 -29.91608 -1.6520371
140.47559 -29.914028 -1.6514913
140.52556 -29.911999 -1.650147
140.57426 -29.910328 -1.6272427
140.5387 -29.933712 -0.15821123
140.58592 -29.932499 -0.10975409
140.63118 -29.93185 -0.027758956
140.68054 -29.929996 -0.016033888
140.73038 -29.928005 -0.012293935
140.77997 -29.926075 -0.0045614243
140.83035 -29.923916 -0.010403872
140.88013 -29.921925 -0.0058654547
140.93015 -29.91988 -0.0053195953
140.98006 -29.917858 -0.0031769276
141.02989 -29.915859 0.00056290627
141.07986 -29.913822 0.0019072294
141.12926 -29.911961 0.012833834
141.17918 -29.909931 0.014976621
141.22939 -29.907825 0.012328386
141.2787 -29.905987 0.024852037
141.32886 -29.903889 0.023002028
141.379 -29.901798 0.021152258
141.42836 -29.899944 0.032877445
141.47884 -29.897747 0.025437832
141.52853 -29.895802 0.031573296
141.57915 -29.893574 0.021738291
141.62981 -29.891323 0.011104703
141.64357 -29.900051 0.63370061
141.68623 -29.900181 0.76041317
141.73564 -29.898312 0.77133989
141.7856 -29.896275 0.7726841
141.83598 -29.894108 0.76684141
141.88954 -29.89101 0.70669937
141.94243 -29.888103 0.65773678
141.99567 -29.885098 0.60318446
142.04851 -29.882206 0.55502033
142.10196 -29.879131 0.49647522
142.15529 -29.876095 0.44032574
142.2092 -29.872883 0.37379551
142.26303 -29.869701 0.30886245
142.31752 -29.866322 0.2327497
142.37163 -29.863056 0.16302526
142.42651 -29.859547 0.079726219
142.48138 -29.85606 -0.002774477
142.53679 -29.852406 -0.094857454
142.59285 -29.848553 -0.19811988
142.64905 -29.844662 -0.30377793
142.70683 -29.840305 -0.43658555
142.76443 -29.835995 -0.56619918
142.82654 -29.830357 -0.77326959
142.8868 -29.82526 -0.94839919
142.94876 -29.819653 -1.1530741
139.2524 -30.159496 -1.9923176
139.29967 -30.158268 -1.9446589
139.34647 -30.157162 -1.889015
139.3934 -30.156033 -1.8357666
139.44044 -30.154865 -1.7841153
139.48692 -30.153866 -1.7228818
139.53474 -30.152462 -1.6848054
139.58476 -30.15041 -1.6842597
139.63467 -30.148388 -1.6821166
139.68469 -30.146343 -1.681571
139.73419 -30.144436 -1.6722414
139.78444 -30.142323 -1.6756883
139.83435 -30.140301 -1.6735455
139.88403 -30.13834 -1.66741
139.93373 -30.136387 -1.6612747
139.98402 -30.134258 -1.6655201
140.03375 -30.132282 -1.6601831
140.08405 -30.130154 -1.6644285
140.13368 -30.128216 -1.6574945
140.18495 -30.12579 -1.6785089
140.23477 -30.123798 -1.6747692
140.28479 -30.121738 -1.6742233
140.33467 -30.119732 -1.6712819
140.38445 -30.117756 -1.6667435
140.43442 -30.115711 -1.6653993
140.48424 -30.11372 -1.6616595
140.53365 -30.111851 -1.6507329
140.58217 -30.110241 -1.6246344
140.54642 -30.133678 -0.15240896
140.59369 -30.13245 -0.10475028
140.63936 -30.13168 -0.029941797
140.68854 -30.129879 -0.015022635
140.73878 -30.127766 -0.018469453
140.78862 -30.125759 -0.0147295
140.83817 -30.123852 -0.0061986446
140.88831 -30.121754 -0.008048296
140.938 -30.119808 -0.0019128323
140.98805 -30.117741 -0.0021657944
141.03793 -30.115726 0.00077557564
141.08818 -30.113613 -0.0026712418
141.13777 -30.111691 0.0050611496
141.18736 -30.10976 0.012793779
141.23743 -30.107693 0.012541056
141.28781 -30.105534 0.0066986084
141.33833 -30.103329 -0.0015394688
141.38593 -30.102001 0.04052949
141.43715 -30.09959 0.02031374
141.48697 -30.097591 0.024053574
141.53671 -30.095623 0.029390454
141.58681 -30.093548 0.028339148
141.63753 -30.09129 0.016906977
141.65179 -30.099865 0.63071918
141.69418 -30.100071 0.76222277
141.74387 -30.098125 0.76835823
141.79398 -30.09605 0.7673068
141.84514 -30.093647 0.74788976
141.89851 -30.090603 0.69094181
141.95081 -30.087879 0.65235972
142.00398 -30.084881 0.59860611
142.05748 -30.081799 0.53926229
142.11084 -30.078754 0.48231459
142.16379 -30.075825 0.43255329
142.21744 -30.072697 0.37081409
142.27191 -30.069324 0.29470158
142.32509 -30.066326 0.24094772
142.38058 -30.062649 0.14726746
142.43475 -30.059361 0.076744795
142.48955 -30.055889 -0.0049574375
142.54543 -30.052097 -0.10502577
142.60139 -30.048267 -0.20669091
142.65732 -30.044468 -0.30755782
142.71533 -30.040035 -0.44435811
142.77545 -30.034985 -0.61709201
139.25992 -30.359509 -1.9833211
139.30673 -30.358418 -1.9276772
139.35399 -30.357182 -1.8800185
139.4008 -30.356083 -1.8243744
139.44792 -30.354893 -1.7743204
139.49486 -30.353748 -1.721072
139.54311 -30.35223 -1.6901822
139.59283 -30.350254 -1.6848454
139.64285 -30.348209 -1.6842995
139.69269 -30.346218 -1.6805596
139.74278 -30.344135 -1.6816111
139.79239 -30.342205 -1.6738786
139.8423 -30.340191 -1.6717358
139.89207 -30.3382 -1.6671973
139.94257 -30.336018 -1.6746368
139.99207 -30.334118 -1.6653073
140.04198 -30.332088 -1.6631644
140.0918 -30.330097 -1.6594247
140.14191 -30.328022 -1.660476
140.1936 -30.325466 -1.688677
140.24329 -30.323521 -1.6825416
140.29297 -30.32156 -1.6764061
140.3429 -30.319538 -1.6742632
140.39262 -30.317577 -1.6689265
140.4425 -30.315563 -1.6659851
140.49237 -30.313557 -1.6630437
140.54123 -30.311848 -1.642535
140.59082 -30.309917 -1.6348025
140.55501 -30.333378 -0.16177845
140.60187 -30.332272 -0.10693312
140.64749 -30.331516 -0.031326175
140.6969 -30.329647 -0.02039957
140.74687 -30.32761 -0.019055247
140.7968 -30.325581 -0.016912341
140.84644 -30.323643 -0.0099785328
140.89668 -30.321522 -0.01342535
140.94641 -30.319553 -0.0080883503
140.99614 -30.317593 -0.0027515888
141.0463 -30.315495 -0.0046013594
141.09622 -30.313473 -0.0024584532
141.14627 -30.311413 -0.0027112961
141.19559 -30.309566 0.009812355
141.24542 -30.307568 0.013552189
141.29543 -30.305523 0.014097929
141.3454 -30.303478 0.015442252
141.39545 -30.301418 0.015189528
141.44542 -30.299381 0.016533852
141.49483 -30.297512 0.027460337
141.54507 -30.295391 0.024013519
141.59573 -30.29314 0.013379931
141.61172 -30.301205 0.59764671
141.66002 -30.299671 0.62773776
141.70255 -30.299839 0.75684595
141.75218 -30.297901 0.76377988
141.80209 -30.295879 0.76592255
141.8537 -30.293354 0.73931861
141.90674 -30.290409 0.68796039
141.95949 -30.287548 0.64139318
142.01184 -30.284794 0.60201287
142.06575 -30.28159 0.53548265
142.11823 -30.278805 0.49370646
142.17276 -30.27541 0.41679549
142.22562 -30.272518 0.36863136
142.28004 -30.269154 0.29331732
142.33401 -30.265926 0.22598839
142.38817 -30.262646 0.1554656
142.44348 -30.259014 0.064979672
142.49838 -30.255512 -0.018319607
142.55412 -30.251766 -0.11599231
142.60869 -30.248356 -0.19370186
142.66602 -30.244129 -0.31852436
142.72348 -30.239872 -0.44574249
139.2681 -30.55933 -1.9855039
139.31491 -30.558239 -1.92986
139.36162 -30.557163 -1.8726189
139.40833 -30.556095 -1.815378
139.45535 -30.554935 -1.7637267
139.5029 -30.553616 -1.7208593
139.55138 -30.552021 -1.6939621
139.60107 -30.55006 -1.6878269
139.65103 -30.548031 -1.6864823
139.70058 -30.546116 -1.6779513
139.75046 -30.544102 -1.6750102
139.8008 -30.541958 -1.6800539
139.85066 -30.539951 -1.6771126
139.90086 -30.537846 -1.6797609
139.95 -30.53606 -1.6640433
140.00038 -30.533901 -1.6698856
140.05063 -30.531773 -1.6733325
140.1004 -30.529797 -1.6687943
140.15022 -30.527805 -1.6650543
140.20169 -30.525318 -1.6892627
140.25133 -30.52338 -1.6823289
140.30106 -30.521404 -1.6769919
140.35069 -30.519466 -1.670058
140.40108 -30.517315 -1.6759005
140.45091 -30.515308 -1.6721606
140.50055 -30.513371 -1.6652266
140.54941 -30.511669 -1.6447177
140.59991 -30.509464 -1.6529558
140.56287 -30.533291 -0.15837169
140.61069 -30.531895 -0.12029529
140.65642 -30.531109 -0.046285391
140.70537 -30.529385 -0.027373552
140.75519 -30.527386 -0.023633599
140.80469 -30.525486 -0.014304161
140.85507 -30.523327 -0.020146608
140.90491 -30.521328 -0.016406775
140.95496 -30.519268 -0.016659498
141.00446 -30.517368 -0.0073299408
141.05452 -30.515301 -0.0075826645
141.10434 -30.513309 -0.0038428307
141.15381 -30.511425 0.0062851906
141.20372 -30.509396 0.0084279776
141.25397 -30.507282 0.0049811602
141.30399 -30.50523 0.0055270195
141.35358 -30.5033 0.013259411
141.40378 -30.501194 0.010611057
141.4536 -30.499203 0.01435101
141.50305 -30.497318 0.024478912
141.55312 -30.495251 0.024226189
141.60303 -30.493229 0.026369095
141.62019 -30.500942 0.59067249
141.66713 -30.499805 0.6439209
141.71063 -30.499683 0.75626016
141.7605 -30.497677 0.75920153
141.81042 -30.495663 0.76134419
141.8616 -30.493259 0.74192715
141.91585 -30.489948 0.66980696
141.9673 -30.487476 0.64559841
142.02113 -30.484287 0.58066535
142.07379 -30.481449 0.53569531
142.12674 -30.478527 0.48593378
142.18098 -30.475216 0.41381407
142.23412 -30.47224 0.3608588
142.28873 -30.468822 0.28235066
142.3428 -30.465565 0.2134248
142.39676 -30.462337 0.14609599
142.45143 -30.458904 0.066789508
142.50638 -30.455387 -0.017308474
142.56239 -30.451557 -0.1197722
142.61752 -30.447979 -0.20706403
142.67358 -30.444134 -0.31032646
142.7323 -30.439495 -0.45910466
142.79031 -30.435062 -0.59590495
142.85098 -30.429852 -0.77822113
142.91194 -30.424549 -0.96532857
139.27516 -30.759495 -1.9685223
139.32178 -30.75845 -1.9096842
139.36919 -30.757175 -1.864421
139.41605 -30.756062 -1.8095756
139.46284 -30.754971 -1.7539318
139.51006 -30.753742 -1.7054746
139.55965 -30.75182 -1.697742
139.60916 -30.74992 -1.6884127
139.65903 -30.747913 -1.6854711
139.709 -30.745876 -1.6841269
139.75914 -30.743778 -1.6859767
139.80898 -30.741787 -1.6822369
139.85936 -30.739628 -1.6880794
139.909 -30.737682 -1.6811453
139.95906 -30.735622 -1.6813982
140.00861 -30.733715 -1.6728671
140.05876 -30.731617 -1.6747169
140.10858 -30.729626 -1.6709771
140.15878 -30.72752 -1.6736255
140.20987 -30.725147 -1.6914456
140.25941 -30.723232 -1.6829147
140.30942 -30.72118 -1.682369
140.35912 -30.719227 -1.6762335
140.40926 -30.717136 -1.6780833
140.45923 -30.715099 -1.676739
140.50864 -30.71323 -1.6658125
140.55791 -30.711399 -1.6524904
140.60797 -30.709332 -1.6527431
140.57127 -30.733051 -0.1645472
140.61868 -30.731777 -0.11928403
140.66516 -30.73077 -0.058050632
140.71364 -30.729183 -0.03115344
140.76346 -30.727192 -0.027413607
140.81339 -30.725163 -0.0252707
140.86316 -30.723179 -0.020732403
140.91318 -30.721127 -0.020186663
140.96286 -30.719173 -0.014051199
141.01292 -30.717113 -0.014303923
141.06299 -30.715046 -0.014556766
141.11267 -30.713093 -0.0084211826
141.16231 -30.711155 -0.0014874935
141.21237 -30.709087 -0.0017402172
141.26205 -30.707134 0.0043952465
141.31239 -30.70499 -0.00064849854
141.36212 -30.703014 0.0046882629
141.41214 -30.70097 0.0052341223
141.46169 -30.699062 0.013765097
141.51146 -30.697071 0.018303394
141.5612 -30.69511 0.023640394
141.61139 -30.693005 0.020992041
141.62749 -30.701031 0.60366178
141.67583 -30.699482 0.63295436
141.71877 -30.699528 0.75487566
141.76872 -30.697491 0.7562201
141.81842 -30.695545 0.76235533
141.86949 -30.693172 0.74453521
141.92305 -30.690067 0.68439317
141.97641 -30.687023 0.62744522
142.02917 -30.684155 0.58087802
142.08258 -30.681095 0.52313161
142.13487 -30.678371 0.48454952
142.18935 -30.674984 0.40843701
142.24271 -30.671947 0.35148919
142.29747 -30.668484 0.27058554
142.3513 -30.665295 0.20565224
142.40512 -30.662113 0.14071894
142.46017 -30.658566 0.055024266
142.51535 -30.65498 -0.033066273
142.57114 -30.651218 -0.13153744
142.62634 -30.64761 -0.22042632
142.68301 -30.643589 -0.33406949
142.7403 -30.639378 -0.4580934
142.79761 -30.635151 -0.5829159
142.86043 -30.629299 -0.80196416
142.9231 -30.623493 -1.018617
139.28279 -30.959476 -1.9611228
139.33011 -30.958233 -1.9142625
139.3763 -30.95731 -1.8482378
139.42348 -30.956104 -1.798982
139.47073 -30.954876 -1.7513235
139.51796 -30.953648 -1.7028662
139.56798 -30.951603 -1.7023203
139.61752 -30.94968 -1.6937895
139.66721 -30.947735 -1.6876539
139.71741 -30.945629 -1.6903024
139.76718 -30.943638 -1.6857641
139.81674 -30.94173 -1.677233
139.86725 -30.939533 -1.6854709
139.91695 -30.937572 -1.6793355
139.96692 -30.935535 -1.6779913
140.01697 -30.933475 -1.678244
140.06665 -30.931515 -1.6721085
140.11685 -30.929417 -1.674757
140.16669 -30.927425 -1.6710171
140.21814 -30.924938 -1.6952255
140.26787 -30.92297 -1.6898887
140.31766 -30.920986 -1.6853502
140.36748 -30.918995 -1.6816103
140.41716 -30.917042 -1.6754749
140.46722 -30.914974 -1.6757277
140.51704 -30.912983 -1.6719879
140.56599 -30.911251 -1.6530759
140.61609 -30.909168 -1.6541274
140.58002 -30.932705 -0.17631221
140.62654 -30.931698 -0.11587715
140.67259 -30.930813 -0.04745698
140.72191 -30.928974 -0.034933329
140.77173 -30.926983 -0.031193495
140.82138 -30.925037 -0.024259448
140.87167 -30.922909 -0.028504848
140.92163 -30.920864 -0.027160525
140.97128 -30.918926 -0.020226479
141.02129 -30.916882 -0.019680977
141.07101 -30.914906 -0.014343977
141.12071 -30.912952 -0.0082085133
141.17072 -30.910908 -0.0076627731
141.22073 -30.908848 -0.007117033
141.27065 -30.906834 -0.0049741268
141.32071 -30.904766 -0.0052268505
141.37073 -30.902714 -0.0046811104
141.42004 -30.900875 0.0078424215
141.46973 -30.898922 0.013977885
141.51974 -30.896862 0.014523625
141.56979 -30.894802 0.014270902
141.61986 -30.892735 0.014018178
141.63612 -30.900715 0.5934937
141.68237 -30.899784 0.65872002
141.72749 -30.899181 0.74311066
141.77724 -30.897221 0.74844766
141.82692 -30.895267 0.75458312
141.87814 -30.892849 0.73436737
141.93141 -30.889835 0.67901635
141.9845 -30.886875 0.62685943
142.03772 -30.883862 0.57230711
142.09062 -30.880955 0.52334452
142.14398 -30.877918 0.46639633
142.19777 -30.874737 0.40226173
142.25089 -30.871761 0.34930646
142.30519 -30.868443 0.27638793
142.3591 -30.865223 0.20985758
142.41302 -30.862019 0.14332736
142.46815 -30.85844 0.056035519
142.52344 -30.854832 -0.033651948
142.57977 -30.850903 -0.14170539
142.63481 -30.847347 -0.22740018
142.69116 -30.843418 -0.33545375
142.74852 -30.839184 -0.46107471
142.80807 -30.834293 -0.62422633
142.86511 -30.830158 -0.74425769
139.29083 -31.159344 -1.9609101
139.33852 -31.157993 -1.9204381
139.38489 -31.157017 -1.8576074
139.43193 -31.155849 -1.8059561
139.47882 -31.154728 -1.7519093
139.52632 -31.153423 -1.7082431
139.57587 -31.151508 -1.6997123
139.62584 -31.149471 -1.698368
139.67575 -31.147449 -1.6962249
139.72549 -31.145481 -1.6908882
139.7755 -31.143429 -1.6903424
139.82524 -31.14146 -1.6850057
139.87515 -31.139439 -1.6828628
139.92447 -31.137592 -1.6703391
139.97533 -31.135296 -1.6841668
140.02519 -31.133289 -1.6812254
140.07503 -31.13129 -1.6774856
140.12485 -31.129299 -1.6737458
140.17519 -31.127155 -1.6787896
140.2265 -31.124706 -1.7006025
140.27609 -31.122784 -1.6928701
140.32573 -31.120838 -1.6859361
140.37575 -31.118793 -1.6853902
140.42557 -31.116802 -1.6816504
140.4754 -31.114803 -1.6779107
140.52504 -31.112865 -1.6709766
140.57454 -31.110966 -1.6616471
140.6246 -31.108898 -1.6619
140.58783 -31.132641 -0.17210698
140.63495 -31.131451 -0.12205267
140.68124 -31.130505 -0.057625055
140.72995 -31.128841 -0.034720659
140.77997 -31.126797 -0.034174919
140.82988 -31.124767 -0.032032013
140.87976 -31.122761 -0.029090643
140.9294 -31.120815 -0.022156715
140.97949 -31.11874 -0.023207903
141.02937 -31.116734 -0.020266771
141.07887 -31.114834 -0.010937214
141.12903 -31.112743 -0.012786984
141.1788 -31.11076 -0.0082485676
141.22878 -31.108723 -0.0069043636
141.27869 -31.106701 -0.0047614574
141.3287 -31.104649 -0.0042157173
141.37857 -31.102634 -0.0012744665
141.42841 -31.100643 0.0024654865
141.47804 -31.098705 0.0093994141
141.52795 -31.096676 0.011542201
141.57765 -31.09473 0.017677665
141.59843 -31.10136 0.51969647
141.64514 -31.100292 0.57693744
141.6911 -31.099445 0.64695454
141.7354 -31.099094 0.74571896
141.78519 -31.097111 0.75025749
141.83478 -31.095188 0.75798988
141.88641 -31.092648 0.73058724
141.94 -31.089535 0.66964674
141.99263 -31.086712 0.62547493
142.04533 -31.083858 0.57970643
142.09889 -31.080761 0.51956463
142.1523 -31.077702 0.46181774
142.20547 -31.074703 0.40806389
142.25967 -31.071415 0.33674264
142.31403 -31.068081 0.26302576
142.36734 -31.065037 0.20687616
142.42186 -31.061649 0.12996507
142.4762 -31.058308 0.056248188
142.53137 -31.054722 -0.031842232
142.58725 -31.050938 -0.13191044
142.64308 -31.047153 -0.23118019
142.69989 -31.043079 -0.34721899
142.75781 -31.038685 -0.48242223
142.81551 -31.034344 -0.61363292
142.87595 -31.029202 -0.79195642
142.94127 -31.022602 -1.0541251
143.0058 -31.016232 -1.3027189
139.29779 -31.359524 -1.9423312
139.34492 -31.358334 -1.892277
139.39211 -31.357121 -1.8430212
139.43909 -31.355976 -1.7905713
139.48627 -31.354771 -1.7413156
139.53445 -31.353252 -1.7096274
139.58395 -31.35136 -1.7002978
139.63397 -31.3493 -1.6997523
139.6837 -31.34734 -1.6944151
139.73367 -31.345303 -1.6930709
139.78363 -31.343258 -1.6917267
139.83351 -31.341251 -1.6887853
139.88333 -31.33926 -1.6850455
139.93312 -31.337276 -1.6805071
139.98341 -31.335148 -1.6847525
140.0336 -31.333042 -1.6874008
140.08316 -31.331127 -1.6788697
140.13312 -31.32909 -1.6775256
140.18314 -31.327045 -1.6769798
140.23445 -31.324596 -1.6987927
140.28432 -31.32259 -1.6958514
140.33377 -31.320705 -1.6857233
140.38374 -31.318668 -1.684379
140.43394 -31.316563 -1.6870273
140.48367 -31.314594 -1.6816905
140.53331 -31.312656 -1.6747565
140.58281 -31.310757 -1.665427
140.63292 -31.308674 -1.6664783
140.59512 -31.332729 -0.1591177
140.64258 -31.33144 -0.11465311
140.68867 -31.330547 -0.047031522
140.73817 -31.328648 -0.037701845
140.78799 -31.326656 -0.033962011
140.8381 -31.324574 -0.035013199
140.88799 -31.322567 -0.032072067
140.93785 -31.320553 -0.029130697
140.98778 -31.318531 -0.026987791
141.03755 -31.316555 -0.022449493
141.08748 -31.314526 -0.020306587
141.1373 -31.312534 -0.016566753
141.18759 -31.310406 -0.020812273
141.23737 -31.308414 -0.016273856
141.28687 -31.306522 -0.0069442987
141.33675 -31.304516 -0.0040029287
141.38699 -31.302387 -0.0074498653
141.43631 -31.300549 0.0050737858
141.4865 -31.298443 0.0024255514
141.53674 -31.296322 -0.0010213852
141.5869 -31.294231 -0.0028712749
141.6358 -31.292515 0.016839147
141.65211 -31.300472 0.5955162
141.69948 -31.299213 0.64157796
141.7438 -31.298847 0.73954344
141.79346 -31.296909 0.7464776
141.84309 -31.294971 0.75341129
141.89482 -31.2924 0.72441196
141.94781 -31.289471 0.67385197
142.00095 -31.286495 0.62089682
142.05408 -31.283512 0.56794143
142.10748 -31.280453 0.51019502
142.16075 -31.277439 0.454844
142.21361 -31.27454 0.40667963
142.26837 -31.271076 0.3257761
142.32196 -31.267963 0.2648356
142.37598 -31.264721 0.1967082
142.4306 -31.261303 0.11820006
142.48587 -31.257687 0.028512716
142.5403 -31.254322 -0.046801329
142.59576 -31.25066 -0.13968277
142.65312 -31.246418 -0.26530385
142.7092 -31.242573 -0.36856627
142.76558 -31.238628 -0.4774183
142.82471 -31.23386 -0.63338315
142.88222 -31.229588 -0.76139975
139.3076 -31.558865 -1.9724624
139.35422 -31.557827 -1.9136245
139.40103 -31.556721 -1.8579805
139.44838 -31.555462 -1.8119187
139.49509 -31.554394 -1.7546779
139.54277 -31.553036 -1.714206
139.59251 -31.551067 -1.708869
139.64238 -31.549053 -1.7059277
139.69226 -31.547047 -1.7029862
139.74203 -31.545071 -1.6984479
139.7921 -31.542995 -1.6987008
139.84183 -31.541035 -1.6933639
139.89175 -31.539013 -1.691221
139.94189 -31.536915 -1.6930708
139.99112 -31.535107 -1.6789502
140.04132 -31.533001 -1.6815984
140.09161 -31.530865 -1.6858438
140.14125 -31.528927 -1.67891
140.19159 -31.526775 -1.6839539
140.24268 -31.524403 -1.7017741
140.29231 -31.522465 -1.6948402
140.34251 -31.520359 -1.6974885
140.39197 -31.518475 -1.6873604
140.44235 -31.516315 -1.6932029
140.49185 -31.514416 -1.6838734
140.54182 -31.512379 -1.682529
140.59085 -31.510624 -1.6652143
140.64114 -31.50848 -1.6694597
140.60385 -31.532383 -0.17088294
140.65242 -31.530758 -0.14558291
140.69792 -31.530048 -0.067580462
140.74654 -31.528416 -0.043078899
140.79651 -31.526379 -0.041734576
140.84633 -31.52438 -0.037994623
140.89607 -31.522411 -0.032657862
140.94626 -31.520306 -0.035306215
140.99576 -31.518406 -0.025976658
141.04559 -31.516415 -0.022236824
141.09557 -31.51437 -0.020892501
141.14571 -31.512287 -0.022742271
141.19568 -31.51025 -0.021398067
141.24545 -31.508266 -0.01685977
141.2952 -31.506298 -0.01152277
141.34529 -31.504223 -0.012573957
141.39522 -31.502193 -0.01043129
141.44481 -31.500271 -0.0026986599
141.49469 -31.498264 0.00024271011
141.54456 -31.49625 0.0031838417
141.59428 -31.494282 0.0085208416
141.64407 -31.492298 0.013059139
141.66052 -31.500225 0.58934069
141.70891 -31.498661 0.61783504
141.75208 -31.498638 0.73576355
141.80154 -31.496754 0.74589157
141.85146 -31.494732 0.74803448
141.90393 -31.491947 0.70625854
141.95567 -31.489384 0.67725897
142.00871 -31.486439 0.62590051
142.0623 -31.483318 0.56496
142.11566 -31.480274 0.50801182
142.16922 -31.477177 0.44786978
142.22263 -31.47411 0.39012337
142.27567 -31.471165 0.33876526
142.33057 -31.467663 0.25546598
142.38434 -31.464489 0.19133127
142.43835 -31.461246 0.12320387
142.49391 -31.457546 0.028725386
