# .PCD v0.7 - Point Cloud Data file format
VERSION 0.7
FIELDS x y z
SIZE 4 4 4
TYPE F F F
COUNT 1 1 1
WIDTH 1560
HEIGHT 1
VIEWPOINT 0 0 0 1 0 0 0
POINTS 1560
DATA ascii
32.750015 -53.42746 2.1116796
32.753845 -53.475288 2.0280895
32.757813 -53.523022 1.9405041
32.762115 -53.570518 1.8441277
32.766571 -53.617912 1.7437563
32.771332 -53.6651 1.6353931
32.776779 -53.711826 1.5094485
32.782837 -53.758137 1.3675213
32.789948 -53.803738 1.1984239
32.538422 -51.773911 1.8912077
32.533737 -51.827515 2.0289798
32.52887 -51.881245 2.1715465
32.528732 -51.931767 2.1910453
32.529053 -51.981956 2.1977582
32.529495 -52.032082 2.2020736
32.529846 -52.082268 2.2087865
32.53035 -52.132351 2.2115035
32.531067 -52.182289 2.2086267
32.53186 -52.232162 2.2033525
32.532761 -52.281975 2.1956806
32.533447 -52.331932 2.193603
32.533859 -52.38208 2.1987176
32.53421 -52.43227 2.2054305
32.53392 -52.482895 2.2289252
32.536118 -52.531811 2.1868906
32.536163 -52.582207 2.2015948
32.535019 -52.633415 2.2474656
32.536072 -52.683121 2.2357979
32.522415 -52.742817 2.6069188
32.518417 -52.795944 2.7263103
32.518463 -52.84634 2.741014
32.518967 -52.896423 2.7437315
32.51944 -52.946526 2.7472477
32.522461 -52.994904 2.6844354
32.525177 -53.043484 2.6296144
32.528183 -53.091858 2.5668025
32.53067 -53.140587 2.5175753
32.533569 -53.189045 2.4579597
32.53653 -53.237461 2.3967457
32.539917 -53.285583 2.3243432
32.542892 -53.333981 2.2623305
32.546768 -53.381767 2.1771421
32.549789 -53.430145 2.1143298
32.553665 -53.477936 2.0291414
32.557892 -53.525497 1.935163
32.562286 -53.572933 1.8363891
32.566559 -53.620453 1.7408123
32.571686 -53.667389 1.6228595
32.576462 -53.714577 1.5144958
32.58313 -53.760468 1.3565865
32.335205 -51.778618 1.9713736
32.332916 -51.830597 2.0468125
32.331787 -51.881783 2.0918841
32.329071 -51.934059 2.1785107
32.329346 -51.984287 2.1868219
32.330246 -52.0341 2.1791506
32.33049 -52.084347 2.1882606
32.330719 -52.134621 2.1981702
32.331711 -52.184372 2.1881013
32.332581 -52.2342 2.1812282
32.333298 -52.284142 2.1783514
32.334106 -52.334015 2.1730776
32.334488 -52.384182 2.1789908
32.334427 -52.434643 2.1960926
32.335083 -52.484619 2.1948142
32.33606 -52.53437 2.1847448
32.337051 -52.584122 2.1746759
32.337341 -52.634346 2.1829872
32.334259 -52.686871 2.2792034
32.32254 -52.745251 2.599978
32.318542 -52.798378 2.7193699
32.318222 -52.849026 2.7436633
32.319031 -52.898895 2.7383895
32.319595 -52.94894 2.7395082
32.322464 -52.997421 2.6806912
32.325363 -53.045876 2.6210756
32.328247 -53.094334 2.56146
32.330734 -53.143063 2.5122328
32.333847 -53.191376 2.4470234
32.33699 -53.239666 2.3810148
32.339859 -53.288147 2.3221979
32.343048 -53.336395 2.254591
32.346771 -53.384289 2.1733985
32.35025 -53.43235 2.098599
32.353271 -53.480721 2.0357866
32.358047 -53.527912 1.9274235
32.361801 -53.575783 1.8454318
32.366486 -53.623013 1.7386665
32.371933 -53.669739 1.6127224
32.376343 -53.717175 1.5139489
32.382614 -53.76334 1.3664279
32.135651 -51.780842 1.9564428
32.134064 -51.832344 2.0135016
32.131683 -51.884384 2.0913382
32.129211 -51.936489 2.1715713
32.1297 -51.986572 2.1742887
32.130356 -52.036552 2.1730103
32.130829 -52.086658 2.1765261
32.131393 -52.136696 2.1776452
32.132202 -52.186577 2.1723709
32.132156 -52.237011 2.1886735
32.133408 -52.286598 2.1722112
32.134064 -52.336575 2.1709328
32.134033 -52.387012 2.1872349
32.134872 -52.436867 2.1811619
32.135376 -52.48695 2.1838789
32.136734 -52.536453 2.1642199
32.137634 -52.586262 2.1565485
32.138016 -52.636429 2.1624622
32.136032 -52.688202 2.2299094
32.123077 -52.747414 2.5826497
32.119431 -52.800316 2.6932511
32.118546 -52.851334 2.7319293
32.119354 -52.901207 2.726655
32.11998 -52.95121 2.7261758
32.122849 -52.999687 2.6673589
32.125259 -53.048477 2.6205297
32.128204 -53.096893 2.5593157
32.130753 -53.145584 2.5084901
32.133743 -53.193977 2.4464769
32.136673 -53.242413 2.3860621
32.139877 -53.290665 2.3184547
32.143311 -53.338745 2.2444549
32.14679 -53.386803 2.1696553
32.150085 -53.43499 2.0996509
32.153595 -53.483032 2.0240521
32.157791 -53.530617 1.9308729
32.161972 -53.578201 1.8376932
32.166168 -53.625759 1.7437143
32.171341 -53.672676 1.6249623
32.176544 -53.719566 1.5054111
32.182327 -53.766068 1.3706765
32.189758 -53.81144 1.1927881
31.935272 -51.78363 1.9630885
31.934235 -51.834755 2.0057631
31.932861 -51.886108 2.0572276
31.929474 -51.938843 2.1614356
31.929932 -51.988945 2.1649518
31.930527 -52.038971 2.1652718
31.930939 -52.089115 2.1703858
31.931564 -52.139114 2.1699066
31.932053 -52.189198 2.1726241
31.932571 -52.239258 2.1745415
31.933441 -52.289093 2.1676693
31.933304 -52.339615 2.1871686
31.934723 -52.389072 2.1659112
31.935135 -52.43922 2.1710258
31.935913 -52.489113 2.1665511
31.936279 -52.539284 2.1724644
31.93602 -52.589886 2.1951599
31.934555 -52.641304 2.249022
31.936874 -52.690155 2.2045898
31.923096 -52.749935 2.578907
31.919815 -52.802582 2.6799183
31.918839 -52.853668 2.720994
31.919312 -52.90377 2.7245102
31.920029 -52.953705 2.7216339
31.923019 -53.002102 2.6596203
31.925613 -53.050766 2.607996
31.928055 -53.099518 2.5595684
31.931046 -53.147911 2.4975548
31.933823 -53.196457 2.4411359
31.93721 -53.244576 2.3687339
31.939774 -53.293266 2.3179088
31.943268 -53.341305 2.24231
31.946869 -53.389282 2.1643143
31.949982 -53.437595 2.0991044
31.954102 -53.485218 2.0075231
31.957901 -53.533073 1.9247327
31.962051 -53.580673 1.8323517
31.966339 -53.628174 1.7359757
31.971268 -53.675255 1.6236172
31.976776 -53.721939 1.4960742
31.982651 -53.768379 1.358942
31.9888 -53.814625 1.2146177
31.736771 -51.78513 1.920188
31.734818 -51.83688 1.9868364
31.732986 -51.888546 2.0502882
31.72876 -51.941841 2.1760726
31.728973 -51.992111 2.1859822
31.729935 -52.041885 2.1767125
31.730591 -52.091862 2.1754336
31.730881 -52.14209 2.1837449
31.731812 -52.191883 2.1752744
31.732971 -52.241508 2.1604099
31.733826 -52.291363 2.1543365
31.733734 -52.341843 2.1722374
31.734146 -52.391991 2.177352
31.734741 -52.442009 2.1776719
31.735397 -52.491989 2.1763935
31.735489 -52.542343 2.1894989
31.737747 -52.59124 2.1466651
31.735733 -52.643028 2.2149119
31.735886 -52.693344 2.2264194
31.723526 -52.752159 2.5639763
31.719391 -52.805393 2.6873636
31.718994 -52.856079 2.7132554
31.719315 -52.906288 2.7207675
31.719818 -52.956371 2.723485
31.722809 -53.004768 2.6614714
31.725739 -53.053204 2.6010566
31.728439 -53.101784 2.546236
31.731232 -53.150307 2.489017
31.7341 -53.198784 2.4302011
31.737091 -53.247181 2.3681879
31.740112 -53.295555 2.3053751
31.743546 -53.343636 2.2313752
31.74678 -53.391865 2.1629691
31.749985 -53.440113 2.0953612
31.754227 -53.487656 2.0005836
31.757858 -53.535614 1.9217887
31.762238 -53.583069 1.8238139
31.766678 -53.630463 1.7234426
31.771545 -53.677589 1.6126819
31.776443 -53.724689 1.501122
31.78215 -53.771233 1.3679852
31.788025 -53.817665 1.2308531
31.796722 -53.862183 1.0201998
31.80806 -53.904907 0.74082088
31.537247 -51.787338 1.904458
31.535263 -51.839104 1.9719057
31.530548 -51.892731 2.1104765
31.528564 -51.944504 2.1779237
31.528687 -51.994843 2.1902308
31.529251 -52.044884 2.1913495
31.530273 -52.094612 2.1804814
31.531052 -52.144508 2.1760063
31.531403 -52.194695 2.1827192
31.531891 -52.244774 2.1854362
31.533188 -52.294319 2.1673756
31.533813 -52.344318 2.1668963
31.534439 -52.394318 2.1664166
31.53479 -52.444508 2.1731296
31.535019 -52.494778 2.1830392
31.535873 -52.544613 2.1761665
31.535583 -52.595238 2.1996613
31.539093 -52.643276 2.124063
31.538696 -52.693966 2.1499548
31.523422 -52.754765 2.5634298
31.521362 -52.80658 2.6324759
31.519012 -52.858597 2.7095127
31.519485 -52.908703 2.7130289
31.520538 -52.958412 2.7013617
31.522583 -53.007454 2.6641216
31.525818 -53.055679 2.5957155
31.528351 -53.104366 2.5448904
31.531342 -53.152763 2.4828768
31.534088 -53.201324 2.4272571
31.537018 -53.249763 2.3668423
31.540405 -53.297886 2.2944398
31.543503 -53.346199 2.2292304
31.547165 -53.394135 2.1496363
31.5504 -53.44236 2.0812297
31.554214 -53.490192 1.9976401
31.558167 -53.537945 1.9108539
31.562317 -53.585548 1.8184729
31.566666 -53.633003 1.7204986
31.57132 -53.680275 1.6153321
31.576645 -53.727081 1.4925838
31.582397 -53.773605 1.3586483
31.588333 -53.819996 1.2199183
31.596146 -53.865097 1.0316405
31.34317 -51.785831 1.7464805
31.336197 -51.841 1.9441876
31.33371 -51.893105 2.0244212
31.325531 -51.949089 2.2532945
31.3293 -51.996941 2.1705041
31.329773 -52.047047 2.1740203
31.330154 -52.097214 2.179934
31.330444 -52.147442 2.1882453
31.331223 -52.197338 2.1837702
31.332474 -52.246899 2.1665087
31.333649 -52.296524 2.1516447
31.334549 -52.346336 2.1439734
31.335205 -52.396317 2.1426945
31.335617 -52.446465 2.147809
31.336304 -52.496422 2.1457314
31.335083 -52.547672 2.1932001
31.33493 -52.598194 2.2126994
31.335495 -52.648232 2.2138186
31.334015 -52.699673 2.2684793
31.323425 -52.757282 2.5596862
31.322571 -52.808285 2.5975652
31.319412 -52.860847 2.6953797
31.319611 -52.91114 2.7060885
31.320297 -52.961098 2.704011
31.323044 -53.009659 2.6483908
31.326035 -53.058052 2.5863776
31.328384 -53.106865 2.5403476
31.331284 -53.155323 2.4807315
31.334213 -53.203762 2.4203167
31.337173 -53.252174 2.3591027
31.3405 -53.300343 2.2882986
31.343353 -53.34882 2.2294822
31.346802 -53.396904 2.1554823
31.350098 -53.445091 2.0854774
31.354553 -53.492485 1.9851055
31.358093 -53.540504 1.9087081
31.362259 -53.588108 1.8163276
31.366516 -53.635628 1.7207503
31.371078 -53.682961 1.6179814
31.377563 -53.728977 1.4648662
31.383041 -53.775684 1.3381228
31.388824 -53.822182 1.2033877
31.139694 -51.790726 1.8338394
31.135529 -51.843979 1.9580259
31.134384 -51.895187 2.0038967
31.129913 -51.948647 2.1360741
31.129715 -51.999191 2.1563725
31.130157 -52.049316 2.1606879
31.13118 -52.099045 2.1498194
31.131592 -52.149189 2.1549339
31.132462 -52.199024 2.1480618
31.133102 -52.249001 2.1467829
31.133759 -52.298981 2.1455045
31.13501 -52.348564 2.1290426
31.135941 -52.398357 2.1205711
31.136383 -52.448483 2.124887
31.136627 -52.498734 2.1339974
31.135254 -52.550087 2.1854615
31.13443 -52.601067 2.2225418
31.137451 -52.649437 2.15973
31.137619 -52.699753 2.171237
31.124146 -52.759323 2.5375628
31.121719 -52.811386 2.6161985
31.1194 -52.863388 2.6924362
31.119934 -52.913448 2.6943541
31.120926 -52.9632 2.6842852
31.123306 -53.012009 2.6382546
31.126175 -53.06049 2.5794382
31.129181 -53.108864 2.5166259
31.131607 -53.157635 2.468997
31.134293 -53.206238 2.4149756
31.137283 -53.254631 2.3529625
31.140244 -53.303047 2.291748
31.143646 -53.351151 2.2185473
31.146973 -53.399315 2.1477437
31.150818 -53.447128 2.063354
31.154297 -53.49519 1.988555
31.158203 -53.542961 1.9025679
31.162399 -53.590546 1.8093877
31.166748 -53.638 1.7114134
31.171829 -53.684978 1.5950589
31.177246 -53.731728 1.4699135
31.182648 -53.778473 1.3447685
30.933563 -51.746994 1.974421
30.934738 -51.796623 1.9595571
30.935028 -51.846851 1.9678683
30.934708 -51.897495 1.9921622
30.930084 -51.951061 2.1283355
30.929977 -52.001541 2.1462364
30.930511 -52.051605 2.1481547
30.931015 -52.101688 2.1508713
30.93219 -52.151314 2.1360078
30.932602 -52.201458 2.1411223
30.933121 -52.251518 2.1430402
30.933563 -52.301647 2.1473556
30.934586 -52.351376 2.1364875
30.935181 -52.401398 2.136807
30.936081 -52.45121 2.1291356
30.937027 -52.500999 2.1206646
30.936676 -52.551647 2.144958
30.934326 -52.603668 2.2219954
30.935562 -52.653252 2.2055335
30.939529 -52.700981 2.1179476
30.923615 -52.762215 2.5482044
30.922943 -52.813095 2.5812893
30.919785 -52.865654 2.6791034
30.919952 -52.91597 2.6906114
30.920609 -52.96595 2.689333
30.923447 -53.014446 2.6313152
30.926132 -53.063049 2.5772934
30.929016 -53.111507 2.5176778
30.931473 -53.160255 2.4692497
30.933823 -53.209091 2.4240189
30.937729 -53.256859 2.3380318
30.940384 -53.305485 2.2848086
30.94397 -53.353462 2.2068129
30.947235 -53.401669 2.1376076
30.950592 -53.449814 2.0660043
30.954315 -53.497707 1.9848123
30.958466 -53.545315 1.8924317
30.962204 -53.593208 1.8112388
30.966949 -53.640392 1.7028761
30.971725 -53.68758 1.5945129
30.976852 -53.734512 1.4765596
30.9823 -53.781242 1.3506155
30.988663 -53.827347 1.2006969
30.99649 -53.872448 1.0124197
30.730484 -51.650764 2.0195851
30.731781 -51.70031 2.0015249
30.7332 -51.749763 1.980268
30.734619 -51.799225 1.9590106
30.736008 -51.848701 1.9385529
30.73201 -51.901848 2.0587435
30.73024 -51.953476 2.1205969
30.730942 -52.003414 2.1177201
30.730759 -52.053955 2.1380186
30.730835 -52.104332 2.1519232
30.731583 -52.154247 2.1482472
30.732697 -52.203915 2.1349821
30.733337 -52.253891 2.1337032
30.733841 -52.303978 2.1364202
30.734314 -52.35408 2.1399369
30.735031 -52.404022 2.1370597
30.735443 -52.454166 2.1421742
30.734482 -52.505249 2.1832504
30.73613 -52.554543 2.1556001
30.737946 -52.603729 2.1239543
30.739929 -52.652809 2.0883126
30.739624 -52.703438 2.1118073
30.724106 -52.764404 2.5316753
30.722885 -52.815651 2.5791445
30.719696 -52.868237 2.6777582
30.720474 -52.918133 2.6732831
30.721313 -52.967987 2.6672096
30.723511 -53.016922 2.6259742
30.726257 -53.065483 2.570354
30.728851 -53.114128 2.5179305
30.73175 -53.16259 2.4583149
30.734161 -53.21138 2.4114852
30.737549 -53.259506 2.3390837
30.740417 -53.307983 2.2802668
30.744186 -53.355835 2.1974759
30.74675 -53.404522 2.1466508
30.750534 -53.452377 2.0638599
30.754074 -53.500397 1.9874625
30.758255 -53.547981 1.8942828
30.762482 -53.595539 1.8003039
30.766647 -53.64312 1.7071242
30.771332 -53.690369 1.6011586
30.776642 -53.737183 1.4784107
30.782211 -53.783825 1.3492699
30.788788 -53.829781 1.1937575
30.796677 -53.87484 1.0038819
30.804123 -53.920212 0.82599354
30.534439 -51.852306 1.9763651
30.531097 -51.904991 2.0789752
30.531296 -51.955284 2.0896831
30.531296 -52.005703 2.1051869
30.531433 -52.056038 2.1174936
30.531494 -52.106415 2.1313987
30.532028 -52.156471 2.1333165
30.53244 -52.206619 2.1384311
30.533173 -52.256538 2.1347551
30.53392 -52.306458 2.1310792
30.534882 -52.356224 2.1218095
30.535294 -52.406372 2.1269236
30.535828 -52.456436 2.1288419
30.537094 -52.505997 2.1115804
30.538361 -52.555557 2.0943189
30.539169 -52.605431 2.089045
30.54071 -52.654808 2.0645914
30.536789 -52.707893 2.1823845
30.52478 -52.766483 2.5111504
30.522339 -52.81855 2.5897861
30.520142 -52.870461 2.662827
30.520554 -52.920609 2.667942
30.521118 -52.97065 2.6690607
30.523254 -53.01963 2.6294231
30.526276 -53.068001 2.5666113
30.528961 -53.116585 2.5117903
30.531677 -53.165169 2.4569693
30.534576 -53.213631 2.3973536
30.537262 -53.26223 2.3433318
30.540588 -53.310394 2.2725282
30.543839 -53.358604 2.2033229
30.547165 -53.406769 2.1325192
30.550644 -53.45483 2.0577197
30.554367 -53.502724 1.9765272
30.558121 -53.550598 1.8945355
30.562119 -53.598309 1.8061504
30.567062 -53.645367 1.6929927
30.571716 -53.692635 1.5878263
30.576752 -53.739635 1.4722705
30.582504 -53.786156 1.3383346
30.331711 -51.856682 2.043745
30.330856 -51.907677 2.081624
30.33075 -51.958179 2.1003237
30.331116 -52.008347 2.1062379
30.33168 -52.058388 2.1073565
30.332169 -52.108475 2.1100736
30.332367 -52.15876 2.1207824
30.333084 -52.208702 2.1179056
30.33342 -52.258888 2.1246181
30.328888 -52.312393 2.2583942
30.330231 -52.361908 2.2395349
30.32428 -52.416374 2.4100709
30.327301 -52.464745 2.3472586
30.336761 -52.508743 2.1166272
30.337891 -52.558392 2.1025624
30.338989 -52.608078 2.090096
30.343597 -52.655365 1.9857283
30.345078 -52.704784 1.962873
30.324432 -52.769234 2.5161972
30.323669 -52.820168 2.5516791
30.320328 -52.872856 2.6542883
30.320648 -52.923065 2.6618009
30.321243 -52.973087 2.6621203
30.323441 -53.022022 2.6208849
30.326431 -53.070419 2.5588717
30.328934 -53.119125 2.5088458
30.33165 -53.167709 2.4540248
30.334732 -53.216042 2.3896141
30.33754 -53.264561 2.332396
30.340469 -53.312996 2.2719808
30.34375 -53.361183 2.2019763
30.347443 -53.409096 2.121583
30.350861 -53.457203 2.0483818
30.354462 -53.50518 1.970386
30.358002 -53.5532 1.8939886
30.362534 -53.600555 1.7920179
30.366028 -53.648594 1.7164197
30.371033 -53.695614 1.6016636
30.376175 -53.742554 1.4837103
30.381958 -53.789051 1.3489757
30.130142 -51.809845 2.0652547
30.132431 -51.858719 2.0216217
30.131729 -51.909615 2.0555053
30.1315 -51.960197 2.0774016
30.131531 -52.010597 2.0921059
30.131622 -52.060951 2.1052122
30.132126 -52.111031 2.1079288
30.13269 -52.161072 2.1090479
30.133286 -52.211098 2.1093678
30.133896 -52.261093 2.1088881
30.13385 -52.311554 2.1259899
30.132751 -52.36272 2.1702623
30.132309 -52.413452 2.1977525
30.132416 -52.463806 2.2108588
30.132553 -52.514137 2.2231655
30.133377 -52.563995 2.217092
30.139008 -52.610596 2.0863528
30.147141 -52.655487 1.8900847
30.146545 -52.706322 1.9215703
30.124512 -52.771706 2.5108562
30.12439 -52.822208 2.5295563
30.120407 -52.875336 2.6489472
30.120697 -52.92556 2.6572585
30.121567 -52.975395 2.6503863
30.123856 -53.024269 2.6067529
30.126007 -53.073227 2.5663166
30.12944 -53.121307 2.4923167
30.131912 -53.170059 2.4438887
30.134995 -53.218391 2.379478
30.13765 -53.267017 2.3262558
30.140945 -53.315205 2.2562509
30.144073 -53.363495 2.1902423
30.147095 -53.411865 2.12743
30.150482 -53.459991 2.0550275
30.154602 -53.507614 1.9634466
30.158508 -53.555389 1.877459
30.162384 -53.60318 1.7922707
30.166931 -53.650509 1.6895018
30.17157 -53.697777 1.5843353
30.176346 -53.744965 1.4759717
30.182312 -53.791336 1.336442
30.188034 -53.837875 1.2033057
30.195831 -53.882999 1.0158272
29.934875 -51.859589 1.9547467
29.934326 -51.910381 1.9846349
29.933487 -51.96138 2.0225139
29.932892 -52.012196 2.0532012
29.932968 -52.062572 2.0671062
29.932678 -52.113197 2.0906005
29.9328 -52.163528 2.1029077
29.933548 -52.213448 2.0992317
29.933762 -52.263718 2.1091409
29.93457 -52.313591 2.1038666
29.934372 -52.364155 2.1249642
29.93512 -52.41407 2.1212878
29.935257 -52.464409 2.133595
29.936371 -52.514072 2.1203294
29.938171 -52.563263 2.0886831
29.944824 -52.609177 1.9315729
29.945389 -52.659218 1.9326916
29.946533 -52.708862 1.9186268
29.947403 -52.758698 1.9117541
29.92392 -52.825058 2.5385995
29.920303 -52.877937 2.6484008
29.921021 -52.927872 2.6455245
29.921219 -52.978165 2.6562328
29.923721 -53.026894 2.6070056
29.926453 -53.075455 2.5513859
29.929184 -53.124016 2.4957662
29.931747 -53.172707 2.4449406
29.934891 -53.220993 2.3789315
29.937698 -53.269516 2.3217134
29.940964 -53.317726 2.2525077
29.944214 -53.365929 2.1833024
29.947205 -53.414322 2.1212897
29.950958 -53.462196 2.0392976
29.954712 -53.510071 1.9573064
29.95871 -53.557781 1.8689218
29.962753 -53.605469 1.7797375
29.966858 -53.653091 1.6881561
29.972031 -53.700005 1.5694041
29.976364 -53.747482 1.4722285
29.981903 -53.794151 1.3438869
29.989334 -53.83952 1.1659989
29.996765 -53.884895 0.98811007
29.736511 -51.861004 1.9086494
29.734833 -51.912567 1.9681058
29.733536 -51.963882 2.017972
29.732758 -52.01482 2.0534539
29.732529 -52.065407 2.0753503
29.732788 -52.115654 2.0844603
29.733215 -52.165779 2.0887761
29.73317 -52.216236 2.1058779
29.73378 -52.266235 2.1053982
29.734375 -52.316257 2.1057181
29.735214 -52.366112 2.0996447
29.735382 -52.416428 2.1111522
29.736099 -52.466362 2.1082754
29.737061 -52.516132 2.0990057
29.738998 -52.565239 2.0641627
29.745728 -52.611092 1.904655
29.746201 -52.661194 1.9081712
29.746552 -52.71138 1.9148836
29.748672 -52.760361 1.8752465
29.72464 -52.827099 2.5164762
29.720535 -52.88031 2.6390643
29.721039 -52.930389 2.6417813
29.721878 -52.980247 2.6357083
29.723984 -53.029243 2.5968699
29.726593 -53.077888 2.5444465
29.729202 -53.126534 2.492023
29.731949 -53.175098 2.4364028
29.734573 -53.223743 2.3839793
29.737839 -53.27195 2.314774
29.741409 -53.31995 2.237577
29.74408 -53.368553 2.1835556
29.746872 -53.417072 2.1263371
29.750793 -53.464844 2.0403495
29.754639 -53.512653 1.9559608
29.758118 -53.560715 1.8811612
29.762955 -53.607861 1.7711997
29.766815 -53.655651 1.6860113
29.77182 -53.702671 1.5712552
29.777023 -53.749565 1.451704
29.781921 -53.796669 1.3401442
29.788834 -53.842392 1.1758413
29.795151 -53.888519 1.0267215
29.53772 -51.862709 1.8737402
29.536224 -51.914146 1.9284015
29.534546 -51.965714 1.9878573
29.533371 -52.016922 2.0337281
29.532837 -52.067715 2.0636163
29.532883 -52.118111 2.07832
29.532669 -52.168671 2.0994177
29.533173 -52.218758 2.1021347
29.533936 -52.26865 2.0976596
29.5345 -52.318695 2.0987782
29.535217 -52.368629 2.095902
29.536057 -52.418488 2.089828
29.53656 -52.468567 2.0925455
29.53746 -52.518379 2.0848737
29.544708 -52.563881 1.9117799
29.545639 -52.61367 1.9033093
29.54657 -52.66346 1.8948388
29.547318 -52.713379 1.8911624
29.526154 -52.778179 2.4580722
29.52504 -52.829346 2.5023446
29.520935 -52.882557 2.6249323
29.521225 -52.932785 2.6332436
29.521637 -52.982933 2.6383586
29.523987 -53.031761 2.5931268
29.526886 -53.080223 2.5335112
29.529541 -53.128822 2.4794898
29.531982 -53.177597 2.4318604
29.534912 -53.226036 2.3714461
29.537903 -53.274429 2.309433
29.540894 -53.322823 2.2474194
29.544266 -53.370949 2.1750178
29.547562 -53.419132 2.1050134
29.551102 -53.467155 2.0286155
29.554672 -53.515152 1.9514189
29.558548 -53.562943 1.8662305
29.562515 -53.610672 1.7786446
29.567184 -53.657921 1.6726789
29.571457 -53.705441 1.5771022
29.577209 -53.751961 1.4431663
29.582474 -53.798813 1.3220167
29.588745 -53.844975 1.1744957
29.596512 -53.890121 0.98781633
29.60321 -53.935993 0.82910776
29.339706 -51.863876 1.8180523
29.337204 -51.916 1.899085
29.334457 -51.968292 1.9865108
29.333466 -52.019379 2.0275869
29.33284 -52.070236 2.0598722
29.332626 -52.120796 2.0809693
29.332611 -52.171234 2.0972719
29.333542 -52.221024 2.0888014
29.334305 -52.27092 2.0843258
29.335175 -52.320755 2.0774536
29.335037 -52.371277 2.0969529
29.335846 -52.42115 2.0916781
29.336685 -52.471004 2.0856051
29.337219 -52.521065 2.087523
29.344711 -52.566399 1.9080362
29.345367 -52.616379 1.9067578
29.346512 -52.666023 1.892693
29.347351 -52.715878 1.8866196
29.348557 -52.76548 1.8709564
29.32489 -52.83197 2.5025964
29.321243 -52.884865 2.6131973
29.321503 -52.935116 2.6223078
29.322006 -52.985199 2.6250248
29.324051 -53.034241 2.5877848
29.326813 -53.082783 2.5313659
29.329605 -53.131302 2.4741473
29.332199 -53.17997 2.422523
29.334915 -53.228554 2.367702
29.337814 -53.277008 2.3080864
29.341324 -53.32505 2.2324877
29.344208 -53.373505 2.1728721
29.347183 -53.421902 2.1108589
29.351166 -53.469631 2.023273
29.354523 -53.517776 1.9516706
29.358246 -53.565674 1.8704782
29.36264 -53.613106 1.7717042
29.366852 -53.660667 1.6777258
29.371429 -53.707977 1.5741572
29.376694 -53.754829 1.4530077
29.382446 -53.801353 1.3190722
29.388596 -53.847599 1.1747475
29.139587 -51.916912 1.8338084
29.135056 -51.970413 1.9675841
29.133698 -52.021751 2.01825
29.13298 -52.07267 2.0529327
29.132095 -52.123688 2.0916109
29.132751 -52.173668 2.0903325
29.132919 -52.223984 2.1018405
29.133896 -52.273731 2.0917711
29.13501 -52.323399 2.0785055
29.136002 -52.373146 2.0684366
29.136566 -52.423187 2.0695553
29.13707 -52.473274 2.0722723
29.138931 -52.522438 2.0398273
29.145218 -52.568584 1.8915071
29.145844 -52.618584 1.8910279
29.146652 -52.668457 1.8857536
29.147308 -52.718437 1.8844748
29.14888 -52.767792 1.8592219
29.12561 -52.834011 2.4804735
29.121506 -52.887218 2.6030612
29.121735 -52.937489 2.6129708
29.122269 -52.987553 2.6148887
29.12384 -53.036903 2.5896358
29.127335 -53.084969 2.5148368
29.129196 -53.134113 2.4815927
29.132156 -53.182529 2.4203782
29.135025 -53.23101 2.3615618
29.137955 -53.279446 2.301147
29.140778 -53.327946 2.2431293
29.144089 -53.37611 2.1723256
29.147827 -53.424004 2.0911336
29.151031 -53.472252 2.0235262
29.154785 -53.520126 1.9415345
29.158661 -53.567921 1.8563466
29.16275 -53.615562 1.765564
29.166397 -53.663498 1.6859698
29.171173 -53.710686 1.5776067
29.176743 -53.757332 1.4484653
29.181503 -53.804516 1.3401027
29.187347 -53.850971 1.2037697
29.195175 -53.896072 1.015492
29.203659 -53.940739 0.81043291
28.94191 -51.91787 1.7701302
28.936478 -51.971977 1.9270811
28.935135 -52.023312 1.9777465
28.934128 -52.074417 2.0196218
28.933533 -52.125252 2.0511074
28.933319 -52.175812 2.0722051
28.933701 -52.225979 2.0781188
28.93428 -52.276001 2.0784383
28.934784 -52.326084 2.0811558
28.935532 -52.375999 2.0774798
28.935577 -52.426395 2.0921836
28.937149 -52.475754 2.0669312
28.937958 -52.525627 2.061657
28.94545 -52.570957 1.8821702
28.945862 -52.621101 1.8872848
28.946884 -52.67083 1.8764167
28.947479 -52.720852 1.8767362
28.949173 -52.770123 1.8482871
28.925812 -52.836403 2.4719357
28.921738 -52.889595 2.5937243
28.922058 -52.9398 2.6012363
28.922409 -52.98999 2.6079493
28.924118 -53.039261 2.5794997
28.926453 -53.088089 2.5342689
28.92955 -53.136402 2.4690595
28.931961 -53.185196 2.4222293
28.935074 -53.233505 2.3570199
28.937973 -53.281963 2.2974043
28.94136 -53.33009 2.2250018
28.944107 -53.378628 2.1685829
28.947678 -53.426628 2.0913863
28.950912 -53.474854 2.0229797
28.954834 -53.522625 1.9369926
28.958557 -53.570522 1.8558002
28.962769 -53.61808 1.7618213
28.966949 -53.665665 1.6686416
28.971497 -53.712997 1.5658727
28.976578 -53.759972 1.4495177
28.981644 -53.806953 1.3331628
28.988937 -53.852428 1.1592703
28.994949 -53.898758 1.0181422
28.738464 -51.97316 1.8721933
28.735489 -52.0256 1.9652133
28.734848 -52.076454 1.9974985
28.733887 -52.127541 2.0385742
28.733826 -52.177998 2.055676
28.73381 -52.228436 2.0719786
28.734238 -52.278561 2.0762939
28.735138 -52.328373 2.0686221
28.736282 -52.378017 2.0545578
28.736694 -52.428165 2.0596719
28.73735 -52.478146 2.0583935
28.738556 -52.527748 2.0427308
28.74559 -52.573395 1.8752308
28.746368 -52.623287 1.8707557
28.747055 -52.673244 1.8686781
28.747589 -52.723309 1.8705959
28.749039 -52.772747 1.8485398
28.725983 -52.838821 2.4641972
28.721848 -52.892048 2.587584
28.722107 -52.942299 2.5966945
28.722427 -52.992508 2.6042066
28.72438 -53.041611 2.5693641
28.727051 -53.090214 2.5153422
28.729507 -53.138962 2.4669147
28.732254 -53.187527 2.411294
28.735184 -53.235962 2.3508797
28.738144 -53.284378 2.2896657
28.741272 -53.332672 2.2236567
28.7444 -53.380959 2.1576476
28.747604 -53.429207 2.0900407
28.751373 -53.477081 2.008049
28.75473 -53.525227 1.9364462
28.758728 -53.572937 1.8480616
28.762726 -53.620644 1.7596765
28.767212 -53.668015 1.6585054
28.771545 -53.715492 1.5613303
28.776779 -53.762367 1.44098
28.782501 -53.808907 1.3078432
28.785431 -53.857346 1.2474284
28.795547 -53.900883 0.9992156
28.542267 -51.922676 1.7538538
28.536163 -51.977242 1.9283857
28.534958 -52.028473 1.9750557
28.53476 -52.079033 1.9961534
28.534561 -52.129597 2.0172501
28.534485 -52.180077 2.035151
28.534515 -52.230473 2.0498557
28.534973 -52.280579 2.0533714
28.535782 -52.330452 2.0480976
28.536285 -52.380535 2.0508146
28.536789 -52.430618 2.0535316
28.536804 -52.481037 2.0690351
28.538651 -52.530205 2.0365901
28.545166 -52.576202 1.8826756
28.54628 -52.62587 1.86941
28.547272 -52.675613 1.8593411
28.547653 -52.725784 1.8652549
28.549072 -52.775242 1.843998
28.526199 -52.84119 2.4548602
28.522095 -52.894402 2.5774479
28.522324 -52.944672 2.5873575
28.522705 -52.994835 2.5932713
28.523941 -53.044418 2.5768089
28.526749 -53.092941 2.5195909
28.529938 -53.14119 2.4519839
28.532288 -53.190022 2.4067521
28.535339 -53.238377 2.3431411
28.538544 -53.286625 2.2755342
28.541122 -53.335289 2.2239094
28.544098 -53.383686 2.1618962
28.547791 -53.431602 2.0815029
28.55127 -53.47966 2.0067034
28.554825 -53.527679 1.930306
28.558365 -53.575706 1.8539081
28.561752 -53.623825 1.7815061
28.567337 -53.670448 1.651566
28.57106 -53.718346 1.570374
28.576569 -53.76503 1.442831
28.581512 -53.812092 1.3296728
28.587265 -53.858612 1.1957374
28.342773 -51.874424 1.7210212
28.339752 -51.926903 1.8156395
28.337585 -51.978802 1.8878813
28.335739 -52.030472 1.9513335
28.334702 -52.081596 1.9940076
28.333923 -52.132553 2.0302882
28.333923 -52.182968 2.0457916
28.334427 -52.233055 2.0485091
28.335281 -52.282887 2.0416365
28.335327 -52.333282 2.0563407
28.335068 -52.383888 2.0790362
28.336578 -52.433285 2.0553818
28.336533 -52.483742 2.0724835
28.338318 -52.532951 2.0416369
28.34584 -52.578262 1.861351
28.346405 -52.628304 1.8624697
28.347183 -52.6782 1.857995
28.347778 -52.728218 1.858314
28.349289 -52.777618 1.8346601
28.325897 -52.843918 2.4591079
28.32222 -52.896835 2.5705075
28.322479 -52.947083 2.579618
28.322861 -52.997253 2.5855317
28.324066 -53.046852 2.5698686
28.327209 -53.095146 2.50386
28.330002 -53.143665 2.4466414
28.332535 -53.192375 2.396615
28.335526 -53.240768 2.3346024
28.338455 -53.289207 2.2741876
28.341492 -53.337563 2.2105756
28.344437 -53.385975 2.1493621
28.347702 -53.434181 2.0801568
28.351715 -53.481888 1.9917717
28.355194 -53.529953 1.9169722
28.358704 -53.577995 1.8413739
28.362579 -53.625786 1.7561855
28.366837 -53.673302 1.6606083
28.37149 -53.720573 1.5554419
28.375854 -53.768028 1.4574671
28.381882 -53.814362 1.3163395
28.388031 -53.860607 1.1720152
28.395157 -53.906189 1.0021176
28.401917 -53.952026 0.8418107
28.138748 -51.930111 1.8382683
28.135757 -51.982571 1.9320869
28.134857 -52.033592 1.9707656
28.134262 -52.084427 2.0022516
28.13446 -52.13472 2.01296
28.134491 -52.185112 2.0276647
28.134628 -52.235451 2.0399714
28.135239 -52.285446 2.0394917
28.135742 -52.335533 2.0422091
28.136368 -52.385529 2.0417295
28.136841 -52.435638 2.0452456
28.137802 -52.485409 2.0359759
28.137878 -52.535782 2.049881
28.145737 -52.580864 1.8608046
28.146637 -52.630676 1.8531327
28.14769 -52.680382 1.841466
28.148315 -52.730385 1.8409858
28.149734 -52.779842 1.8197293
28.126648 -52.845936 2.4361854
28.122177 -52.899395 2.5683627
28.122345 -52.949707 2.5798707
28.123062 -52.999645 2.5769939
28.124298 -53.049225 2.5605316
28.127319 -53.097603 2.4977193
28.129898 -53.146267 2.446095
28.132858 -53.194687 2.384881
28.135605 -53.243248 2.3292613
28.138245 -53.29187 2.2760386
28.141693 -53.339954 2.2020378
28.144669 -53.388348 2.1400251
28.147934 -53.436554 2.0708199
28.151474 -53.484573 1.9944215
28.154938 -53.532658 1.9204216
28.158936 -53.580368 1.832037
28.162567 -53.628323 1.7532415
28.16655 -53.676029 1.6648569
28.1716 -53.72303 1.5493016
28.177628 -53.76936 1.4081736
28.182236 -53.81665 1.3038058
28.187775 -53.863312 1.1754646
27.934418 -51.834736 1.9161968
27.93541 -51.884483 1.9061279
27.933884 -51.935944 1.9615884
27.933075 -51.986923 1.9986682
27.933136 -52.0373 2.0125737
27.933014 -52.087799 2.0312738
27.933609 -52.137821 2.0315928
27.934204 -52.187843 2.0319128
27.934525 -52.238052 2.0394249
27.935379 -52.287884 2.0325522
27.936401 -52.337616 2.0216842
27.936996 -52.387634 2.0220041
27.937866 -52.437469 2.015131
27.939056 -52.487091 2.0002675
27.937683 -52.538445 2.0517321
27.942749 -52.585426 1.9353771
27.942108 -52.63628 1.9676628
27.9478 -52.682838 1.8353252
27.948608 -52.732716 1.8300509
27.934875 -52.792473 2.2035689
27.92691 -52.848289 2.4260497
27.92244 -52.901749 2.5582271
27.922882 -52.951874 2.5625424
27.923111 -53.002144 2.5724521
27.924622 -53.051537 2.5487971
27.927124 -53.100266 2.4995704
27.929947 -53.148766 2.4415531
27.932755 -53.197289 2.3843346
27.935806 -53.245644 2.3207231
27.938354 -53.294327 2.2698984
27.941559 -53.342575 2.202291
27.944504 -53.390991 2.141077
27.947952 -53.439072 2.0670767
27.951279 -53.48724 1.996273
27.95488 -53.535217 1.9182773
27.958435 -53.583241 1.8418794
27.962769 -53.630714 1.7447038
27.967117 -53.678173 1.6467295
27.971924 -53.725342 1.5375676
27.976563 -53.772606 1.4324002
27.981674 -53.819565 1.3152466
27.987183 -53.866249 1.1877046
27.733795 -51.837692 1.9292359
27.732697 -51.888859 1.9735084
27.732559 -51.939377 1.9930077
27.732788 -51.989651 2.0029168
27.73259 -52.040192 2.0232153
27.732574 -52.090633 2.0395179
27.733322 -52.140549 2.0358415
27.733276 -52.191006 2.0529432
27.734299 -52.240738 2.0420752
27.73494 -52.290714 2.0407963
27.736237 -52.340256 2.0227361
27.737198 -52.390026 2.0134664
27.738129 -52.439819 2.0049953
27.738358 -52.490089 2.0149045
27.738892 -52.540154 2.0168228
27.74086 -52.589237 1.9811811
27.746674 -52.635712 1.8456473
27.747635 -52.685486 1.8363771
27.748444 -52.735359 1.8311028
27.749863 -52.784821 1.8098459
27.726746 -52.850929 2.4271016
27.722946 -52.903931 2.541698
27.723022 -52.954308 2.555603
27.723495 -53.00441 2.5591197
27.724335 -53.054268 2.5530457
27.727448 -53.102577 2.4878364
27.73024 -53.151096 2.4306178
27.733017 -53.199638 2.3741984
27.735474 -53.24839 2.3257709
27.738098 -53.297035 2.2733474
27.741577 -53.345097 2.1985478
27.744705 -53.393387 2.1325393
27.748123 -53.44149 2.0593381
27.751602 -53.489552 1.9845386
27.755463 -53.537361 1.9001498
27.758972 -53.585403 1.8245511
27.76297 -53.63311 1.736166
27.767166 -53.680672 1.6421876
27.771606 -53.728088 1.5426149
27.77652 -53.775169 1.4302559
27.781815 -53.821999 1.3083072
27.787537 -53.868538 1.1751709
27.794754 -53.914059 1.0028763
27.534439 -51.839775 1.908711
27.532883 -51.891251 1.9649706
27.533142 -51.941502 1.974081
27.533279 -51.991837 1.9863877
27.533524 -52.042088 1.9954982
27.533188 -52.092735 2.0197921
27.533295 -52.143089 2.0328979
27.53334 -52.193481 2.0476022
27.533035 -52.24411 2.0710969
27.534485 -52.293549 2.0490408
27.535416 -52.343338 2.0405698
27.536774 -52.392838 2.0209112
27.537491 -52.442776 2.0180345
27.53772 -52.49305 2.0279436
27.539413 -52.54232 1.9994946
27.539658 -52.592567 2.0086045
27.547745 -52.637505 1.8139343
27.548737 -52.687252 1.8038654
27.548813 -52.737625 1.81777
27.535141 -52.79734 2.1896901
27.527084 -52.853222 2.4145679
27.523483 -52.906097 2.5243697
27.522934 -52.956886 2.5542574
27.523376 -53.007015 2.5585732
27.524643 -53.056576 2.5413117
27.527695 -53.104931 2.4777002
27.530518 -53.153427 2.419683
27.532959 -53.202202 2.3720541
27.534958 -53.251263 2.3356133
27.538773 -53.299095 2.2520237
27.541824 -53.34745 2.1884122
27.544739 -53.395882 2.1279974
27.548035 -53.444069 2.0579929
27.551758 -53.491966 1.9768
27.555145 -53.540089 1.904398
27.559097 -53.587841 1.8176117
27.562668 -53.635838 1.7404146
27.567169 -53.683189 1.6384449
27.571213 -53.730877 1.5492611
27.576889 -53.777435 1.416923
27.581787 -53.824539 1.3053637
27.587662 -53.870975 1.1682315
27.593704 -53.91729 1.0263038
27.338303 -51.789249 1.7887726
27.336258 -51.841064 1.8578181
27.332916 -51.893753 1.9604278
27.332779 -51.944271 1.9799271
27.333008 -51.994545 1.9898362
27.331894 -52.045712 2.0341086
27.329941 -52.097466 2.1007571
27.330109 -52.147774 2.1122646
27.334564 -52.195168 2.0118928
27.336182 -52.244503 1.9858413
27.336761 -52.294525 1.9861603
27.33725 -52.344604 1.9888778
27.337723 -52.394711 1.992394
27.33847 -52.444626 1.988718
27.338913 -52.494755 1.9930334
27.338898 -52.545189 2.009336
27.340515 -52.594505 1.9824848
27.347595 -52.640125 1.8141861
27.348007 -52.690269 1.8193011
27.348938 -52.740063 1.8108296
27.350021 -52.789749 1.7983637
27.327179 -52.855679 2.4084268
27.323196 -52.908806 2.5278182
27.323517 -52.959011 2.5353303
27.323685 -53.009323 2.5468378
27.324493 -53.059196 2.5415635
27.327423 -53.107635 2.4811487
27.32991 -53.156364 2.431922
27.333176 -53.204575 2.3627162
27.336075 -53.253029 2.3031006
27.338501 -53.3018 2.2554722
27.341583 -53.350136 2.191061
27.344833 -53.398338 2.1218557
27.348068 -53.446568 2.0534496
27.351669 -53.494545 1.9754534
27.354813 -53.542839 1.9094448
27.358948 -53.590462 1.8178635
27.362549 -53.638443 1.7398672
27.367142 -53.68573 1.6355
27.371613 -53.733124 1.5351281
27.37619 -53.780434 1.4315596
27.381882 -53.826996 1.2992225
27.387665 -53.873497 1.1644874
27.395096 -53.918869 0.98659897
27.135773 -51.793495 1.8513584
27.140198 -51.840912 1.7517853
27.132507 -51.896561 1.9678731
27.132797 -51.946793 1.9761844
27.133484 -51.99675 1.9741063
27.132614 -52.047752 2.0119853
27.132782 -52.098064 2.0234933
27.133926 -52.147709 2.0094285
27.13591 -52.196793 1.9737868
27.136749 -52.246647 1.9677138
27.137177 -52.296768 1.9720287
27.137802 -52.346771 1.9715495
27.137955 -52.397083 1.9830575
27.138428 -52.447189 1.9865732
27.139389 -52.49696 1.9773035
27.140121 -52.546898 1.9744267
27.141281 -52.596523 1.9595628
27.146591 -52.643333 1.8368149
27.148453 -52.692497 1.8043699
27.149109 -52.742477 1.803091
27.149704 -52.7925 1.803411
27.127502 -52.857986 2.3966928
27.123749 -52.910969 2.5104899
27.123291 -52.961697 2.5379806
27.123947 -53.011677 2.5367022
27.124939 -53.061424 2.5266323
27.127991 -53.109779 2.4630213
27.130417 -53.15855 2.4153929
27.133377 -53.206966 2.3541784
27.136063 -53.255569 2.3001566
27.138763 -53.304153 2.2453361
27.142059 -53.352341 2.1753311
27.145309 -53.400547 2.1061258
27.147842 -53.449253 2.0560999
27.151566 -53.497147 1.9749074
27.155411 -53.54496 1.8905182
27.159454 -53.592651 1.8013344
27.163147 -53.640564 1.7209411
27.167099 -53.68829 1.6333551
27.172119 -53.735313 1.518599
27.176453 -53.782787 1.4214234
27.181717 -53.829643 1.3002744
27.187439 -53.876183 1.1671376
27.193909 -53.922199 1.0140224
26.934296 -50.233925 1.3989763
26.934799 -50.284004 1.4016938
26.93486 -50.334381 1.4155984
26.934891 -50.384777 1.4303031
26.94429 -51.790245 1.6262536
26.934753 -51.847145 1.8902893
26.932526 -51.899078 1.9641299
26.932785 -51.949329 1.9732404
26.93338 -51.999352 1.9735599
26.93306 -52.04998 1.9970546
26.933624 -52.100021 1.9981737
26.934219 -52.15004 1.9984932
26.935425 -52.199646 1.98283
26.936172 -52.249561 1.9791546
26.936203 -52.299957 1.9938583
26.937195 -52.349709 1.9837894
26.937637 -52.399834 1.9881048
26.938019 -52.449997 1.9940181
26.939972 -52.499104 1.9591761
26.940475 -52.549187 1.9618936
26.941513 -52.598896 1.9502258
26.94693 -52.645645 1.8250809
26.948288 -52.695145 1.8054218
26.949341 -52.74485 1.7937546
26.950516 -52.794479 1.7788906
26.927765 -52.86034 2.3865566
26.92363 -52.91357 2.5099435
26.923676 -52.963966 2.5246477
26.92421 -53.01403 2.526566
26.925079 -53.063862 2.5196929
26.928314 -53.112091 2.4512868
26.930893 -53.160755 2.3996625
26.933182 -53.209633 2.3560295
26.935883 -53.258217 2.301209
26.938965 -53.306549 2.2367983
26.942017 -53.3549 2.1731868
26.945114 -53.403214 2.1079769
26.948532 -53.451313 2.0347762
26.950943 -53.500107 1.987946
26.955429 -53.547478 1.8867755
26.959061 -53.595436 1.8079805
26.963226 -53.64304 1.7155995
26.966904 -53.690956 1.6352067
26.971985 -53.737934 1.5188518
26.976227 -53.785473 1.4240737
26.981888 -53.832054 1.2925358
26.987823 -53.878448 1.1538053
26.732544 -50.388901 1.4880939
26.734802 -50.437794 1.44526
26.694275 -50.969543 2.6575551
26.733765 -51.900764 1.9284215
26.733292 -51.951515 1.9567113
26.733643 -52.001701 1.9634237
26.733292 -52.052349 1.9877176
26.733673 -52.102516 1.9936318
26.73439 -52.152458 1.9907546
26.734955 -52.202492 1.9918737
26.735733 -52.252392 1.9873986
26.736465 -52.302307 1.9837222
26.737488 -52.352039 1.9728541
26.738052 -52.402077 1.9739733
26.738708 -52.452057 1.9726944
26.739151 -52.502182 1.9770098
26.73996 -52.552059 1.971736
26.740082 -52.602394 1.9840422
26.744431 -52.649872 1.886867
26.745483 -52.699577 1.8751998
26.750305 -52.746723 1.7652383
26.750198 -52.797226 1.7839384
26.727783 -52.862862 2.3828135
26.72406 -52.915817 2.4958119
26.723938 -52.966316 2.5145116
26.724319 -53.016487 2.5204258
26.725372 -53.066193 2.5087581
26.727661 -53.115067 2.4651251
26.730301 -53.163692 2.4119029
26.733597 -53.21188 2.341898
26.736023 -53.260651 2.2942691
26.738983 -53.309063 2.2330556
26.742096 -53.357376 2.1678452
26.744797 -53.40596 2.1130247
26.748306 -53.453995 2.0374265
26.751907 -53.501976 1.9594302
26.755478 -53.549976 1.8822331
26.758865 -53.598099 1.8098316
26.763153 -53.645622 1.7142544
26.766739 -53.693596 1.6362586
26.772034 -53.740433 1.5143099
26.776855 -53.787575 1.4043479
26.782089 -53.83445 1.283998
26.787781 -53.881008 1.1516604
26.492889 -51.325981 2.8006945
26.492004 -51.377007 2.8393726
26.497757 -51.423523 2.7054372
26.503662 -51.469936 2.5675058
26.509583 -51.516331 2.4287753
26.515518 -51.562725 2.2900448
26.521423 -51.609138 2.1521134
26.527359 -51.655533 2.0133829
26.533295 -51.701927 1.8746519
26.538528 -51.748802 1.754302
26.540909 -51.797592 1.7074723
26.539459 -51.84901 1.7613344
26.534088 -51.903076 1.916687
26.53244 -51.954617 1.9753442
26.531967 -52.005367 2.0036335
26.532303 -52.055557 2.0103464
26.533051 -52.105476 2.006671
26.53334 -52.155701 2.0149817
26.535309 -52.204784 1.9793401
26.536026 -52.254723 1.9764633
26.536636 -52.304722 1.9759836
26.536926 -52.35495 1.9842949
26.53801 -52.40464 1.9718285
26.538544 -52.454704 1.9737463
26.539536 -52.504456 1.9636774
26.540558 -52.55418 1.9528093
26.541199 -52.60416 1.9515305
26.544937 -52.652054 1.870338
26.548752 -52.699886 1.7867484
26.549683 -52.74968 1.7782774
26.550522 -52.799534 1.7722039
26.527985 -52.86525 2.3742757
26.524261 -52.918213 2.4872737
26.523804 -52.968941 2.5147648
26.524673 -53.018776 2.5078921
26.525085 -53.068916 2.5130062
26.52832 -53.117149 2.4446001
26.530563 -53.166042 2.4017668
26.533646 -53.214378 2.3373556
26.536224 -53.263042 2.2857318
26.539124 -53.311501 2.2261162
26.542145 -53.359875 2.1633034
26.545578 -53.407955 2.0893035
26.548355 -53.456497 2.0328841
26.552048 -53.50441 1.9524903
26.555252 -53.552658 1.8848834
26.559494 -53.600204 1.7901058
26.562637 -53.648491 1.7240968
26.56749 -53.695618 1.6133361
26.571793 -53.743118 1.5169601
26.576965 -53.790031 1.3982077
26.582352 -53.8368 1.2738619
26.587524 -53.883713 1.1551099
26.594757 -53.929214 0.98201609
26.29364 -51.529671 2.8397856
26.294876 -51.57925 2.8233228
26.301987 -51.624855 2.6542253
26.309052 -51.670479 2.4859266
26.316147 -51.71608 2.3168287
26.323227 -51.761703 2.14853
26.330307 -51.807304 1.9794321
26.334991 -51.854553 1.873466
26.334564 -51.905258 1.9001575
26.333084 -51.956696 1.9548192
26.332596 -52.007446 1.983108
26.332138 -52.058182 2.0105987
26.332794 -52.108162 2.0093207
26.334457 -52.157448 1.9816699
26.33548 -52.207176 1.9708018
26.336746 -52.256741 1.9535408
26.336868 -52.307076 1.965847
26.336792 -52.357552 1.983748
26.338669 -52.4067 1.9505043
26.338989 -52.456909 1.9580159
26.339523 -52.506973 1.9599342
26.339905 -52.557137 1.965848
26.340912 -52.606865 1.9549794
26.348175 -52.652367 1.7818861
26.349258 -52.702049 1.7694197
26.34967 -52.752197 1.7745337
26.342804 -52.807285 1.9690447
26.328003 -52.867752 2.3697333
26.324493 -52.920563 2.4771376
26.323975 -52.971333 2.5062265
26.324722 -53.021252 2.5025506
26.3255 -53.071144 2.498075
26.328308 -53.119667 2.4408569
26.330734 -53.168434 2.3932285
26.33316 -53.217209 2.3455997
26.336243 -53.265541 2.281189
26.339142 -53.313995 2.2215734
26.342163 -53.362373 2.158761
26.345139 -53.410767 2.0967479
26.348618 -53.458824 2.0219488
26.351334 -53.507408 1.9671273
26.355209 -53.555199 1.8819394
26.359421 -53.602764 1.7879605
26.363464 -53.650452 1.6987767
26.367477 -53.698135 1.6095929
26.371902 -53.745552 1.5100203
26.377045 -53.792488 1.392067
26.382187 -53.839424 1.2741141
26.387131 -53.886482 1.1609564
26.094193 -51.632668 2.8534632
26.101089 -51.678413 2.6899595
26.107971 -51.724163 2.5264554
26.114868 -51.769913 2.3629518
26.121735 -51.815659 2.1994481
26.128647 -51.861385 2.0351448
26.134338 -51.907944 1.9028072
26.13356 -51.958904 1.9390883
26.132767 -52.009865 1.975369
26.132309 -52.060593 2.0028596
26.132874 -52.110634 2.0039787
26.134659 -52.159843 1.9731317
26.135651 -52.209595 1.9630628
26.13652 -52.259426 1.9561906
26.136063 -52.310158 1.9836807
26.137421 -52.359657 1.9640222
26.137955 -52.409718 1.96594
26.137604 -52.460388 1.9910331
26.138565 -52.510159 1.9817634
26.140625 -52.559177 1.9437242
26.141296 -52.609138 1.9416461
26.143555 -52.658031 1.8988128
26.149063 -52.704716 1.7712703
26.14978 -52.754654 1.768393
26.150314 -52.804718 1.7703114
26.128418 -52.869995 2.3556013
26.124725 -52.922935 2.4678001
26.124054 -52.973808 2.5008845
26.124832 -53.023705 2.4964099
26.125397 -53.073746 2.4975281
26.128601 -53.121998 2.4299212
26.130997 -53.170788 2.3830919
26.133331 -53.21962 2.3378606
26.136261 -53.268059 2.2774458
26.139191 -53.316498 2.217031
26.142151 -53.364914 2.1558166
26.14537 -53.413139 2.0874104
26.148636 -53.461346 2.0182052
26.151901 -53.509552 1.9489994
26.155533 -53.55751 1.8702044
26.159225 -53.605431 1.7898111
26.163391 -53.65303 1.6974306
26.167557 -53.700615 1.6042514
26.172043 -53.747986 1.5030804
26.176727 -53.795235 1.3971143
26.18187 -53.842171 1.2791615
26.187897 -53.888504 1.1380334
26.195038 -53.934063 0.96733713
25.933411 -51.91111 1.9238377
25.933014 -51.9618 1.9497304
25.933517 -52.011883 1.9524469
25.933945 -52.062008 1.9567623
25.934326 -52.112175 1.9626765
25.934738 -52.162323 1.9677906
25.935394 -52.212299 1.9665122
25.936661 -52.261864 1.9492512
25.937241 -52.311882 1.9495707
25.937134 -52.362381 1.9682708
25.93837 -52.411964 1.9518085
25.938354 -52.462402 1.9681106
25.939194 -52.51226 1.9620376
25.940643 -52.561695 1.9399815
25.941879 -52.611282 1.9235187
25.945541 -52.659218 1.843925
25.948685 -52.707504 1.777916
25.950012 -52.757027 1.7590561
25.949966 -52.807487 1.7761579
25.928955 -52.872162 2.338273
25.925385 -52.925018 2.4472752
25.92453 -52.976017 2.4851546
25.925064 -53.026081 2.4870729
25.92569 -53.07608 2.4865932
25.928589 -53.124538 2.4269776
25.931046 -53.173286 2.3785501
25.933762 -53.22187 2.3237286
25.936401 -53.270493 2.2705064
25.939148 -53.319054 2.2148862
25.942688 -53.367077 2.1384883
25.945236 -53.415764 2.0876632
25.948898 -53.463699 2.008069
25.952255 -53.511845 1.9364662
25.955368 -53.560154 1.8712564
25.958969 -53.608135 1.7932606
25.963211 -53.655678 1.6984825
25.967331 -53.7033 1.6069012
25.971756 -53.750713 1.507329
25.976593 -53.797859 1.397367
25.981537 -53.844917 1.2842093
25.987732 -53.891144 1.1390853
25.994415 -53.937019 0.98037624
25.733948 -51.913277 1.9065094
25.733414 -51.964066 1.9363976
25.73381 -52.014214 1.9415116
25.734421 -52.064217 1.9410324
25.734406 -52.114655 1.957335
25.734909 -52.164734 1.960052
25.735962 -52.214443 1.9483848
25.736771 -52.26432 1.9431109
25.737289 -52.314381 1.9450283
25.737946 -52.364361 1.9437499
25.738327 -52.414528 1.9496636
25.738708 -52.464695 1.9555774
25.739914 -52.514297 1.9399142
25.740479 -52.564339 1.9410334
25.74176 -52.613884 1.9229727
25.747665 -52.660294 1.7850413
25.749313 -52.70961 1.7581906
25.749969 -52.75959 1.7569118
25.750931 -52.809357 1.7476416
25.72879 -52.874805 2.339325
25.727081 -52.926392 2.3995795
25.724701 -52.978432 2.477416
25.725113 -53.02858 2.4825311
25.725677 -53.078621 2.4836493
25.728394 -53.127205 2.4288287
25.731064 -53.175804 2.3748069
25.733398 -53.22464 2.3295755
25.736237 -53.27314 2.2715583
25.739136 -53.321594 2.2119427
25.742615 -53.369659 2.1371427
25.745193 -53.418324 2.0855188
25.748917 -53.466217 2.0043263
25.751755 -53.514717 1.9463086
25.755478 -53.562611 1.8651161
25.759628 -53.610214 1.7727361
25.763412 -53.65807 1.6899447
25.767502 -53.705711 1.5991626
25.771957 -53.753109 1.4987912
25.776611 -53.800377 1.3936243
25.781494 -53.847481 1.2820644
25.787552 -53.893791 1.1401377
25.794373 -53.939583 0.97823143
25.507416 -51.631279 2.499404
25.506973 -51.682014 2.5268946
25.50705 -51.732384 2.5407991
25.510193 -51.780678 2.4747906
25.520065 -51.824383 2.2329712
25.529999 -51.868065 1.9903522
25.533936 -51.915817 1.9035659
25.533112 -51.966793 1.9406462
25.533401 -52.017025 1.948957
25.533615 -52.067299 1.9588666
25.534424 -52.117172 1.9535923
25.535233 -52.167046 1.948318
25.536255 -52.216774 1.9374495
25.536118 -52.267296 1.9569488
25.537064 -52.317066 1.9476786
25.537933 -52.366898 1.9408064
25.53801 -52.417274 1.9547114
25.539215 -52.466881 1.9390483
25.539963 -52.5168 1.9353724
25.540802 -52.56665 1.9292989
25.54184 -52.61636 1.9176316
25.547745 -52.662773 1.7797003
25.549515 -52.712002 1.7496529
25.55011 -52.762024 1.7499719
25.551102 -52.811775 1.739903
25.529022 -52.877182 2.329988
25.52594 -52.929703 2.4262042
25.524902 -52.980827 2.4688783
25.525345 -53.030952 2.4731941
25.52594 -53.080971 2.4735136
25.528229 -53.129845 2.4298806
25.531357 -53.178139 2.3638721
25.533447 -53.227135 2.3250337
25.536438 -53.275536 2.2630205
25.539551 -53.323845 2.1978106
25.542297 -53.372406 2.1421905
25.545609 -53.42057 2.0713868
25.548843 -53.468796 2.0029807
25.552078 -53.517029 1.9345741
25.555618 -53.565048 1.8581767
25.559402 -53.6129 1.7753863
25.56337 -53.660629 1.6878004
25.567673 -53.70813 1.591424
25.571396 -53.756023 1.510232
25.57663 -53.802895 1.3898811
