# .PCD v0.7 - Point Cloud Data file format
VERSION 0.7
FIELDS x y z
SIZE 4 4 4
TYPE F F F
COUNT 1 1 1
WIDTH 1571
HEIGHT 1
VIEWPOINT 0 0 0 1 0 0 0
POINTS 1571
DATA ascii
115.84988 -48.277664 0.41280001
115.85165 -48.327629 0.428
115.85343 -48.377598 0.41600001
115.85521 -48.427567 0.41679999
115.85698 -48.477535 0.3872
115.85876 -48.527504 0.2656
115.86053 -48.577469 0.252
115.86231 -48.627441 0.2472
115.86409 -48.677406 0.24079999
115.86586 -48.727379 0.2208
115.86765 -48.777344 0.8488
115.86942 -48.827316 0.97039998
115.87119 -48.877281 0.97359997
115.87297 -48.92725 0.98079997
115.87474 -48.977219 0.93199998
115.87653 -49.027187 0.88639998
115.8783 -49.077156 0.83200002
115.88007 -49.127125 0.77359998
115.88185 -49.177094 0.72320002
115.88362 -49.227062 0.6584
115.88541 -49.277031 0.59759998
115.88718 -49.326996 0.53039998
115.88895 -49.376968 0.46239999
115.89073 -49.426933 0.3888
115.8925 -49.476906 0.31439999
115.89429 -49.526871 0.2168
115.89606 -49.576839 0.1416
115.89783 -49.626808 0.044799998
115.89961 -49.676777 -0.062399998
115.90138 -49.726746 -0.1744
115.90316 -49.776714 -0.3096
115.90494 -49.826683 -0.46000001
115.60206 -46.935616 -1.2392
115.60384 -46.985588 -1.2104
115.60561 -47.035553 -1.2184
115.60739 -47.085522 -1.2128
115.60916 -47.13549 -1.2016
115.61094 -47.185459 -1.2079999
115.61272 -47.235428 -1.216
115.61449 -47.285397 -1.2064
115.61627 -47.335365 -1.2136
115.61804 -47.385334 -1.2151999
115.61982 -47.435303 -1.2151999
115.6216 -47.485271 -1.2112
115.62337 -47.53524 -1.2224
115.62515 -47.585205 -1.22
115.62692 -47.635178 -1.2144001
115.6287 -47.685143 -1.2192
115.63048 -47.735111 -1.2192
115.63225 -47.78508 -1.2208
115.63403 -47.835049 0.33199999
115.6358 -47.885017 0.3624
115.63758 -47.934986 0.39919999
115.63936 -47.984955 0.4032
115.64113 -48.034924 0.40799999
115.64291 -48.084892 0.4136
115.64468 -48.134861 0.40959999
115.64646 -48.18483 0.40560001
115.64824 -48.234798 0.40239999
115.65001 -48.284767 0.40799999
115.65179 -48.334732 0.41119999
115.65356 -48.384701 0.42480001
115.65534 -48.434669 0.4136
115.65712 -48.484638 0.42640001
115.65889 -48.534607 0.2448
115.66067 -48.584576 0.25040001
115.66245 -48.634544 0.244
115.66422 -48.684513 0.2448
115.666 -48.734482 0.22319999
115.66777 -48.784451 0.84320003
115.66955 -48.834419 0.96799999
115.67133 -48.884388 0.97920001
115.6731 -48.934353 0.97119999
115.67488 -48.984325 0.9224
115.67665 -49.03429 0.88160002
115.67843 -49.084259 0.82480001
115.68021 -49.134228 0.77280003
115.68198 -49.184196 0.7216
115.68376 -49.234165 0.67040002
115.68553 -49.284134 0.5952
115.68731 -49.334103 0.53280002
115.68909 -49.384071 0.4648
115.69086 -49.43404 0.38159999
115.69264 -49.484009 0.30880001
115.69441 -49.533978 0.23280001
115.69619 -49.583942 0.132
115.69797 -49.633915 0.042399999
115.69974 -49.68388 -0.064000003
115.70152 -49.733852 -0.1752
115.70329 -49.783817 -0.2992
115.70507 -49.833786 -0.44400001
115.70685 -49.883755 -0.616
115.40573 -47.042656 -1.336
115.40752 -47.092628 -1.284
115.40929 -47.142593 -1.2568001
115.41106 -47.192562 -1.2144001
115.41284 -47.242531 -1.2056
115.41461 -47.2925 -1.2192
115.4164 -47.342468 -1.2128
115.41817 -47.392437 -1.212
115.41994 -47.442406 -1.2151999
115.42172 -47.492374 -1.2151999
115.42349 -47.542343 -1.2192
115.42528 -47.592308 -1.2112
115.42705 -47.642281 -1.2208
115.42883 -47.692245 -1.22
115.4306 -47.742218 -1.22
115.43237 -47.792183 -0.092
115.43416 -47.842152 0.3488
115.43593 -47.89212 0.39199999
115.43771 -47.942089 0.39359999
115.43948 -47.992058 0.40880001
115.44125 -48.042027 0.41280001
115.44304 -48.091995 0.4064
115.44481 -48.141964 0.40880001
115.44659 -48.191933 0.40079999
115.44836 -48.241901 0.4104
115.45013 -48.29187 0.4048
115.45192 -48.341835 0.4192
115.45369 -48.391808 0.44479999
115.45547 -48.441772 0.47600001
115.45724 -48.491745 0.4296
115.45901 -48.54171 0.39840001
115.46079 -48.591679 0.244
115.46257 -48.641647 0.24160001
115.46435 -48.691616 0.24959999
115.46613 -48.741585 0.2216
115.4679 -48.791553 0.8448
115.46967 -48.841522 0.96240002
115.47145 -48.891491 0.97119999
115.47323 -48.94146 0.97280002
115.47501 -48.991428 0.93760002
115.47678 -49.041397 0.87919998
115.47855 -49.091362 0.83920002
115.48033 -49.141335 0.78320003
115.4821 -49.191299 0.7288
115.48389 -49.241272 0.66479999
115.48566 -49.291237 0.60079998
115.48743 -49.341206 0.52160001
115.48921 -49.391174 0.47760001
115.49098 -49.441143 0.37920001
115.49277 -49.491112 0.31760001
115.49454 -49.54108 0.2256
115.49632 -49.591049 0.148
115.49809 -49.641018 0.044799998
115.49986 -49.690987 -0.064800002
115.50165 -49.740955 -0.1816
115.50342 -49.790924 -0.30160001
115.21652 -47.349571 -1.2704
115.21829 -47.399544 -1.2208
115.22007 -47.449509 -1.2136
115.22185 -47.499481 -1.2136
115.22362 -47.549446 -1.2136
115.2254 -47.599415 -1.2208
115.22717 -47.649384 -1.2151999
115.22895 -47.699352 -1.22
115.23073 -47.749321 -1.224
115.2325 -47.79929 -0.124
115.23428 -47.849258 0.37439999
115.23605 -47.899227 0.39359999
115.23783 -47.949196 0.40400001
115.23961 -47.999165 0.4104
115.24138 -48.049133 0.4192
115.24316 -48.099098 0.41999999
115.24493 -48.149071 0.43439999
115.24671 -48.199036 0.42879999
115.24849 -48.249008 0.4208
115.25026 -48.298973 0.40720001
115.25204 -48.348942 0.4224
115.25381 -48.398911 0.4224
115.25559 -48.448879 0.42480001
115.25737 -48.498848 0.41760001
115.25914 -48.548817 0.4048
115.26092 -48.598785 0.26480001
115.2627 -48.648754 0.2288
115.26447 -48.698723 0.24879999
115.26625 -48.748692 0.22
115.26802 -48.79866 0.84240001
115.2698 -48.848625 0.9576
115.27158 -48.898598 0.9752
115.27335 -48.948563 0.97439998
115.27513 -48.998535 0.93199998
115.2769 -49.0485 0.88239998
115.27868 -49.098469 0.83279997
115.28046 -49.148438 0.78799999
115.28223 -49.198406 0.71359998
115.28401 -49.248375 0.66320002
115.28578 -49.298344 0.60079998
115.28756 -49.348312 0.53439999
115.28934 -49.398281 0.46000001
115.29111 -49.44825 0.39039999
115.29289 -49.498215 0.32319999
115.29466 -49.548187 0.2264
115.29644 -49.598152 0.1472
115.29822 -49.648125 0.044799998
115.29999 -49.69809 -0.068800002
115.30177 -49.748062 -0.164
115.30354 -49.798027 -0.29679999
115.30532 -49.847996 -0.44479999
115.3071 -49.897964 -0.58880001
115.02197 -47.506584 -1.3704
115.02374 -47.556553 -1.3496
115.02553 -47.606518 -1.2848001
115.0273 -47.65649 -1.2832
115.02908 -47.706455 -1.284
115.03085 -47.756424 -1.2920001
115.03262 -47.806393 -0.0264
115.03441 -47.856361 0.37200001
115.03618 -47.90633 0.39520001
115.03796 -47.956299 0.40239999
115.03973 -48.006268 0.40799999
115.0415 -48.056236 0.42160001
115.04329 -48.106205 0.4224
115.04506 -48.156174 0.4104
115.04684 -48.206142 0.42879999
115.04861 -48.256111 0.44159999
115.05038 -48.30608 0.456
115.05217 -48.356045 0.44159999
115.05394 -48.406013 0.44159999
115.05572 -48.455982 0.43520001
115.0575 -48.505951 0.4104
115.05927 -48.55592 0.39919999
115.06104 -48.605888 0.384
115.06282 -48.655857 0.29519999
115.0646 -48.705826 0.3768
115.06638 -48.755795 0.61119998
115.06815 -48.805763 0.84799999
115.06992 -48.855732 0.96560001
115.0717 -48.905701 0.97280002
115.07348 -48.955666 0.96799999
115.07526 -49.005638 0.94319999
115.07703 -49.055603 0.90240002
115.0788 -49.105572 0.8312
115.08058 -49.15554 0.7784
115.08235 -49.205509 0.72399998
115.08414 -49.255478 0.66960001
115.08591 -49.305447 0.6056
115.08768 -49.355415 0.54000002
115.08946 -49.405384 0.45919999
115.09123 -49.455353 0.38800001
115.09302 -49.505322 0.31999999
115.09479 -49.55529 0.22400001
115.09657 -49.605255 0.14560001
115.09834 -49.655228 0.046399999
115.10011 -49.705193 -0.048
115.1019 -49.755165 -0.17839999
115.10367 -49.80513 -0.31760001
115.10545 -49.855099 -0.44
115.10722 -49.905067 -0.62080002
115.10899 -49.955036 -0.89120001
115.11078 -50.005005 -1.1608
114.83453 -47.863464 0.3712
114.8363 -47.913437 0.39840001
114.83808 -47.963402 0.4104
114.83986 -48.013374 0.40560001
114.84163 -48.063339 0.43040001
114.84341 -48.113308 0.44639999
114.84518 -48.163277 0.45280001
114.84696 -48.213245 0.4456
114.84874 -48.263214 0.42879999
114.85051 -48.313183 0.4192
114.85229 -48.363152 0.40720001
114.85406 -48.413116 0.40880001
114.85584 -48.463089 0.4224
114.85762 -48.513054 0.41679999
114.85939 -48.563026 0.428
114.86117 -48.612991 0.35679999
114.86295 -48.662964 0.23999999
114.86472 -48.712929 0.26480001
114.8665 -48.762901 0.63279998
114.86827 -48.812866 0.8416
114.87005 -48.862835 0.95999998
114.87183 -48.912804 0.97680002
114.8736 -48.962769 0.98000002
114.87538 -49.012741 0.94639999
114.87715 -49.062706 0.88
114.87893 -49.112679 0.83200002
114.88071 -49.162643 0.78079998
114.88248 -49.212616 0.72960001
114.88426 -49.262581 0.66240001
114.88603 -49.312553 0.60799998
114.88781 -49.362518 0.52880001
114.88959 -49.412491 0.4632
114.89136 -49.462456 0.3872
114.89314 -49.512424 0.3096
114.89491 -49.562393 0.2448
114.89669 -49.612358 0.152
114.89847 -49.662331 0.0592
114.90024 -49.712296 -0.054400001
114.90202 -49.762268 -0.16159999
114.90379 -49.812233 -0.29840001
114.90557 -49.862206 -0.42160001
114.90735 -49.91217 -0.5808
114.63466 -47.870567 0.3872
114.63643 -47.92054 0.40880001
114.63821 -47.970505 0.41679999
114.63998 -48.020477 0.43279999
114.64176 -48.070442 0.42879999
114.64354 -48.120415 0.40799999
114.64531 -48.17038 0.4368
114.64709 -48.220352 0.43759999
114.64886 -48.270317 0.44
114.65064 -48.32029 0.45199999
114.65242 -48.370255 0.42879999
114.65419 -48.420223 0.41600001
114.65598 -48.470192 0.42559999
114.65775 -48.520161 0.43360001
114.65952 -48.570129 0.40000001
114.6613 -48.620094 0.37279999
114.66307 -48.670067 0.23119999
114.66486 -48.720032 0.2376
114.66663 -48.770004 0.22480001
114.6684 -48.819969 0.83200002
114.67018 -48.869942 0.95279998
114.67195 -48.919907 0.96960002
114.67374 -48.969875 0.97680002
114.67551 -49.019844 0.95359999
114.67728 -49.069813 0.88480002
114.67906 -49.119781 0.83920002
114.68083 -49.16975 0.78240001
114.68261 -49.219719 0.7288
114.68439 -49.269688 0.6728
114.68616 -49.319656 0.61199999
114.68794 -49.369621 0.53920001
114.68971 -49.419594 0.472
114.69149 -49.469559 0.3928
114.69327 -49.519531 0.3224
114.69505 -49.569496 0.2552
114.69682 -49.619465 0.15360001
114.69859 -49.669434 0.063199997
114.70037 -49.719402 -0.043200001
114.70215 -49.769371 -0.1608
114.70392 -49.81934 -0.28
114.7057 -49.869308 -0.42160001
114.70747 -49.919277 -0.55760002
114.43478 -47.87767 0.36880001
114.43655 -47.927643 0.40880001
114.43834 -47.977608 0.41839999
114.44011 -48.02758 0.4368
114.44189 -48.077545 0.4368
114.44366 -48.127518 0.4312
114.44543 -48.177483 0.44400001
114.44722 -48.227455 0.42160001
114.44899 -48.27742 0.42879999
114.45077 -48.327393 0.45840001
114.45255 -48.377357 0.4648
114.45432 -48.427326 0.42160001
114.4561 -48.477295 0.44080001
114.45787 -48.527264 0.4208
114.45965 -48.577232 0.40239999
114.46143 -48.627197 0.36399999
114.4632 -48.67717 0.25119999
114.46498 -48.727135 0.26320001
114.46675 -48.777107 0.2448
114.46853 -48.827072 0.8448
114.47031 -48.877045 0.9576
114.47208 -48.92701 0.97280002
114.47386 -48.976978 0.97359997
114.47563 -49.026947 0.94400001
114.47741 -49.076916 0.88559997
114.47919 -49.126884 0.8416
114.48096 -49.176853 0.78079998
114.48273 -49.226822 0.73040003
114.48451 -49.276791 0.67040002
114.48629 -49.326759 0.6024
114.48807 -49.376724 0.54000002
114.48984 -49.426697 0.47279999
114.49162 -49.476662 0.40959999
114.49339 -49.526634 0.3224
114.49517 -49.576599 0.23999999
114.49695 -49.626568 0.16320001
114.49872 -49.676537 0.052000001
114.5005 -49.726505 -0.0416
114.50227 -49.776474 -0.1576
114.50404 -49.826443 -0.2904
114.50583 -49.876411 -0.42320001
114.23313 -47.834808 0.2696
114.23491 -47.884777 0.36719999
114.23668 -47.934746 0.39680001
114.23846 -47.984715 0.396
114.24023 -48.034683 0.40560001
114.24201 -48.084652 0.3944
114.24379 -48.134621 0.41119999
114.24556 -48.184589 0.40880001
114.24734 -48.234558 0.40560001
114.24911 -48.284527 0.42399999
114.25089 -48.334496 0.43520001
114.25267 -48.38446 0.43520001
114.25444 -48.434433 0.43439999
114.25623 -48.484398 0.4368
114.258 -48.53437 0.40720001
114.25977 -48.584335 0.38479999
114.26155 -48.634304 0.25920001
114.26332 -48.684273 0.248
114.26511 -48.734241 0.2448
114.26688 -48.78421 0.23199999
114.26865 -48.834179 0.8416
114.27043 -48.884148 0.95359999
114.2722 -48.934116 0.96399999
114.27399 -48.984085 0.97439998
114.27576 -49.034054 0.94400001
114.27753 -49.084023 0.8872
114.27931 -49.133987 0.8448
114.28108 -49.18396 0.79519999
114.28286 -49.233925 0.73439997
114.28464 -49.283897 0.66640002
114.28642 -49.333862 0.61440003
114.28819 -49.383831 0.53839999
114.28996 -49.4338 0.47679999
114.29174 -49.483768 0.40000001
114.29352 -49.533737 0.32960001
114.2953 -49.583706 0.25119999
114.29707 -49.633675 0.15279999
114.29884 -49.683643 0.054400001
114.30062 -49.733612 -0.0264
114.3024 -49.783581 -0.13600001
114.30417 -49.833549 -0.292
114.03503 -47.891884 0.38640001
114.0368 -47.941853 0.40799999
114.03859 -47.991821 0.41999999
114.04036 -48.04179 0.41600001
114.04214 -48.091759 0.43279999
114.04391 -48.141724 0.4472
114.04568 -48.191696 0.43279999
114.04747 -48.241661 0.40239999
114.04924 -48.291634 0.41440001
114.05102 -48.341599 0.4048
114.0528 -48.391567 0.40799999
114.05457 -48.441536 0.4208
114.05635 -48.491505 0.41679999
114.05812 -48.541473 0.4048
114.0599 -48.591442 0.4016
114.06168 -48.641411 0.24240001
114.06345 -48.69138 0.24240001
114.06523 -48.741348 0.25279999
114.067 -48.791317 0.2208
114.06878 -48.841286 0.83920002
114.07056 -48.891251 0.95039999
114.07233 -48.941223 0.97039998
114.07411 -48.991188 0.97039998
114.07588 -49.041161 0.95120001
114.07766 -49.091125 0.89200002
114.07944 -49.141094 0.83999997
114.08121 -49.191063 0.78640002
114.08298 -49.241032 0.73119998
114.08476 -49.291 0.66640002
114.08654 -49.340969 0.616
114.08832 -49.390938 0.5456
114.09009 -49.440907 0.472
114.09187 -49.490875 0.40400001
114.09364 -49.54084 0.3328
114.09542 -49.590813 0.25279999
114.0972 -49.640778 0.17120001
114.09897 -49.69075 0.0528
114.10075 -49.740715 -0.044799998
114.10252 -49.790688 -0.1312
114.10429 -49.840652 -0.26800001
113.83338 -47.849018 0.3312
113.83516 -47.898987 0.38
113.83693 -47.948956 0.4224
113.83871 -47.998924 0.43279999
113.84048 -48.048893 0.43360001
113.84226 -48.098862 0.4296
113.84404 -48.148827 0.42879999
113.84581 -48.198799 0.40000001
113.8476 -48.248764 0.3928
113.84937 -48.298737 0.42160001
113.85114 -48.348701 0.40400001
113.85292 -48.39867 0.40239999
113.85469 -48.448639 0.39919999
113.85648 -48.498608 0.4048
113.85825 -48.548576 0.4016
113.86002 -48.598545 0.39919999
113.8618 -48.648514 0.24160001
113.86357 -48.698483 0.2456
113.86536 -48.748451 0.25279999
113.86713 -48.79842 0.22400001
113.8689 -48.848389 0.84240001
113.87068 -48.898354 0.9544
113.87245 -48.948326 0.96960002
113.87424 -48.998291 0.97439998
113.87601 -49.048264 0.95999998
113.87778 -49.098228 0.89279997
113.87956 -49.148197 0.83840001
113.88133 -49.198166 0.78799999
113.88311 -49.248135 0.71039999
113.88489 -49.298103 0.67680001
113.88667 -49.348072 0.61199999
113.88844 -49.398041 0.55119997
113.89021 -49.448009 0.47679999
113.89199 -49.497978 0.40959999
113.89377 -49.547943 0.3312
113.89555 -49.597916 0.2456
113.89732 -49.647881 0.16
113.89909 -49.697853 0.063199997
113.90087 -49.747818 -0.0272
113.90265 -49.797791 -0.1584
113.90442 -49.847755 -0.26159999
113.63528 -47.90609 0.38240001
113.63706 -47.956062 0.39919999
113.63884 -48.006027 0.40560001
113.64062 -48.056 0.40400001
113.6424 -48.105965 0.40959999
113.64417 -48.155933 0.428
113.64594 -48.205902 0.4224
113.64772 -48.255871 0.40560001
113.64949 -48.30584 0.40560001
113.65128 -48.355808 0.4032
113.65305 -48.405777 0.4104
113.65482 -48.455742 0.4208
113.6566 -48.505714 0.44240001
113.65837 -48.555679 0.41280001
113.66016 -48.605652 0.368
113.66193 -48.655617 0.24959999
113.6637 -48.705589 0.24079999
113.66548 -48.755554 0.25040001
113.66725 -48.805527 0.22319999
113.66904 -48.855492 0.83520001
113.67081 -48.90546 0.9544
113.67258 -48.955429 0.96880001
113.67436 -49.005394 0.97439998
113.67613 -49.055367 0.95200002
113.67792 -49.105331 0.89279997
113.67969 -49.155304 0.84079999
113.68147 -49.205269 0.78320003
113.68324 -49.255241 0.74720001
113.68501 -49.305206 0.68720001
113.6868 -49.355179 0.60879999
113.68857 -49.405144 0.54159999
113.69035 -49.455116 0.47679999
113.69212 -49.505081 0.40560001
113.69389 -49.55505 0.3344
113.69568 -49.605019 0.24959999
113.69745 -49.654984 0.1816
113.69923 -49.704956 0.066399999
113.701 -49.754921 -0.030400001
113.70277 -49.804893 -0.15360001
113.43542 -47.913193 0.38319999
113.43719 -47.963165 0.39039999
113.43896 -48.01313 0.3976
113.44074 -48.063103 0.4032
113.44252 -48.113068 0.43279999
113.4443 -48.16304 0.43599999
113.44608 -48.213005 0.4456
113.44785 -48.262978 0.4368
113.44962 -48.312943 0.4312
113.4514 -48.362915 0.43360001
113.45318 -48.41288 0.43279999
113.45496 -48.462849 0.42559999
113.45673 -48.512817 0.43599999
113.4585 -48.562786 0.43200001
113.46028 -48.612755 0.384
113.46205 -48.66272 0.2384
113.46384 -48.712692 0.2376
113.46561 -48.762657 0.23199999
113.46738 -48.81263 0.21520001
113.46916 -48.862595 0.8416
113.47093 -48.912567 0.94880003
113.47272 -48.962532 0.96399999
113.47449 -49.012501 0.97680002
113.47626 -49.062469 0.95999998
113.47804 -49.112438 0.89359999
113.47981 -49.162407 0.84399998
113.4816 -49.212376 0.7888
113.48337 -49.262344 0.73439997
113.48515 -49.312313 0.67680001
113.48692 -49.362282 0.61440003
113.48869 -49.412247 0.54799998
113.49048 -49.462219 0.4808
113.49225 -49.512184 0.41119999
113.49403 -49.562157 0.33919999
113.4958 -49.612122 0.2472
113.49757 -49.66209 0.17039999
113.49936 -49.712059 0.071999997
113.50113 -49.762028 -0.034400001
113.50291 -49.811996 -0.1472
113.23376 -47.870331 0.23360001
113.23554 -47.920296 0.3752
113.23732 -47.970268 0.38080001
113.23909 -48.020233 0.40000001
113.24087 -48.070206 0.40079999
113.24265 -48.120171 0.39359999
113.24442 -48.170143 0.39680001
113.2462 -48.220108 0.39199999
113.24797 -48.270081 0.4032
113.24975 -48.320045 0.3944
113.25153 -48.370018 0.40079999
113.2533 -48.419983 0.42559999
113.25508 -48.469952 0.43279999
113.25685 -48.51992 0.44639999
113.25863 -48.569889 0.44159999
113.26041 -48.619858 0.42879999
113.26218 -48.669823 0.29519999
113.26396 -48.719795 0.2464
113.26573 -48.76976 0.23360001
113.26751 -48.819733 0.24240001
113.26929 -48.869698 0.82800001
113.27106 -48.91967 0.96079999
113.27284 -48.969635 0.97680002
113.27461 -49.019604 0.96880001
113.27639 -49.069572 0.96719998
113.27817 -49.119541 0.88959998
113.27994 -49.16951 0.8448
113.28172 -49.219479 0.78640002
113.28349 -49.269447 0.7392
113.28527 -49.319416 0.676
113.28705 -49.369385 0.61040002
113.28882 -49.41935 0.5528
113.2906 -49.469322 0.49759999
113.29237 -49.519287 0.412
113.29415 -49.56926 0.3312
113.29593 -49.619225 0.25279999
113.2977 -49.669193 0.17120001
113.29948 -49.719162 0.080799997
113.30125 -49.769131 -0.0152
113.30303 -49.819099 -0.1192
113.30481 -49.869068 -0.24959999
113.03389 -47.877434 0.17039999
113.03567 -47.927402 0.39039999
113.03745 -47.977371 0.396
113.03922 -48.02734 0.40560001
113.04099 -48.077309 0.4064
113.04277 -48.127277 0.39919999
113.04455 -48.177246 0.39919999
113.04633 -48.227215 0.4016
113.0481 -48.277184 0.4136
113.04987 -48.327152 0.39199999
113.05165 -48.377121 0.39520001
113.05343 -48.427086 0.39039999
113.05521 -48.477058 0.3944
113.05698 -48.527023 0.4048
113.05875 -48.576996 0.41679999
113.06053 -48.626961 0.412
113.0623 -48.676929 0.40079999
113.06409 -48.726898 0.23280001
113.06586 -48.776867 0.2392
113.06763 -48.826836 0.2264
113.06941 -48.876804 0.83200002
113.07118 -48.926773 0.93279999
113.07297 -48.976742 0.96880001
113.07474 -49.026711 0.97680002
113.07652 -49.076679 0.96240002
113.07829 -49.126648 0.89520001
113.08006 -49.176613 0.852
113.08185 -49.226585 0.79280001
113.08362 -49.27655 0.73680001
113.0854 -49.326523 0.6728
113.08717 -49.376488 0.61680001
113.08894 -49.426456 0.55839998
113.09073 -49.476425 0.48800001
113.0925 -49.526394 0.41600001
113.09428 -49.576363 0.33840001
113.09605 -49.626331 0.25760001
113.09782 -49.6763 0.17839999
113.09961 -49.726269 0.073600002
113.10138 -49.776237 -0.016000001
113.10316 -49.826206 -0.124
113.10493 -49.876175 -0.24240001
112.83046 -47.784603 -0.1216
112.83224 -47.834572 0.071199998
112.83401 -47.884541 0.26480001
112.83579 -47.934509 0.36719999
112.83757 -47.984478 0.3856
112.83934 -48.034447 0.396
112.84112 -48.084415 0.3856
112.8429 -48.134384 0.40000001
112.84467 -48.184349 0.412
112.84645 -48.234322 0.40880001
112.84822 -48.284286 0.39919999
112.85 -48.334259 0.4136
112.85178 -48.384224 0.41440001
112.85355 -48.434193 0.42320001
112.85533 -48.484161 0.4488
112.8571 -48.53413 0.44479999
112.85888 -48.584099 0.43520001
112.86066 -48.634068 0.39680001
112.86243 -48.684036 0.324
112.86421 -48.734005 0.25119999
112.86598 -48.783974 0.24079999
112.86776 -48.833942 0.2296
112.86954 -48.883911 0.8312
112.87131 -48.933876 0.93519998
112.87309 -48.983849 0.97039998
112.87486 -49.033813 0.97439998
112.87664 -49.083786 0.96399999
112.87842 -49.133751 0.9016
112.88019 -49.18372 0.86320001
112.88197 -49.233688 0.79040003
112.88374 -49.283657 0.72719997
112.88552 -49.333626 0.68239999
112.8873 -49.383595 0.62
112.88907 -49.433563 0.55839998
112.89085 -49.483532 0.49039999
112.89262 -49.533501 0.41280001
112.8944 -49.583466 0.3448
112.89618 -49.633438 0.2608
112.89795 -49.683403 0.1752
112.89973 -49.733376 0.079999998
112.9015 -49.78334 -0.0152
112.90328 -49.833313 -0.1216
112.90506 -49.883278 -0.252
112.63414 -47.891644 0.3048
112.63593 -47.941612 0.34959999
112.6377 -47.991581 0.37279999
112.63947 -48.04155 0.43279999
112.64125 -48.091518 0.3944
112.64302 -48.141487 0.39520001
112.64481 -48.191452 0.40880001
112.64658 -48.241425 0.42160001
112.64835 -48.291389 0.4136
112.65013 -48.341362 0.40880001
112.6519 -48.391327 0.42879999
112.65369 -48.441296 0.4488
112.65546 -48.491264 0.43520001
112.65723 -48.541233 0.46000001
112.65901 -48.591202 0.44400001
112.66078 -48.641171 0.4064
112.66256 -48.691139 0.32879999
112.66434 -48.741108 0.2448
112.66611 -48.791077 0.3576
112.66789 -48.841045 0.4896
112.66966 -48.891014 0.83039999
112.67144 -48.940979 0.94
112.67322 -48.990952 0.96640003
112.675 -49.040916 0.96960002
112.67677 -49.090889 0.95279998
112.67854 -49.140854 0.91039997
112.68032 -49.190823 0.84399998
112.6821 -49.240791 0.79119998
112.68387 -49.29076 0.74720001
112.68565 -49.340729 0.67439997
112.68742 -49.390697 0.62159997
112.6892 -49.440666 0.56400001
112.69098 -49.490635 0.48640001
112.69275 -49.540604 0.42480001
112.69453 -49.590569 0.33680001
112.6963 -49.640541 0.2744
112.69808 -49.690506 0.18000001
112.69986 -49.740479 0.090400003
112.70163 -49.790443 -0.0136
112.70341 -49.840416 -0.1256
112.70518 -49.890381 -0.24079999
112.43427 -47.89875 0.27520001
112.43605 -47.948715 0.3856
112.43782 -47.998688 0.44319999
112.4396 -48.048653 0.4736
112.44138 -48.098625 0.48640001
112.44315 -48.14859 0.4752
112.44493 -48.198559 0.46880001
112.4467 -48.248528 0.44080001
112.44848 -48.298496 0.428
112.45026 -48.348465 0.4136
112.45203 -48.398434 0.40959999
112.45381 -48.448402 0.42160001
112.45558 -48.498367 0.41440001
112.45736 -48.54834 0.4136
112.45914 -48.598305 0.41999999
112.46091 -48.648277 0.4016
112.46268 -48.698242 0.25920001
112.46446 -48.748215 0.244
112.46624 -48.79818 0.24079999
112.46802 -48.848152 0.40720001
112.46979 -48.898117 0.82319999
112.47157 -48.948086 0.93760002
112.47334 -48.998055 0.96960002
112.47512 -49.048019 0.96719998
112.4769 -49.097992 0.96079999
112.47867 -49.147957 0.89520001
112.48045 -49.197929 0.85280001
112.48222 -49.247894 0.79119998
112.48399 -49.297867 0.73680001
112.48578 -49.347832 0.6904
112.48755 -49.397804 0.62480003
112.48933 -49.447769 0.5456
112.4911 -49.497742 0.4928
112.49287 -49.547707 0.41119999
112.49466 -49.597675 0.34959999
112.49643 -49.647644 0.26320001
112.49821 -49.697609 0.1728
112.49998 -49.747581 0.081600003
112.50175 -49.797546 -0.0144
112.50354 -49.847519 -0.1
112.50531 -49.897484 -0.2464
112.23618 -47.955818 0.40079999
112.23795 -48.005791 0.41440001
112.23972 -48.055756 0.43279999
112.2415 -48.105728 0.43439999
112.24327 -48.155693 0.42399999
112.24506 -48.205666 0.4032
112.24683 -48.25563 0.3976
112.2486 -48.305603 0.40799999
112.25038 -48.355568 0.39840001
112.25215 -48.40554 0.39199999
112.25394 -48.455505 0.39120001
112.25571 -48.505474 0.39039999
112.25748 -48.555443 0.3976
112.25926 -48.605412 0.4016
112.26103 -48.65538 0.39919999
112.26281 -48.705345 0.252
112.26459 -48.755318 0.23999999
112.26637 -48.805283 0.23119999
112.26814 -48.855255 0.23119999
112.26991 -48.90522 0.82800001
112.27169 -48.955193 0.93519998
112.27347 -49.005157 0.95840001
112.27525 -49.055126 0.97280002
112.27702 -49.105095 0.96240002
112.27879 -49.155064 0.8944
112.28057 -49.205032 0.8488
112.28235 -49.255001 0.79519999
112.28412 -49.30497 0.74479997
112.2859 -49.354939 0.68400002
112.28767 -49.404907 0.62879997
112.28945 -49.454872 0.5528
112.29123 -49.504845 0.49520001
112.293 -49.55481 0.42480001
112.29478 -49.604782 0.3416
112.29655 -49.654747 0.27360001
112.29833 -49.704716 0.1832
112.30011 -49.754684 0.094400004
112.30188 -49.804653 -0.016000001
112.30367 -49.854622 -0.1128
112.30544 -49.904591 -0.2464
112.0363 -47.962921 0.39520001
112.03807 -48.012894 0.4224
112.03985 -48.062859 0.46079999
112.04163 -48.112831 0.4664
112.0434 -48.162796 0.43520001
112.04518 -48.212769 0.40959999
112.04695 -48.262733 0.41119999
112.04873 -48.312706 0.4208
112.05051 -48.362671 0.41839999
112.05228 -48.412643 0.40079999
112.05406 -48.462608 0.43279999
112.05583 -48.512577 0.39199999
112.05761 -48.562546 0.39840001
112.05939 -48.612514 0.3928
112.06116 -48.662483 0.3888
112.06293 -48.712448 0.24160001
112.06471 -48.762421 0.23280001
112.06649 -48.812386 0.2368
112.06827 -48.862358 0.2256
112.07004 -48.912323 0.81919998
112.07182 -48.962296 0.91600001
112.07359 -49.01226 0.95840001
112.07537 -49.062229 0.96960002
112.07715 -49.112198 0.95999998
112.07892 -49.162167 0.90319997
112.0807 -49.212135 0.85759997
112.08247 -49.262104 0.79519999
112.08424 -49.312073 0.75199997
112.08603 -49.362041 0.68080002
112.0878 -49.41201 0.62480003
112.08958 -49.461975 0.56080002
112.09135 -49.511948 0.4984
112.09312 -49.561913 0.41600001
112.09491 -49.611885 0.352
112.09668 -49.66185 0.27200001
112.09846 -49.711819 0.176
112.10023 -49.761787 0.096799999
112.10201 -49.811756 -0.0112
112.10379 -49.861725 -0.1032
112.10556 -49.911694 -0.208
111.83464 -47.920059 0.1296
111.83643 -47.970028 0.4104
111.8382 -48.019997 0.43040001
111.83997 -48.069965 0.44479999
111.84175 -48.119934 0.4208
111.84352 -48.169903 0.42480001
111.84531 -48.219872 0.42320001
111.84708 -48.26984 0.41280001
111.84885 -48.319809 0.40959999
111.85063 -48.369778 0.44240001
111.8524 -48.419746 0.42480001
111.85419 -48.469711 0.39120001
111.85596 -48.519684 0.39520001
111.85773 -48.569649 0.38080001
111.85951 -48.619621 0.3944
111.86128 -48.669586 0.39359999
111.86306 -48.719555 0.37279999
111.86484 -48.769524 0.25600001
111.86662 -48.819492 0.32800001
111.86839 -48.869461 0.41280001
111.87016 -48.91943 0.82480001
111.87194 -48.969398 0.91680002
111.87372 -49.019367 0.95999998
111.8755 -49.069336 0.96880001
111.87727 -49.119305 0.9544
111.87904 -49.169273 0.90079999
111.88082 -49.219238 0.85280001
111.8826 -49.269211 0.80559999
111.88437 -49.319176 0.74000001
111.88615 -49.369148 0.69679999
111.88792 -49.419113 0.62720001
111.8897 -49.469082 0.55839998
111.89148 -49.519051 0.49520001
111.89325 -49.569019 0.42719999
111.89503 -49.618988 0.3608
111.8968 -49.668957 0.2696
111.89858 -49.718925 0.184
111.90036 -49.768894 0.081600003
111.90213 -49.818863 -0.0080000004
111.90392 -49.868832 -0.1168
111.90569 -49.9188 -0.2384
111.63655 -47.977135 0.396
111.63832 -48.027103 0.42399999
111.64011 -48.077072 0.43360001
111.64188 -48.127041 0.44240001
111.64365 -48.17701 0.43439999
111.64543 -48.226974 0.42480001
111.6472 -48.276947 0.4048
111.64899 -48.326912 0.4104
111.65076 -48.376884 0.428
111.65253 -48.426849 0.40400001
111.65431 -48.476818 0.40000001
111.65608 -48.526787 0.4016
111.65787 -48.576756 0.4048
111.65964 -48.626724 0.39919999
111.66142 -48.676693 0.41760001
111.66319 -48.726662 0.23999999
111.66496 -48.77663 0.2392
111.66675 -48.826599 0.2368
111.66852 -48.876568 0.22400001
111.6703 -48.926537 0.82160002
111.67207 -48.976501 0.86879998
111.67384 -49.026474 0.96319997
111.67563 -49.076439 0.96960002
111.6774 -49.126411 0.95200002
111.67918 -49.176376 0.9016
111.68095 -49.226345 0.85519999
111.68272 -49.276314 0.80400002
111.6845 -49.326283 0.7432
111.68628 -49.376251 0.69120002
111.68806 -49.42622 0.61839998
111.68983 -49.476189 0.56480002
111.6916 -49.526157 0.4984
111.69338 -49.576126 0.42879999
111.69516 -49.626091 0.35280001
111.69694 -49.676064 0.26480001
111.69872 -49.726028 0.19840001
111.70049 -49.776001 0.091200002
111.70226 -49.825966 0.0031999999
111.70404 -49.875938 -0.1192
111.70581 -49.925903 -0.2208
111.43668 -47.984238 0.42160001
111.43845 -48.034206 0.42320001
111.44023 -48.084175 0.43920001
111.442 -48.134144 0.43360001
111.44378 -48.184113 0.43920001
111.44556 -48.234077 0.43360001
111.44733 -48.28405 0.412
111.44911 -48.334015 0.4208
111.45088 -48.383987 0.40959999
111.45266 -48.433952 0.39840001
111.45444 -48.483921 0.40400001
111.45621 -48.53389 0.42399999
111.45799 -48.583858 0.40239999
111.45976 -48.633827 0.40560001
111.46154 -48.683796 0.40079999
111.46332 -48.733765 0.35440001
111.46509 -48.783733 0.2176
111.46687 -48.833702 0.2296
111.46864 -48.883671 0.2184
111.47042 -48.93364 0.82639998
111.4722 -48.983604 0.87440002
111.47397 -49.033577 0.96399999
111.47575 -49.083542 0.96960002
111.47752 -49.133514 0.96560001
111.4793 -49.183479 0.90799999
111.48108 -49.233448 0.84799999
111.48285 -49.283417 0.80559999
111.48463 -49.333385 0.74239999
111.4864 -49.383354 0.69760001
111.48818 -49.433323 0.6304
111.48996 -49.483292 0.56160003
111.49173 -49.53326 0.50400001
111.49351 -49.583229 0.43599999
111.49529 -49.633194 0.35600001
111.49706 -49.683167 0.28240001
111.49884 -49.733131 0.1824
111.50061 -49.783104 0.088
111.50239 -49.833069 -0.0048000002
111.50417 -49.883041 -0.1104
111.50594 -49.933006 -0.212
111.23502 -47.941376 -0.13519999
111.2368 -47.991341 0.38
111.23857 -48.041313 0.40000001
111.24036 -48.091278 0.40560001
111.24213 -48.141251 0.4136
111.2439 -48.191216 0.40720001
111.24568 -48.241184 0.40799999
111.24745 -48.291153 0.42879999
111.24924 -48.341122 0.4032
111.25101 -48.39109 0.40720001
111.25278 -48.441059 0.42719999
111.25456 -48.491028 0.4104
111.25633 -48.540993 0.40400001
111.25812 -48.590965 0.43279999
111.25989 -48.64093 0.4104
111.26167 -48.690903 0.44639999
111.26344 -48.740868 0.2352
111.26521 -48.79084 0.23199999
111.267 -48.840805 0.23999999
111.26877 -48.890778 0.2272
111.27055 -48.940742 0.64639997
111.27232 -48.990711 0.84719998
111.27409 -49.04068 0.95999998
111.27588 -49.090645 0.9576
111.27765 -49.140617 0.96399999
111.27943 -49.190582 0.90799999
111.2812 -49.240555 0.8592
111.28297 -49.29052 0.80159998
111.28475 -49.340492 0.74879998
111.28653 -49.390457 0.69279999
111.28831 -49.44043 0.63279998
111.29008 -49.490395 0.57999998
111.29185 -49.540367 0.4984
111.29363 -49.590332 0.43279999
111.29541 -49.640301 0.35280001
111.29719 -49.690269 0.27520001
111.29897 -49.740234 0.19599999
111.30074 -49.790207 0.090400003
111.30251 -49.840172 0.0104
111.30429 -49.890144 -0.104
111.30606 -49.940109 -0.22319999
111.03516 -47.948479 0.22
111.03693 -47.998444 0.37760001
111.0387 -48.048416 0.39520001
111.04048 -48.098381 0.40880001
111.04226 -48.148354 0.4152
111.04404 -48.198318 0.43759999
111.04581 -48.248291 0.42480001
111.04758 -48.298256 0.41839999
111.04936 -48.348228 0.42160001
111.05113 -48.398193 0.4048
111.05292 -48.448166 0.40880001
111.05469 -48.498131 0.4032
111.05647 -48.5481 0.4136
111.05824 -48.598068 0.41119999
111.06001 -48.648037 0.39919999
111.0618 -48.698006 0.41440001
111.06357 -48.747971 0.252
111.06535 -48.797943 0.2368
111.06712 -48.847908 0.2368
111.06889 -48.897881 0.25119999
111.07068 -48.947845 0.81519997
111.07245 -48.997818 0.84240001
111.07423 -49.047783 0.95999998
111.076 -49.097752 0.95920002
111.07777 -49.14772 0.95840001
111.07956 -49.197689 0.91439998
111.08133 -49.247658 0.87760001
111.08311 -49.297626 0.80879998
111.08488 -49.347595 0.7608
111.08665 -49.397564 0.69679999
111.08844 -49.447533 0.6336
111.09021 -49.497498 0.57279998
111.09199 -49.54747 0.50160003
111.09377 -49.597435 0.428
111.09554 -49.647408 0.36000001
111.09732 -49.697372 0.27200001
111.09909 -49.747341 0.1936
111.10087 -49.79731 0.1024
111.10265 -49.847279 0.0208
111.10442 -49.897247 -0.1
111.10619 -49.947216 -0.2208
110.83705 -48.005547 0.38080001
110.83883 -48.055519 0.4104
110.84061 -48.105484 0.4152
110.84238 -48.155457 0.412
110.84416 -48.205421 0.39919999
110.84593 -48.255394 0.42399999
110.84771 -48.305359 0.41600001
110.84949 -48.355331 0.4032
110.85126 -48.405296 0.39840001
110.85304 -48.455269 0.3784
110.85481 -48.505234 0.396
110.85659 -48.555202 0.3944
110.85837 -48.605171 0.384
110.86014 -48.65514 0.4048
110.86192 -48.705109 0.4208
110.86369 -48.755074 0.2464
110.86547 -48.805046 0.2368
110.86725 -48.855011 0.2288
110.86902 -48.904984 0.21600001
110.8708 -48.954948 0.8168
110.87257 -49.004921 0.83359998
110.87435 -49.054886 0.95920002
110.87613 -49.104855 0.96160001
110.8779 -49.154823 0.96960002
110.87968 -49.204792 0.91039997
110.88145 -49.254761 0.85600001
110.88323 -49.304729 0.80000001
110.88501 -49.354698 0.75520003
110.88678 -49.404667 0.69520003
110.88857 -49.454636 0.62959999
110.89034 -49.504601 0.5704
110.89211 -49.554573 0.5104
110.89389 -49.604538 0.4488
110.89566 -49.65451 0.3696
110.89745 -49.704475 0.28799999
110.89922 -49.754444 0.19679999
110.90099 -49.804413 0.1
110.90277 -49.854382 0.0071999999
110.90454 -49.90435 -0.095200002
110.90632 -49.954319 -0.2216
110.63718 -48.012653 0.38
110.63896 -48.062622 0.4048
110.64073 -48.112591 0.40239999
110.64251 -48.16256 0.4016
110.64429 -48.212528 0.41440001
110.64606 -48.262497 0.40239999
110.64784 -48.312466 0.40799999
110.64961 -48.362434 0.37920001
110.65139 -48.412403 0.3888
110.65317 -48.462372 0.3872
110.65495 -48.512337 0.38640001
110.65672 -48.562309 0.39199999
110.65849 -48.612274 0.39840001
110.66027 -48.662247 0.37200001
110.66205 -48.712212 0.3784
110.66382 -48.76218 0.2296
110.6656 -48.812149 0.228
110.66737 -48.862118 0.2272
110.66915 -48.912086 0.22
110.67093 -48.962055 0.64399999
110.6727 -49.012024 0.83840001
110.67448 -49.061993 0.95840001
110.67625 -49.111961 0.9648
110.67803 -49.16193 0.95840001
110.67981 -49.211899 0.9048
110.68158 -49.261864 0.86159998
110.68336 -49.311836 0.80159998
110.68513 -49.361801 0.75440001
110.68691 -49.411774 0.69120002
110.68869 -49.461739 0.62720001
110.69046 -49.511707 0.57679999
110.69225 -49.561676 0.50400001
110.69402 -49.611645 0.4368
110.69579 -49.661613 0.36559999
110.69757 -49.711582 0.2872
110.69934 -49.761551 0.19760001
110.70113 -49.81152 0.116
110.7029 -49.861488 0.02
110.70467 -49.911457 -0.090400003
110.70645 -49.961426 -0.1936
110.43731 -48.01976 0.38080001
110.43909 -48.069729 0.40239999
110.44086 -48.119698 0.40799999
110.44263 -48.169666 0.40400001
110.44441 -48.219635 0.42559999
110.44619 -48.2696 0.42640001
110.44797 -48.319572 0.3944
110.44974 -48.369537 0.39359999
110.45152 -48.41951 0.3888
110.45329 -48.469475 0.3928
110.45507 -48.519444 0.4032
110.45685 -48.569412 0.40720001
110.45862 -48.619381 0.40400001
110.4604 -48.66935 0.4104
110.46217 -48.719318 0.39199999
110.46394 -48.769287 0.35679999
110.46573 -48.819256 0.35679999
110.4675 -48.869225 0.2208
110.46928 -48.919193 0.33360001
110.47105 -48.969162 0.81599998
110.47282 -49.019127 0.83679998
110.47461 -49.069099 0.95359999
110.47638 -49.119064 0.96960002
110.47816 -49.169037 0.95679998
110.47993 -49.219002 0.91759998
110.4817 -49.26897 0.86479998
110.48349 -49.318939 0.79759997
110.48526 -49.368908 0.7536
110.48704 -49.418877 0.69440001
110.48882 -49.468845 0.63599998
110.49059 -49.518814 0.58160001
110.49237 -49.568783 0.50959998
110.49414 -49.618752 0.44400001
110.49592 -49.668716 0.36320001
110.4977 -49.718689 0.29280001
110.49947 -49.768654 0.2
110.50125 -49.818626 0.1088
110.50302 -49.868591 0.0128
110.5048 -49.918564 -0.073600002
110.50658 -49.968529 -0.2208
110.23743 -48.026863 0.368
110.23921 -48.076832 0.39840001
110.24098 -48.126801 0.4048
110.24276 -48.176769 0.412
110.24454 -48.226738 0.45199999
110.24632 -48.276703 0.43599999
110.24809 -48.326675 0.41760001
110.24986 -48.37664 0.4016
110.25164 -48.426613 0.39039999
110.25342 -48.476578 0.41280001
110.2552 -48.526546 0.40720001
110.25697 -48.576515 0.4136
110.25874 -48.626484 0.4312
110.26052 -48.676453 0.40079999
110.2623 -48.726421 0.38640001
110.26407 -48.77639 0.252
110.26585 -48.826359 0.23280001
110.26762 -48.876328 0.22319999
110.2694 -48.926296 0.2208
110.27118 -48.976265 0.2096
110.27295 -49.02623 0.83679998
110.27473 -49.076202 0.95120001
110.2765 -49.126167 0.96640003
110.27828 -49.17614 0.96719998
110.28006 -49.226105 0.91439998
110.28183 -49.276073 0.85759997
110.28362 -49.326042 0.81120002
110.28539 -49.376011 0.75040001
110.28716 -49.42598 0.70160002
110.28894 -49.475948 0.63440001
110.29071 -49.525917 0.57200003
110.2925 -49.575886 0.50400001
110.29427 -49.625854 0.44319999
110.29604 -49.675819 0.36719999
110.29782 -49.725792 0.29519999
110.29959 -49.775757 0.1944
110.30138 -49.825729 0.1176
110.30315 -49.875694 0.0136
110.30492 -49.925667 -0.079999998
110.3067 -49.975632 -0.212
110.03401 -47.934029 0.0504
110.03578 -47.984001 0.34400001
110.03756 -48.033966 0.3768
110.03934 -48.083939 0.38319999
110.04111 -48.133904 0.4048
110.04288 -48.183876 0.40880001
110.04466 -48.233841 0.40799999
110.04644 -48.28381 0.3856
110.04822 -48.333778 0.38479999
110.04999 -48.383747 0.4152
110.05177 -48.433716 0.40239999
110.05354 -48.483685 0.40400001
110.05532 -48.533653 0.40799999
110.0571 -48.583618 0.41119999
110.05887 -48.633591 0.40880001
110.06065 -48.683556 0.40720001
110.06242 -48.733528 0.3008
110.06419 -48.783493 0.2264
110.06598 -48.833466 0.37040001
110.06775 -48.88343 0.25600001
110.06953 -48.933403 0.23119999
110.0713 -48.983368 0.8096
110.07307 -49.033337 0.83600003
110.07486 -49.083305 0.95520002
110.07663 -49.13327 0.96399999
110.07841 -49.183243 0.95679998
110.08018 -49.233208 0.92079997
110.08195 -49.28318 0.86159998
110.08374 -49.333145 0.81199998
110.08551 -49.383118 0.74879998
110.08729 -49.433083 0.69840002
110.08907 -49.483055 0.63599998
110.09084 -49.53302 0.5704
110.09262 -49.582993 0.52079999
110.09439 -49.632957 0.4384
110.09617 -49.682926 0.3592
110.09795 -49.732895 0.29120001
110.09972 -49.78286 0.21359999
110.1015 -49.832832 0.1104
110.10327 -49.882797 0.033599999
110.10505 -49.93277 -0.080799997
110.10683 -49.982735 -0.20640001
109.83235 -47.891167 0.27039999
109.83414 -47.941135 0.3328
109.83591 -47.991104 0.38960001
109.83768 -48.041069 0.38479999
109.83946 -48.091042 0.42879999
109.84123 -48.141006 0.46720001
109.84301 -48.190979 0.4736
109.84479 -48.240944 0.45280001
109.84657 -48.290916 0.40799999
109.84834 -48.340881 0.39520001
109.85011 -48.390854 0.39039999
109.85189 -48.440819 0.3888
109.85367 -48.490791 0.3888
109.85545 -48.540756 0.40880001
109.85722 -48.590725 0.40720001
109.85899 -48.640694 0.428
109.86077 -48.690662 0.5072
109.86255 -48.740631 0.29440001
109.86432 -48.790596 0.1848
109.8661 -48.840569 0.25119999
109.86787 -48.890533 0.2208
109.86965 -48.940506 0.2184
109.87143 -48.990471 0.75440001
109.8732 -49.040443 0.82959998
109.87498 -49.090408 0.95679998
109.87675 -49.140377 0.96719998
109.87853 -49.190346 0.95520002
109.88031 -49.240314 0.93279999
109.88208 -49.290283 0.8696
109.88387 -49.340252 0.8096
109.88564 -49.390221 0.75840002
109.88741 -49.440189 0.70160002
109.88919 -49.490158 0.64560002
109.89096 -49.540123 0.5776
109.89275 -49.590096 0.50319999
109.89452 -49.64006 0.43920001
109.89629 -49.690033 0.368
109.89807 -49.739998 0.28639999
109.89984 -49.789967 0.21359999
109.90163 -49.839935 0.12720001
109.9034 -49.889904 0.019200001
109.90517 -49.939873 -0.076800004
109.90695 -49.989841 -0.20479999
109.63603 -47.998207 0.33360001
109.63782 -48.048172 0.36160001
109.63959 -48.098145 0.37760001
109.64137 -48.148109 0.4016
109.64314 -48.198082 0.43200001
109.64491 -48.248047 0.4136
109.6467 -48.298019 0.40239999
109.64847 -48.347984 0.40880001
109.65025 -48.397957 0.43040001
109.65202 -48.447922 0.46079999
109.65379 -48.497894 0.47839999
109.65558 -48.547859 0.52319998
109.65735 -48.597828 0.54000002
109.65913 -48.647797 0.54479998
109.6609 -48.697765 0.47839999
109.66267 -48.747734 0.38319999
109.66445 -48.797699 0.43599999
109.66623 -48.847672 0.2552
109.66801 -48.897636 0.2296
109.66978 -48.947609 0.22400001
109.67155 -48.997574 0.2024
109.67333 -49.047546 0.83200002
109.67511 -49.097511 0.94480002
109.67689 -49.14748 0.96640003
109.67867 -49.197449 0.95279998
109.68044 -49.247417 0.91439998
109.68221 -49.297386 0.86080003
109.68399 -49.347355 0.80720001
109.68576 -49.397324 0.75040001
109.68755 -49.447292 0.70319998
109.68932 -49.497261 0.6408
109.69109 -49.547226 0.57999998
109.69287 -49.597198 0.5104
109.69464 -49.647163 0.4488
109.69643 -49.697136 0.37360001
109.6982 -49.747101 0.29679999
109.69997 -49.79707 0.2104
109.70175 -49.847038 0.1248
109.70352 -49.897007 0.024
109.70531 -49.946976 -0.078400001
109.70708 -49.996944 -0.1992
109.43794 -48.055279 0.29359999
109.43971 -48.105247 0.18080001
109.44149 -48.155216 0.2256
109.44327 -48.205185 0.24160001
109.44504 -48.255154 0.25999999
109.44682 -48.305122 0.2368
109.44859 -48.355091 0.23280001
109.45037 -48.40506 0.2344
109.45215 -48.455029 0.25600001
109.45392 -48.504997 0.2904
109.4557 -48.554962 0.32879999
109.45747 -48.604935 0.3136
109.45925 -48.6549 0.3312
109.46103 -48.704872 0.2656
109.4628 -48.754837 0.27039999
109.46458 -48.804806 0.27919999
109.46635 -48.854774 0.23119999
109.46813 -48.904743 0.2288
109.46991 -48.954712 0.2128
109.47168 -49.004681 0.2008
109.47346 -49.054649 0.83200002
109.47523 -49.104618 0.95120001
109.47701 -49.154587 0.95999998
109.47879 -49.204556 0.96399999
109.48056 -49.254524 0.92640001
109.48234 -49.304489 0.85759997
109.48412 -49.354462 0.81199998
109.48589 -49.404427 0.7608
109.48767 -49.454399 0.69679999
109.48944 -49.504364 0.65200001
109.49122 -49.554333 0.57679999
109.493 -49.604301 0.51200002
109.49477 -49.65427 0.46000001
109.49655 -49.704239 0.37279999
109.49832 -49.754208 0.3008
109.5001 -49.804176 0.212
109.50188 -49.854145 0.12639999
109.50365 -49.904114 0.038400002
109.50543 -49.954082 -0.080799997
109.5072 -50.004051 -0.1944
109.23807 -48.062382 -0.1072
109.23984 -48.112354 0.18880001
109.24162 -48.162319 0.2192
109.24339 -48.212292 0.2216
109.24516 -48.262257 0.2272
109.24695 -48.312225 0.22319999
109.24872 -48.362194 0.22239999
109.2505 -48.412163 0.2288
109.25227 -48.462132 0.228
109.25404 -48.5121 0.22
109.25583 -48.562069 0.228
109.2576 -48.612038 0.2256
109.25938 -48.662006 0.2272
109.26115 -48.711975 0.22319999
109.26292 -48.761944 0.2256
109.2647 -48.811909 0.23280001
109.26648 -48.861881 0.2296
109.26826 -48.911846 0.22319999
109.27003 -48.961819 0.2216
109.2718 -49.011784 0.2104
109.27358 -49.061752 0.824
109.27536 -49.111721 0.95840001
109.27714 -49.16169 0.95840001
109.27892 -49.211658 0.95999998
109.28069 -49.261627 0.91759998
109.28246 -49.311596 0.87440002
109.28424 -49.361565 0.81760001
109.28601 -49.411533 0.7608
109.2878 -49.461502 0.70319998
109.28957 -49.511471 0.6376
109.29134 -49.561436 0.58399999
109.29312 -49.611408 0.51599997
109.29489 -49.661373 0.44639999
109.29668 -49.711342 0.3696
109.29845 -49.761311 0.2976
109.30022 -49.811279 0.2104
109.302 -49.861248 0.1336
109.30377 -49.911217 0.032000002
109.30556 -49.961185 -0.090400003
109.30733 -50.011154 -0.18799999
109.03996 -48.119457 0.18719999
109.04174 -48.169426 0.2184
109.04352 -48.219395 0.2192
109.04529 -48.269363 0.228
109.04707 -48.319328 0.23280001
109.04884 -48.369301 0.23280001
109.05062 -48.419266 0.2288
109.0524 -48.469238 0.228
109.05417 -48.519203 0.2256
109.05595 -48.569172 0.2272
109.05772 -48.619141 0.228
109.0595 -48.669109 0.22400001
109.06128 -48.719078 0.2264
109.06305 -48.769047 0.22480001
109.06483 -48.819016 0.22319999
109.0666 -48.868984 0.23119999
109.06838 -48.918953 0.22480001
109.07016 -48.968922 0.228
109.07193 -49.01889 0.20640001
109.07371 -49.068855 0.82239997
109.07549 -49.118828 0.94559997
109.07726 -49.168793 0.9576
109.07904 -49.218765 0.96399999
109.08081 -49.26873 0.93120003
109.08259 -49.318699 0.87599999
109.08437 -49.368668 0.8168
109.08614 -49.418636 0.76639998
109.08792 -49.468605 0.708
109.08969 -49.518574 0.65920001
109.09147 -49.568542 0.57440001
109.09325 -49.618511 0.50959998
109.09502 -49.66848 0.46000001
109.0968 -49.718445 0.38319999
109.09857 -49.768417 0.30559999
109.10035 -49.818382 0.2208
109.10213 -49.868355 0.13600001
109.1039 -49.91832 0.0096000005
109.10568 -49.968292 -0.062399998
109.10745 -50.018257 -0.184
108.84009 -48.126564 0.19679999
108.84187 -48.176529 0.2192
108.84364 -48.226501 0.2264
108.84542 -48.276466 0.2272
108.8472 -48.326435 0.23119999
108.84897 -48.376404 0.23119999
108.85075 -48.426373 0.2264
108.85252 -48.476341 0.22319999
108.8543 -48.52631 0.22239999
108.85608 -48.576279 0.22239999
108.85785 -48.626244 0.2256
108.85963 -48.676216 0.22239999
108.8614 -48.726181 0.2264
108.86318 -48.776154 0.23199999
108.86496 -48.826118 0.23280001
108.86673 -48.876091 0.2264
108.86852 -48.926056 0.228
108.87029 -48.976028 0.22319999
108.87206 -49.025993 0.208
108.87384 -49.075962 0.82560003
108.87561 -49.125931 0.94319999
108.8774 -49.175896 0.95840001
108.87917 -49.225868 0.95679998
108.88094 -49.275833 0.92079997
108.88272 -49.325806 0.87919998
108.88449 -49.375771 0.81120002
108.88627 -49.425743 0.7568
108.88805 -49.475708 0.70480001
108.88982 -49.525681 0.63919997
108.8916 -49.575645 0.59039998
108.89337 -49.625618 0.51440001
108.89515 -49.675583 0.4544
108.89693 -49.725552 0.37200001
108.8987 -49.77552 0.30720001
108.90048 -49.825485 0.22
108.90225 -49.875458 0.1224
108.90403 -49.925423 0.038400002
108.90581 -49.975395 -0.0792
108.90758 -50.02536 -0.18799999
108.63844 -48.083694 -0.108
108.64022 -48.133667 0.17200001
108.642 -48.183632 0.2184
108.64378 -48.233604 0.2256
108.64555 -48.283569 0.22400001
108.64732 -48.333538 0.22480001
108.6491 -48.383507 0.22239999
108.65088 -48.433475 0.22480001
108.65265 -48.483444 0.22480001
108.65443 -48.533413 0.2288
108.6562 -48.583382 0.2256
108.65798 -48.63335 0.22400001
108.65976 -48.683319 0.22400001
108.66153 -48.733288 0.22480001
108.66331 -48.783257 0.2256
108.66508 -48.833221 0.2264
108.66686 -48.883194 0.22400001
108.66864 -48.933159 0.23199999
108.67041 -48.983131 0.22239999
108.6722 -49.033096 0.2112
108.67397 -49.083065 0.82239997
108.67574 -49.133034 0.94800001
108.67752 -49.183002 0.95599997
108.67929 -49.232971 0.9544
108.68108 -49.28294 0.92400002
108.68285 -49.332909 0.87519997
108.68462 -49.382877 0.8136
108.6864 -49.432846 0.76959997
108.68817 -49.482815 0.704
108.68996 -49.532784 0.64160001
108.69173 -49.582748 0.59439999
108.6935 -49.632721 0.51920003
108.69528 -49.682686 0.44159999
108.69705 -49.732655 0.37920001
108.69884 -49.782623 0.2992
108.70061 -49.832592 0.2296
108.70238 -49.882561 0.132
108.70416 -49.932529 0.0328
108.70593 -49.982498 -0.062399998
108.70771 -50.032467 -0.1728
108.43857 -48.090797 -0.1088
108.44035 -48.14077 0.1648
108.44212 -48.190735 0.2168
108.4439 -48.240707 0.22239999
108.44568 -48.290672 0.2264
108.44745 -48.340645 0.2256
108.44923 -48.39061 0.22319999
108.451 -48.440582 0.2264
108.45277 -48.490547 0.22480001
108.45456 -48.54052 0.22239999
108.45633 -48.590485 0.228
108.45811 -48.640453 0.22480001
108.45988 -48.690422 0.22239999
108.46165 -48.740391 0.2256
108.46344 -48.790359 0.22400001
108.46521 -48.840324 0.22239999
108.46699 -48.890297 0.2288
108.46877 -48.940262 0.2264
108.47054 -48.990234 0.2256
108.47232 -49.040199 0.2104
108.47409 -49.090172 0.81919998
