# .PCD v0.7 - Point Cloud Data file format
VERSION 0.7
FIELDS x y z
SIZE 4 4 4
TYPE F F F
COUNT 1 1 1
WIDTH 1579
HEIGHT 1
VIEWPOINT 0 0 0 1 0 0 0
POINTS 1579
DATA ascii
66.426643 -52.19265 0.22480001
66.427864 -52.24263 0.1384
66.429077 -52.292618 0.0568
66.430298 -52.342598 -0.0592
66.431519 -52.392586 -0.1472
66.432739 -52.442574 -0.2656
66.43396 -52.492554 -0.3784
66.154709 -49.248405 -1.4928
66.180336 -50.298096 -1.4976
66.181557 -50.34808 -1.4823999
66.182777 -50.398064 -1.4816
66.183998 -50.448051 -1.4888
66.185219 -50.498032 0.090400003
66.18644 -50.548019 0.1736
66.18766 -50.598007 0.28799999
66.188881 -50.647987 0.30000001
66.190102 -50.697975 0.34
66.191315 -50.747959 0.32879999
66.192535 -50.797943 0.32080001
66.193756 -50.847931 0.30000001
66.194977 -50.897915 0.33039999
66.196198 -50.947899 0.31760001
66.197418 -50.997887 0.33919999
66.198639 -51.047871 0.32319999
66.19986 -51.097855 0.32879999
66.20108 -51.147842 0.308
66.202301 -51.197826 0.29840001
66.203522 -51.24781 0.296
66.204742 -51.297798 0.29440001
66.205963 -51.347782 0.29280001
66.207184 -51.397766 0.324
66.208405 -51.447754 0.49759999
66.209618 -51.497734 0.76800001
66.210838 -51.547722 0.87440002
66.212059 -51.597706 0.88160002
66.21328 -51.64769 0.884
66.2145 -51.697678 0.85839999
66.215721 -51.747662 0.79280001
66.216942 -51.797646 0.75840002
66.218163 -51.847633 0.68959999
66.219383 -51.897617 0.64240003
66.220604 -51.947601 0.57520002
66.221825 -51.997589 0.50800002
66.223045 -52.047573 0.44080001
66.224266 -52.097557 0.38479999
66.225487 -52.147545 0.30559999
66.226707 -52.197525 0.22239999
66.227928 -52.247513 0.1496
66.229141 -52.297501 0.051199999
66.230362 -52.347481 -0.0392
66.231583 -52.397469 -0.1392
66.232803 -52.447456 -0.2536
66.234024 -52.497437 -0.38
66.235245 -52.547424 -0.54320002
66.236465 -52.597404 -0.68800002
65.981621 -50.352959 -1.4872
65.982841 -50.402946 -1.4944
65.984062 -50.45293 -1.4976
65.985283 -50.502914 0.1048
65.986504 -50.552902 0.132
65.987724 -50.602886 0.13600001
65.988945 -50.65287 0.1504
65.990166 -50.702858 0.1944
65.991379 -50.752838 0.244
65.992599 -50.802826 0.2608
65.99382 -50.852814 0.2712
65.995041 -50.902794 0.2816
65.996262 -50.952782 0.29120001
65.997482 -51.002766 0.3328
65.998703 -51.05275 0.3168
65.999924 -51.102737 0.31439999
66.001144 -51.152721 0.30239999
66.002365 -51.202705 0.3008
66.003586 -51.252693 0.3048
66.004807 -51.302677 0.31439999
66.006027 -51.352661 0.324
66.007248 -51.402649 0.4544
66.008469 -51.452633 0.50480002
66.009682 -51.502617 0.7568
66.010902 -51.552605 0.87360001
66.012123 -51.602585 0.87840003
66.013344 -51.652573 0.88559997
66.014565 -51.70256 0.86400002
66.015785 -51.752541 0.80320001
66.017006 -51.802528 0.74959999
66.018227 -51.852512 0.69679999
66.019447 -51.902496 0.6408
66.020668 -51.952484 0.57599998
66.021889 -52.002468 0.5104
66.023109 -52.052452 0.4648
66.02433 -52.10244 0.3888
66.025551 -52.15242 0.3136
66.026772 -52.202408 0.228
66.027992 -52.252396 0.1488
66.029205 -52.302376 0.054400001
66.030426 -52.352364 -0.039999999
66.031647 -52.402351 -0.1472
66.032867 -52.452332 -0.25440001
66.034088 -52.502319 -0.3784
66.035309 -52.552307 -0.51840001
65.760933 -49.508095 -1.5016
65.762154 -49.558083 -1.5088
65.763374 -49.608063 -1.5168
65.764595 -49.658051 -1.5104001
65.765816 -49.708035 -1.5128
65.767036 -49.758018 -1.5088
65.784119 -50.457809 -1.4944
65.785339 -50.507797 -0.24160001
65.78656 -50.557781 0.0744
65.787781 -50.607765 0.14480001
65.789001 -50.657753 0.152
65.790222 -50.707737 0.16240001
65.791435 -50.757721 0.2376
65.792656 -50.807709 0.29280001
65.793877 -50.857693 0.30880001
65.795097 -50.907677 0.3224
65.796318 -50.957664 0.3328
65.797539 -51.007645 0.32480001
65.798759 -51.057632 0.34
65.79998 -51.10762 0.29679999
65.801201 -51.1576 0.29120001
65.802422 -51.207588 0.2976
65.803642 -51.257572 0.2992
65.804863 -51.307556 0.31200001
65.806084 -51.357544 0.2608
65.807304 -51.407528 0.2568
65.808525 -51.457512 0.3168
65.809738 -51.5075 0.74400002
65.810959 -51.557484 0.87760001
65.81218 -51.607468 0.8768
65.8134 -51.657455 0.89039999
65.814621 -51.707439 0.8768
65.815842 -51.757423 0.80239999
65.817062 -51.807411 0.75440001
65.818283 -51.857391 0.69999999
65.819504 -51.907379 0.63279998
65.820724 -51.957367 0.57679999
65.821945 -52.007347 0.51599997
65.823166 -52.057335 0.45280001
65.824387 -52.107319 0.384
65.825607 -52.157303 0.30399999
65.826828 -52.207291 0.244
65.828049 -52.257271 0.16
65.829262 -52.307259 0.064000003
65.830482 -52.357246 -0.0352
65.831703 -52.407227 -0.1288
65.832924 -52.457214 -0.2384
65.834145 -52.507202 -0.37599999
65.835365 -52.557182 -0.50239998
65.584175 -50.462692 -1.4984
65.585396 -50.512672 0.051199999
65.586617 -50.56266 0.1024
65.587837 -50.612648 0.1376
65.589058 -50.662628 0.14399999
65.590279 -50.712616 0.1672
65.591492 -50.762604 0.2608
65.592712 -50.812584 0.30239999
65.593933 -50.862572 0.32640001
65.595154 -50.91256 0.3432
65.596375 -50.96254 0.33919999
65.597595 -51.012527 0.34720001
65.598816 -51.062515 0.3448
65.600037 -51.112495 0.31999999
65.601257 -51.162483 0.30880001
65.602478 -51.212471 0.32080001
65.603699 -51.262451 0.2888
65.604919 -51.312439 0.27039999
65.60614 -51.362427 0.26879999
65.607361 -51.412407 0.2568
65.608582 -51.462395 0.2608
65.609795 -51.512375 0.75120002
65.611015 -51.562363 0.87840003
65.612236 -51.61235 0.88160002
65.613457 -51.662331 0.88160002
65.614677 -51.712318 0.86479998
65.615898 -51.762306 0.81199998
65.617119 -51.812286 0.74479997
65.61834 -51.862274 0.69919997
65.61956 -51.912262 0.63840002
65.620781 -51.962242 0.5808
65.622002 -52.01223 0.53200001
65.623222 -52.062218 0.45199999
65.624443 -52.112198 0.38960001
65.625664 -52.162186 0.31439999
65.626884 -52.212173 0.2392
65.628105 -52.262154 0.1504
65.629318 -52.312141 0.068000004
65.630539 -52.362122 -0.035999998
65.63176 -52.412109 -0.12800001
65.63298 -52.462097 -0.24160001
65.634201 -52.512077 -0.3768
65.635422 -52.562065 -0.53200001
65.636642 -52.612053 -0.6688
65.384232 -50.467575 -1.492
65.385452 -50.517555 -1.2528
65.386673 -50.567543 0.079999998
65.387894 -50.617531 0.1376
65.389114 -50.667511 0.1408
65.390335 -50.717499 0.1864
65.391548 -50.767479 0.23119999
65.392769 -50.817467 0.2728
65.39399 -50.867455 0.30160001
65.39521 -50.917435 0.33199999
65.396431 -50.967422 0.33840001
65.397652 -51.01741 0.33840001
65.398872 -51.06739 0.32879999
65.400093 -51.117378 0.33680001
65.401314 -51.167366 0.3272
65.402534 -51.217346 0.32800001
65.403755 -51.267334 0.35679999
65.404976 -51.317322 0.29440001
65.406197 -51.367302 0.26800001
65.407417 -51.41729 0.2536
65.408638 -51.467278 0.41280001
65.409851 -51.517258 0.74879998
65.411072 -51.567245 0.87279999
65.412292 -51.617226 0.88160002
65.413513 -51.667213 0.88
65.414734 -51.717201 0.86720002
65.415955 -51.767181 0.80080003
65.417175 -51.817169 0.75919998
65.418396 -51.867157 0.69760001
65.419617 -51.917137 0.6408
65.420837 -51.967125 0.57999998
65.422058 -52.017113 0.52880001
65.423279 -52.067093 0.45519999
65.4245 -52.117081 0.3928
65.42572 -52.167068 0.3168
65.426941 -52.217049 0.2456
65.428162 -52.267036 0.1552
65.429375 -52.317024 0.062399998
65.430595 -52.367004 -0.0208
65.431816 -52.416992 -0.1328
65.433037 -52.46698 -0.2384
65.434258 -52.51696 -0.36719999
65.435478 -52.566948 -0.51840001
65.436699 -52.616928 -0.65600002
65.184296 -50.47245 -1.4888
65.185516 -50.522438 -0.2464
65.186737 -50.572426 0.1024
65.187958 -50.622406 0.1344
65.189178 -50.672394 0.1472
65.190399 -50.722382 0.19599999
65.191612 -50.772362 0.25839999
65.192833 -50.82235 0.30000001
65.194054 -50.872337 0.3224
65.195274 -50.922318 0.31760001
65.196495 -50.972305 0.32640001
65.197716 -51.022285 0.30720001
65.198936 -51.072273 0.2904
65.200157 -51.122261 0.2976
65.201378 -51.172241 0.296
65.202599 -51.222229 0.31119999
65.203819 -51.272217 0.31600001
65.20504 -51.322197 0.28479999
65.206261 -51.372185 0.2696
65.207481 -51.422173 0.2456
65.208702 -51.472153 0.48879999
65.209915 -51.522141 0.74879998
65.211136 -51.572128 0.87279999
65.212357 -51.622108 0.88480002
65.213577 -51.672096 0.8872
65.214798 -51.722084 0.87199998
65.216019 -51.772064 0.81519997
65.217239 -51.822052 0.7432
65.21846 -51.872032 0.704
65.219681 -51.92202 0.648
65.220901 -51.972008 0.5808
65.222122 -52.021988 0.52719998
65.223343 -52.071976 0.456
65.224564 -52.121964 0.38479999
65.225784 -52.171944 0.3224
65.227005 -52.221931 0.23280001
65.228226 -52.271919 0.1592
65.229439 -52.321899 0.064800002
65.230659 -52.371887 -0.032000002
65.23188 -52.421875 -0.1232
65.233101 -52.471855 -0.23360001
65.234322 -52.521843 -0.36320001
64.983139 -50.427345 -0.039999999
64.98436 -50.477333 0.085600004
64.98558 -50.527317 0.096000001
64.986801 -50.577301 0.1032
64.988022 -50.627289 0.1376
64.989243 -50.677273 0.152
64.990463 -50.727257 0.19599999
64.991676 -50.777245 0.2464
64.992897 -50.827229 0.27599999
64.994118 -50.877213 0.28960001
64.995338 -50.9272 0.31999999
64.996559 -50.977184 0.29840001
64.99778 -51.027168 0.29440001
64.999001 -51.077156 0.32480001
65.000221 -51.12714 0.3008
65.001442 -51.177124 0.28799999
65.002663 -51.227112 0.27599999
65.003883 -51.277092 0.2744
65.005104 -51.32708 0.2608
65.006325 -51.377068 0.25040001
65.007545 -51.427048 0.25040001
65.008766 -51.477036 0.37760001
65.009979 -51.52702 0.74879998
65.0112 -51.577003 0.86879998
65.012421 -51.626991 0.88080001
65.013641 -51.676975 0.88080001
65.014862 -51.726959 0.87519997
65.016083 -51.776947 0.80400002
65.017303 -51.826931 0.76560003
65.018524 -51.876915 0.70719999
65.019745 -51.926903 0.64399999
65.020966 -51.976887 0.59680003
65.022186 -52.026871 0.52960002
65.023407 -52.076859 0.46239999
65.024628 -52.126839 0.3872
65.025848 -52.176826 0.3328
65.027069 -52.226814 0.248
65.02829 -52.276794 0.1584
65.029503 -52.326782 0.071999997
65.030724 -52.37677 -0.031199999
65.031944 -52.42675 -0.1096
65.033165 -52.476738 -0.2384
65.034386 -52.526726 -0.35440001
65.035606 -52.576706 -0.51920003
65.036827 -52.626694 -0.65439999
64.764893 -49.682449 -1.5096
64.766113 -49.732437 -1.512
64.784416 -50.482216 -1.4944
64.785637 -50.532196 0.054400001
64.786858 -50.582184 0.094400004
64.788078 -50.632172 0.1408
64.789299 -50.682152 0.1408
64.79052 -50.73214 0.2288
64.791733 -50.782124 0.2608
64.792953 -50.832108 0.27599999
64.794174 -50.882095 0.2904
64.795395 -50.932079 0.31279999
64.796616 -50.982063 0.31040001
64.797836 -51.032051 0.31999999
64.799057 -51.082035 0.3256
64.800278 -51.132019 0.2976
64.801498 -51.182007 0.3152
64.802719 -51.231991 0.2992
64.80394 -51.281975 0.27520001
64.805161 -51.331963 0.264
64.806381 -51.381947 0.2696
64.807602 -51.431931 0.25760001
64.808823 -51.481918 0.2744
64.810036 -51.531898 0.75040001
64.811256 -51.581886 0.86879998
64.812477 -51.63187 0.884
64.813698 -51.681854 0.8872
64.814919 -51.731842 0.88080001
64.816139 -51.781826 0.81599998
64.81736 -51.83181 0.75840002
64.818581 -51.881798 0.70880002
64.819801 -51.931782 0.64639997
64.821022 -51.981766 0.57920003
64.822243 -52.031754 0.53600001
64.823463 -52.081738 0.4648
64.824684 -52.131721 0.3976
64.825905 -52.181709 0.3168
64.827126 -52.231697 0.2456
64.828346 -52.281677 0.164
64.829559 -52.331665 0.082400002
64.83078 -52.381645 -0.0112
64.832001 -52.431633 -0.12800001
64.833221 -52.481621 -0.2376
64.834442 -52.531601 -0.352
64.835663 -52.581589 -0.48879999
64.836884 -52.631577 -0.63520002
64.584473 -50.487095 -1.4872
64.585693 -50.537079 -0.2448
64.586914 -50.587067 0.088799998
64.588135 -50.637051 0.13680001
64.589355 -50.687035 0.1432
64.590576 -50.737022 0.17039999
64.591789 -50.787003 0.2008
64.59301 -50.83699 0.25760001
64.594231 -50.886978 0.28799999
64.595451 -50.936958 0.30399999
64.596672 -50.986946 0.308
64.597893 -51.03693 0.3136
64.599113 -51.086914 0.33680001
64.600334 -51.136902 0.3272
64.601555 -51.186886 0.34720001
64.602776 -51.23687 0.292
64.603996 -51.286858 0.28560001
64.605217 -51.336842 0.2816
64.606438 -51.386826 0.2976
64.607658 -51.436813 0.25839999
64.608879 -51.486797 0.32159999
64.610092 -51.536781 0.74879998
64.611313 -51.586769 0.87360001
64.612534 -51.636749 0.88080001
64.613754 -51.686737 0.88239998
64.614975 -51.736725 0.87279999
64.616196 -51.786705 0.82160002
64.617416 -51.836693 0.76639998
64.618637 -51.886677 0.70480001
64.619858 -51.936661 0.64880002
64.621078 -51.986649 0.58639997
64.622299 -52.036633 0.52960002
64.62352 -52.086617 0.4648
64.624741 -52.136604 0.39359999
64.625961 -52.186592 0.324
64.627182 -52.236572 0.244
64.628403 -52.28656 0.1648
64.629616 -52.336548 0.0792
64.630836 -52.386528 -0.022399999
64.632057 -52.436516 -0.1152
64.633278 -52.486504 -0.2288
64.634499 -52.536484 -0.352
64.635719 -52.586472 -0.48480001
64.63694 -52.636452 -0.66399997
64.384529 -50.491974 -1.5008
64.38575 -50.541962 -1.5
64.386971 -50.591946 0.080799997
64.388191 -50.64193 0.14480001
64.389412 -50.691917 0.1432
64.390633 -50.741901 0.19679999
64.391846 -50.791885 0.2376
64.393066 -50.841873 0.25600001
64.394287 -50.891857 0.292
64.395508 -50.941841 0.3184
64.396729 -50.991829 0.3344
64.397949 -51.041809 0.3344
64.39917 -51.091797 0.33919999
64.400391 -51.141785 0.30320001
64.401611 -51.191765 0.36320001
64.402832 -51.241753 0.31040001
64.404053 -51.291737 0.296
64.405273 -51.341721 0.3008
64.406494 -51.391708 0.26159999
64.407715 -51.441692 0.26480001
64.408936 -51.491676 0.35280001
64.410149 -51.541664 0.7464
64.411369 -51.591648 0.87440002
64.41259 -51.641632 0.88239998
64.413811 -51.69162 0.88160002
64.415031 -51.741604 0.86479998
64.416252 -51.791588 0.8064
64.417473 -51.841576 0.75919998
64.418694 -51.891556 0.70719999
64.419914 -51.941544 0.63679999
64.421135 -51.991531 0.59759998
64.422356 -52.041512 0.53200001
64.423576 -52.091499 0.4664
64.424797 -52.141483 0.40239999
64.426018 -52.191467 0.3224
64.427238 -52.241455 0.2464
64.428459 -52.291443 0.1832
64.429672 -52.341423 0.069600001
64.430893 -52.391411 -0.0176
64.432114 -52.441399 -0.116
64.433334 -52.491379 -0.2184
64.434555 -52.541367 -0.34799999
64.435776 -52.591354 -0.50480002
64.185814 -50.546841 -1.2544
64.187035 -50.596825 0.078400001
64.188255 -50.646812 0.1248
64.189476 -50.696796 0.13519999
64.190697 -50.74678 0.2016
64.19191 -50.796768 0.2464
64.19313 -50.846752 0.72079998
64.194351 -50.896736 0.308
64.195572 -50.946724 0.32879999
64.196793 -50.996708 0.35679999
64.198013 -51.046692 0.33759999
64.199234 -51.09668 0.32800001
64.200455 -51.146664 0.33919999
64.201675 -51.196648 0.33520001
64.202896 -51.246635 0.32480001
64.204117 -51.296616 0.292
64.205338 -51.346603 0.2784
64.206558 -51.396591 0.28799999
64.207779 -51.446571 0.2904
64.209 -51.496559 0.5248
64.210213 -51.546543 0.74080002
64.211433 -51.596527 0.8768
64.212654 -51.646515 0.88160002
64.213875 -51.696499 0.88080001
64.215096 -51.746483 0.87440002
64.216316 -51.796471 0.81040001
64.217537 -51.846455 0.76160002
64.218758 -51.896439 0.704
64.219978 -51.946426 0.65679997
64.221199 -51.99641 0.59200001
64.22242 -52.046394 0.53600001
64.22364 -52.096382 0.46160001
64.224861 -52.146362 0.40400001
64.226082 -52.19635 0.32879999
64.227303 -52.246338 0.25600001
64.228523 -52.296318 0.1736
64.229736 -52.346306 0.088
64.230957 -52.396294 -0.0080000004
64.232178 -52.446274 -0.1072
64.233398 -52.496262 -0.2256
64.234619 -52.546249 -0.3488
64.23584 -52.59623 -0.49200001
64.237061 -52.646217 -0.63679999
63.956589 -49.352081 -1.4944
63.957809 -49.402065 -1.4768
63.95903 -49.452049 -1.4808
63.960251 -49.502037 -1.4856
63.961472 -49.552017 -1.4904
63.962692 -49.602005 -1.4944
63.963913 -49.651993 -1.4992
63.983437 -50.451752 -1.4632
63.984657 -50.50174 -1.5032001
63.985878 -50.55172 0.031199999
63.987099 -50.601707 0.087200001
63.988319 -50.651695 0.13680001
63.98954 -50.701675 0.152
63.990761 -50.751663 0.1904
63.991974 -50.801647 0.2352
63.993195 -50.851631 0.26800001
63.994415 -50.901619 0.29840001
63.995636 -50.951603 0.30320001
63.996857 -51.001587 0.2976
63.998077 -51.051575 0.2976
63.999298 -51.101559 0.30239999
64.000519 -51.151543 0.31999999
64.00174 -51.20153 0.3488
64.00296 -51.251514 0.29679999
64.004181 -51.301498 0.29679999
64.005402 -51.351486 0.2728
64.006622 -51.40147 0.2888
64.007843 -51.451454 0.3312
64.009064 -51.501442 0.33680001
64.010277 -51.551422 0.7392
64.011497 -51.60141 0.8664
64.012718 -51.651394 0.88480002
64.013939 -51.701378 0.8768
64.01516 -51.751366 0.87519997
64.01638 -51.80135 0.81919998
64.017601 -51.851334 0.76239997
64.018822 -51.901321 0.71920002
64.020042 -51.951305 0.64399999
64.021263 -52.001289 0.59600002
64.022484 -52.051277 0.53359997
64.023705 -52.101261 0.47440001
64.024925 -52.151245 0.4032
64.026146 -52.201233 0.3312
64.027367 -52.251221 0.2568
64.028587 -52.301201 0.1768
64.0298 -52.351189 0.088
64.031021 -52.401169 0
64.032242 -52.451157 -0.1088
64.033463 -52.501144 -0.21520001
64.034683 -52.551125 -0.35519999
64.035904 -52.601112 -0.49360001
64.037125 -52.6511 -0.64399999
63.783493 -50.456635 -1.48
63.784714 -50.506618 -1.4895999
63.785934 -50.556602 -0.2464
63.787155 -50.60659 0.092
63.788376 -50.656574 0.132
63.789597 -50.706558 0.18080001
63.790817 -50.756546 0.2216
63.79203 -50.806526 0.24959999
63.793251 -50.856514 0.28799999
63.794472 -50.906502 0.3136
63.795692 -50.956482 0.32159999
63.796913 -51.00647 0.30880001
63.798134 -51.056454 0.3064
63.799355 -51.106438 0.32319999
63.800575 -51.156425 0.29440001
63.801796 -51.206409 0.30239999
63.803017 -51.256393 0.2976
63.804237 -51.306381 0.2832
63.805458 -51.356365 0.2872
63.806679 -51.406349 0.292
63.807899 -51.456337 0.26159999
63.80912 -51.506321 0.35679999
63.810333 -51.556305 0.74400002
63.811554 -51.606293 0.86879998
63.812775 -51.656273 0.87919998
63.813995 -51.706261 0.87840003
63.815216 -51.756248 0.87440002
63.816437 -51.806229 0.81760001
63.817657 -51.856216 0.77280003
63.818878 -51.9062 0.71920002
63.820099 -51.956184 0.67119998
63.82132 -52.006172 0.59759998
63.82254 -52.056156 0.54320002
63.823761 -52.10614 0.46799999
63.824982 -52.156128 0.4152
63.826202 -52.206116 0.33680001
63.827423 -52.256096 0.2536
63.828644 -52.306084 0.17120001
63.829857 -52.356071 0.098399997
63.831078 -52.406052 -0.0104
63.832298 -52.456039 -0.108
63.833519 -52.506027 -0.2112
63.83474 -52.556007 -0.3416
63.83596 -52.605995 -0.4984
63.555481 -49.311855 -1.4960001
63.556702 -49.361843 -1.484
63.581108 -50.361542 -1.484
63.582329 -50.41153 -1.4808
63.583549 -50.461514 -1.4848
63.58477 -50.511497 -1.4984
63.585991 -50.561485 -1.4976
63.587212 -50.611469 0.0832
63.588432 -50.661453 0.1344
63.589653 -50.711441 0.1416
63.590874 -50.761425 0.22239999
63.592087 -50.811409 0.27919999
63.593307 -50.861397 0.29840001
63.594528 -50.911381 0.31439999
63.595749 -50.961365 0.31439999
63.59697 -51.011353 0.30720001
63.59819 -51.061333 0.31279999
63.599411 -51.11132 0.30320001
63.600632 -51.161308 0.30000001
63.601852 -51.211288 0.29120001
63.603073 -51.261276 0.28560001
63.604294 -51.31126 0.2888
63.605515 -51.361244 0.28560001
63.606735 -51.411232 0.23999999
63.607956 -51.461216 0.2264
63.609177 -51.5112 0.34079999
63.61039 -51.561188 0.73839998
63.61161 -51.611172 0.86879998
63.612831 -51.661156 0.87760001
63.614052 -51.711143 0.88160002
63.615273 -51.761127 0.87440002
63.616493 -51.811111 0.81760001
63.617714 -51.861099 0.77520001
63.618935 -51.911079 0.72719997
63.620155 -51.961067 0.65920001
63.621376 -52.011055 0.5984
63.622597 -52.061035 0.53600001
63.623817 -52.111023 0.472
63.625038 -52.161011 0.40799999
63.626259 -52.210991 0.33360001
63.62748 -52.260979 0.25119999
63.6287 -52.310966 0.17839999
63.629913 -52.360947 0.092
63.631134 -52.410934 0.0016
63.632355 -52.460922 -0.104
63.633575 -52.510902 -0.212
63.634796 -52.56089 -0.33840001
63.636017 -52.610878 -0.47679999
63.355537 -49.316734 -1.4967999
63.356758 -49.366722 -1.4967999
63.357979 -49.41671 -1.5008
63.3592 -49.46669 -1.4952
63.36042 -49.516678 -1.4960001
63.361641 -49.566662 -1.5048
63.362862 -49.61665 -1.4984
63.364082 -49.666634 -1.5064
63.365303 -49.716618 -1.5104001
63.366524 -49.766602 -1.508
63.367744 -49.816589 -1.5016
63.368965 -49.866577 -1.508
63.370186 -49.916557 -1.5039999
63.371407 -49.966545 -1.484
63.372627 -50.016529 -1.492
63.37384 -50.066513 -1.5
63.375061 -50.116501 -1.488
63.376282 -50.166485 -1.4912
63.377502 -50.216469 -1.4960001
63.378723 -50.266457 -1.4864
63.379944 -50.316437 -1.492
63.381165 -50.366425 -1.4848
63.382385 -50.416412 -1.4936
63.383606 -50.466393 -1.492
63.384827 -50.51638 -1.492
63.386047 -50.566364 0.072800003
63.387268 -50.616348 0.090400003
63.388489 -50.666336 0.1472
63.389709 -50.71632 0.1904
63.39093 -50.766304 0.2192
63.392143 -50.816292 0.25279999
63.393364 -50.866276 0.2744
63.394585 -50.91626 0.28080001
63.395805 -50.966248 0.28240001
63.397026 -51.016232 0.3048
63.398247 -51.066216 0.3168
63.399467 -51.116203 0.30160001
63.400688 -51.166187 0.32640001
63.401909 -51.216171 0.30880001
63.40313 -51.266159 0.2976
63.40435 -51.316139 0.29280001
63.405571 -51.366127 0.28560001
63.406792 -51.416115 0.15279999
63.408012 -51.466095 0.13519999
63.409233 -51.516083 0.54320002
63.410446 -51.566067 0.73680001
63.411667 -51.616051 0.8488
63.412888 -51.666039 0.88080001
63.414108 -51.716022 0.87760001
63.415329 -51.766006 0.8768
63.41655 -51.815994 0.8136
63.41777 -51.865978 0.76319999
63.418991 -51.915962 0.72320002
63.420212 -51.96595 0.66000003
63.421432 -52.015934 0.59759998
63.422653 -52.065918 0.54000002
63.423874 -52.115906 0.47679999
63.425095 -52.165886 0.40560001
63.426315 -52.215874 0.33759999
63.427536 -52.265862 0.2624
63.428757 -52.315842 0.17200001
63.42997 -52.365829 0.092
63.43119 -52.415817 0.0136
63.432411 -52.465797 -0.104
63.433632 -52.515785 -0.2024
63.434853 -52.565773 -0.32640001
63.436073 -52.615753 -0.4576
63.437294 -52.665741 -0.60320002
63.438515 -52.715729 -0.8136
63.173904 -50.071396 -1.484
63.175125 -50.121384 -1.4832
63.176346 -50.171364 -1.508
63.177567 -50.221352 -1.492
63.178787 -50.271336 -1.4895999
63.180008 -50.32132 -1.4888
63.181229 -50.371307 -1.4904
63.182449 -50.421291 -1.4992
63.18367 -50.471275 -1.4895999
63.184891 -50.521263 -1.4904
63.186111 -50.571243 0.0112
63.187332 -50.621231 0.084799998
63.188553 -50.671219 0.148
63.189774 -50.721199 0.1912
63.190994 -50.771187 0.23119999
63.192207 -50.821171 0.264
63.193428 -50.871155 0.2888
63.194649 -50.921143 0.2888
63.195869 -50.971127 0.2888
63.19709 -51.021111 0.296
63.198311 -51.071098 0.32319999
63.199532 -51.121082 0.33360001
63.200752 -51.171066 0.296
63.201973 -51.221054 0.296
63.203194 -51.271038 0.2872
63.204414 -51.321022 0.27599999
63.205635 -51.37101 0.25999999
63.206856 -51.420994 0.156
63.208076 -51.470978 0.1312
63.209297 -51.520966 0.148
63.21051 -51.570946 0.73360002
63.211731 -51.620934 0.87279999
63.212952 -51.670918 0.87840003
63.214172 -51.720901 0.884
63.215393 -51.770889 0.87279999
63.216614 -51.820873 0.8168
63.217834 -51.870857 0.77280003
63.219055 -51.920845 0.7216
63.220276 -51.970829 0.66000003
63.221497 -52.020813 0.60079998
63.222717 -52.070801 0.5424
63.223938 -52.120785 0.4824
63.225159 -52.170769 0.4016
63.226379 -52.220757 0.32960001
63.2276 -52.270744 0.26640001
63.228821 -52.320724 0.1832
63.230034 -52.370712 0.092799999
63.231255 -52.420692 0.0088
63.232475 -52.47068 -0.093599997
63.233696 -52.520668 -0.2112
63.234917 -52.570648 -0.324
63.236137 -52.620636 -0.46239999
63.237358 -52.670624 -0.58880001
62.984955 -50.526142 -1.4928
62.986176 -50.576126 0.1024
62.987396 -50.626114 0.20559999
62.988617 -50.676098 0.1472
62.989838 -50.726082 0.16
62.991058 -50.77607 0.19599999
62.992271 -50.82605 0.22480001
62.993492 -50.876038 0.2456
62.994713 -50.926025 0.28080001
62.995934 -50.976006 0.27759999
62.997154 -51.025993 0.34959999
62.998375 -51.075977 0.30399999
62.999596 -51.125961 0.3048
63.000816 -51.175949 0.2728
63.002037 -51.225933 0.28400001
63.003258 -51.275917 0.27520001
63.004478 -51.325905 0.2728
63.005699 -51.375889 0.2608
63.00692 -51.425873 0.27759999
63.008141 -51.475861 0.13600001
63.009361 -51.525845 0.14
63.010574 -51.575829 0.74159998
63.011795 -51.625816 0.82639998
63.013016 -51.675797 0.88080001
63.014236 -51.725784 0.884
63.015457 -51.775772 0.8768
63.016678 -51.825752 0.82160002
63.017899 -51.87574 0.76480001
63.019119 -51.925724 0.71600002
63.02034 -51.975708 0.66799998
63.021561 -52.025696 0.60320002
63.022781 -52.07568 0.5456
63.024002 -52.125664 0.48800001
63.025223 -52.175652 0.40799999
63.026443 -52.225639 0.33360001
63.027664 -52.27562 0.27200001
63.028885 -52.325607 0.18880001
63.030098 -52.375595 0.1
63.031319 -52.425575 0.0104
63.032539 -52.475563 -0.092
63.03376 -52.525551 -0.1944
63.034981 -52.575531 -0.31600001
63.036201 -52.625519 -0.456
63.037422 -52.675499 -0.60960001
62.787453 -50.630993 0.0744
62.788673 -50.680977 0.1336
62.789894 -50.730965 0.1408
62.791115 -50.780949 0.1928
62.792328 -50.830933 0.23199999
62.793549 -50.88092 0.25839999
62.794769 -50.930904 0.44
62.79599 -50.980888 0.30160001
62.797211 -51.030876 0.30239999
62.798431 -51.080856 0.29280001
62.799652 -51.130844 0.29840001
62.800873 -51.180832 0.30239999
62.802094 -51.230812 0.32960001
62.803314 -51.2808 0.2728
62.804535 -51.330784 0.26640001
62.805756 -51.380768 0.25760001
62.806976 -51.430756 0.25999999
62.808197 -51.48074 0.2696
62.809418 -51.530724 0.41999999
62.810631 -51.580711 0.736
62.811852 -51.630695 0.83679998
62.813072 -51.680679 0.88080001
62.814293 -51.730667 0.87519997
62.815514 -51.780651 0.8768
62.816734 -51.830635 0.83039999
62.817955 -51.880623 0.77280003
62.819176 -51.930603 0.71200001
62.820396 -51.980591 0.6688
62.821617 -52.030579 0.60879999
62.822838 -52.080559 0.54400003
62.824059 -52.130547 0.484
62.825279 -52.180534 0.412
62.8265 -52.230515 0.352
62.827721 -52.280502 0.26480001
62.828941 -52.33049 0.1864
62.830154 -52.38047 0.1104
62.831375 -52.430458 0.0080000004
62.832596 -52.480446 -0.096000001
62.833817 -52.530426 -0.2096
62.835037 -52.580414 -0.3136
62.836258 -52.630402 -0.44080001
62.837479 -52.680382 -0.61760002
62.586288 -50.585888 0.0104
62.587509 -50.635872 0.0832
62.58873 -50.68586 0.1328
62.589951 -50.735844 0.16
62.591171 -50.785828 0.18799999
62.592384 -50.835815 0.2344
62.593605 -50.885799 0.2816
62.594826 -50.935783 0.292
62.596046 -50.985771 0.2904
62.597267 -51.035755 0.29280001
62.598488 -51.085739 0.2872
62.599709 -51.135727 0.28
62.600929 -51.185711 0.28400001
62.60215 -51.235695 0.28400001
62.603371 -51.285683 0.31200001
62.604591 -51.335663 0.28799999
62.605812 -51.385651 0.26480001
62.607033 -51.435638 0.25839999
62.608253 -51.485619 0.25600001
62.609474 -51.535606 0.3184
62.610687 -51.58559 0.73280001
62.611908 -51.635574 0.84560001
62.613129 -51.685562 0.88239998
62.614349 -51.735546 0.87840003
62.61557 -51.78553 0.87440002
62.616791 -51.835518 0.81999999
62.618011 -51.885502 0.78079998
62.619232 -51.935486 0.72799999
62.620453 -51.985474 0.66960001
62.621674 -52.035458 0.60000002
62.622894 -52.085442 0.53920001
62.624115 -52.135429 0.49520001
62.625336 -52.18541 0.42480001
62.626556 -52.235397 0.33759999
62.627777 -52.285385 0.27360001
62.628998 -52.335365 0.19760001
62.630211 -52.385353 0.1064
62.631432 -52.435341 0.0080000004
62.632652 -52.485321 -0.0792
62.633873 -52.535309 -0.2008
62.635094 -52.585297 -0.29359999
62.636314 -52.635277 -0.45519999
62.637535 -52.685265 -0.60320002
62.387566 -50.640755 0.062399998
62.388786 -50.690742 0.1312
62.390007 -50.740723 0.14560001
62.391228 -50.79071 0.1592
62.392441 -50.840694 0.22
62.393661 -50.890678 0.24160001
62.394882 -50.940666 0.2552
62.396103 -50.99065 0.28479999
62.397324 -51.040634 0.28799999
62.398544 -51.090622 0.28560001
62.399765 -51.140606 0.3504
62.400986 -51.19059 0.3696
62.402206 -51.240578 0.35600001
62.403427 -51.290562 0.3256
62.404648 -51.340546 0.32960001
62.405869 -51.390533 0.2728
62.407089 -51.440517 0.2712
62.40831 -51.490501 0.2624
62.409531 -51.540489 0.32960001
62.410744 -51.590469 0.736
62.411964 -51.640457 0.8168
62.413185 -51.690441 0.87840003
62.414406 -51.740425 0.88239998
62.415627 -51.790413 0.87840003
62.416847 -51.840397 0.82880002
62.418068 -51.890381 0.77200001
62.419289 -51.940369 0.71759999
62.420509 -51.990353 0.6728
62.42173 -52.040337 0.6056
62.422951 -52.090324 0.55919999
62.424171 -52.140308 0.484
62.425392 -52.190292 0.42879999
62.426613 -52.24028 0.336
62.427834 -52.290268 0.2744
62.429054 -52.340248 0.1928
62.430267 -52.390236 0.1
62.431488 -52.440216 0.019200001
62.432709 -52.490204 -0.079999998
62.433929 -52.540192 -0.1856
62.43515 -52.590172 -0.30880001
62.436371 -52.64016 -0.4384
62.437592 -52.690147 -0.58560002
62.438812 -52.740128 -0.76880002
62.186409 -50.59565 -0.32800001
62.18763 -50.645638 0.30000001
62.18885 -50.695621 0.12720001
62.190071 -50.745605 0.152
62.191292 -50.795593 0.1736
62.192505 -50.845573 0.20720001
62.193726 -50.895561 0.24079999
62.194946 -50.945549 0.26480001
62.196167 -50.995529 0.30000001
62.197388 -51.045517 0.30880001
62.198608 -51.095501 0.3064
62.199829 -51.145485 0.3136
62.20105 -51.195473 0.33199999
62.202271 -51.245457 0.34799999
62.203491 -51.295441 0.2976
62.204712 -51.345428 0.3224
62.205933 -51.395412 0.2992
62.207153 -51.445396 0.27360001
62.208374 -51.495384 0.25839999
62.209595 -51.545368 0.31439999
62.210808 -51.595352 0.73760003
62.212029 -51.64534 0.83039999
62.213249 -51.69532 0.8768
62.21447 -51.745308 0.87919998
62.215691 -51.795296 0.87840003
62.216911 -51.845276 0.82800001
62.218132 -51.895264 0.7712
62.219353 -51.945248 0.72240001
62.220573 -51.995232 0.67519999
62.221794 -52.045219 0.60640001
62.223015 -52.095203 0.56160003
62.224236 -52.145187 0.49360001
62.225456 -52.195175 0.41679999
62.226677 -52.245155 0.35440001
62.227898 -52.295143 0.2712
62.229118 -52.345131 0.2024
62.230331 -52.395111 0.1176
62.231552 -52.445099 0.031199999
62.232773 -52.495087 -0.088799998
62.233994 -52.545067 -0.1864
62.235214 -52.595055 -0.3048
62.236435 -52.645042 -0.4224
62.237656 -52.695023 -0.56959999
61.987694 -50.650517 0.56160003
61.988914 -50.7005 0.12639999
61.990135 -50.750488 0.1592
61.991356 -50.800472 0.1824
61.992569 -50.850456 0.20720001
61.99379 -50.900444 0.228
61.99501 -50.950428 0.244
61.996231 -51.000412 0.26320001
61.997452 -51.0504 0.30559999
61.998672 -51.10038 0.3432
61.999893 -51.150368 0.32080001
62.001114 -51.200356 0.29280001
62.002335 -51.250336 0.27520001
62.003555 -51.300323 0.27680001
62.004776 -51.350307 0.29840001
62.005997 -51.400291 0.34720001
62.007217 -51.450279 0.31040001
62.008438 -51.500263 0.1992
62.009659 -51.550247 0.2208
62.010872 -51.600235 0.74159998
62.012093 -51.650219 0.84399998
62.013313 -51.700203 0.87279999
62.014534 -51.750191 0.8768
62.015755 -51.800175 0.87840003
62.016975 -51.850159 0.83679998
62.018196 -51.900146 0.77999997
62.019417 -51.950127 0.72479999
62.020638 -52.000114 0.67040002
62.021858 -52.050102 0.62
62.023079 -52.100082 0.54960001
62.0243 -52.15007 0.48719999
62.02552 -52.20005 0.43439999
62.026741 -52.250038 0.35600001
62.027962 -52.300026 0.27919999
62.029182 -52.350006 0.1992
62.030396 -52.399994 0.1176
62.031616 -52.449982 0.0055999998
62.032837 -52.499962 -0.075199999
62.034058 -52.54995 -0.18799999
62.035278 -52.599937 -0.3064
62.036499 -52.649918 -0.43920001
62.03772 -52.699905 -0.588
61.78775 -50.655396 0.068800002
61.788971 -50.705383 0.1488
61.790192 -50.755367 0.1408
61.791412 -50.805351 0.1464
61.792625 -50.855339 0.1432
61.793846 -50.905323 0.1496
61.795067 -50.955307 0.18960001
61.796288 -51.005295 0.2872
61.797508 -51.055279 0.3328
61.798729 -51.105263 0.34
61.79995 -51.155251 0.31200001
61.80117 -51.205235 0.29519999
61.802391 -51.255219 0.28240001
61.803612 -51.305206 0.29679999
61.804832 -51.355186 0.296
61.806053 -51.405174 0.33039999
61.807274 -51.455162 0.28479999
61.808495 -51.505142 0.25839999
61.809715 -51.55513 0.252
61.810928 -51.605114 0.73839998
61.812149 -51.655098 0.8136
61.81337 -51.705086 0.87760001
61.81459 -51.75507 0.87760001
61.815811 -51.805054 0.8696
61.817032 -51.855042 0.83520001
61.818253 -51.905025 0.7744
61.819473 -51.955009 0.73040003
61.820694 -52.004997 0.67760003
61.821915 -52.054981 0.61199999
61.823135 -52.104965 0.56800002
61.824356 -52.154953 0.4912
61.825577 -52.204933 0.42160001
61.826797 -52.254921 0.3488
61.828018 -52.304909 0.28639999
61.829239 -52.354889 0.19679999
61.830452 -52.404877 0.1136
61.831673 -52.454857 0.016000001
61.832893 -52.504845 -0.0744
61.834114 -52.554832 -0.1928
61.835335 -52.604813 -0.2784
61.836555 -52.6548 -0.45840001
61.837776 -52.704788 -0.57440001
61.838997 -52.754768 -0.7568
61.587814 -50.660278 0.0792
61.589035 -50.710266 0.1256
61.590256 -50.760246 0.1256
61.591476 -50.810234 0.13600001
61.59269 -50.860218 0.38800001
61.59391 -50.910202 0.40079999
61.595131 -50.96019 0.39120001
61.596352 -51.010174 0.368
61.597572 -51.060158 0.34079999
61.598793 -51.110146 0.32879999
61.600014 -51.16013 0.29519999
61.601234 -51.210114 0.2888
61.602455 -51.260101 0.2992
61.603676 -51.310085 0.3184
61.604897 -51.360069 0.31999999
61.606117 -51.410057 0.33520001
61.607338 -51.460041 0.29440001
61.608559 -51.510025 0.30559999
61.609779 -51.560013 0.29840001
61.610992 -51.609993 0.74239999
61.612213 -51.659981 0.8344
61.613434 -51.709965 0.87199998
61.614655 -51.759949 0.88080001
61.615875 -51.809937 0.8768
61.617096 -51.859921 0.84799999
61.618317 -51.909904 0.77600002
61.619537 -51.959892 0.73519999
61.620758 -52.009876 0.67360002
61.621979 -52.05986 0.60799998
61.623199 -52.109848 0.55760002
61.62442 -52.159828 0.4928
61.625641 -52.209816 0.42640001
61.626862 -52.259804 0.3664
61.628082 -52.309784 0.27919999
61.629303 -52.359772 0.20479999
61.630516 -52.40976 0.1128
61.631737 -52.45974 0.021600001
61.632957 -52.509727 -0.079999998
61.634178 -52.559715 -0.1816
61.635399 -52.609695 -0.3008
61.63662 -52.659683 -0.43360001
61.63784 -52.709663 -0.56080002
61.639061 -52.759651 -0.77999997
61.387863 -50.665161 0.2448
61.389084 -50.715145 0.32800001
61.390305 -50.765129 0.36160001
61.391525 -50.815117 0.39039999
61.392738 -50.865097 0.4208
61.393959 -50.915085 0.40560001
61.39518 -50.965073 0.36719999
61.3964 -51.015053 0.3328
61.397621 -51.065041 0.3312
61.398842 -51.115025 0.28960001
61.400063 -51.165009 0.29280001
61.401283 -51.214996 0.29440001
61.402504 -51.26498 0.31119999
61.403725 -51.314964 0.29440001
61.404945 -51.364952 0.29840001
61.406166 -51.414936 0.30239999
61.407387 -51.46492 0.32480001
61.408607 -51.514908 0.25760001
61.409828 -51.564892 0.3184
61.411041 -51.614876 0.7288
61.412262 -51.664864 0.76319999
61.413483 -51.714844 0.87440002
61.414703 -51.764832 0.88
61.415924 -51.814819 0.88480002
61.417145 -51.864799 0.8344
61.418365 -51.914787 0.78799999
61.419586 -51.964771 0.74400002
61.420807 -52.014755 0.67199999
61.422028 -52.064743 0.62639999
61.423248 -52.114727 0.57120001
61.424469 -52.164711 0.49759999
61.42569 -52.214699 0.43599999
61.42691 -52.264679 0.3608
61.428131 -52.314667 0.29120001
61.429352 -52.364655 0.208
61.430565 -52.414635 0.1256
61.431786 -52.464622 0.0288
61.433006 -52.51461 -0.064000003
61.434227 -52.56459 -0.168
61.435448 -52.614578 -0.2872
61.436668 -52.664566 -0.42320001
61.437889 -52.714546 -0.58960003
61.43911 -52.764534 -0.7432
61.187927 -50.67004 0.20559999
61.189148 -50.720024 0.31279999
61.190369 -50.770012 0.32480001
61.191589 -50.819996 0.3152
61.192802 -50.86998 0.30160001
61.194023 -50.919968 0.30000001
61.195244 -50.969952 0.30559999
61.196465 -51.019936 0.31439999
61.197685 -51.069923 0.30880001
61.198906 -51.119904 0.3152
61.200127 -51.169891 0.32879999
61.201347 -51.219879 0.33759999
61.202568 -51.269859 0.3328
61.203789 -51.319847 0.324
61.205009 -51.369831 0.3272
61.20623 -51.419815 0.33039999
61.207451 -51.469803 0.32159999
61.208672 -51.519787 0.156
61.209892 -51.569771 0.15360001
61.211105 -51.619759 0.73199999
61.212326 -51.669743 0.75199997
61.213547 -51.719727 0.88160002
61.214767 -51.769714 0.88080001
61.215988 -51.819698 0.87919998
61.217209 -51.869682 0.84079999
61.21843 -51.91967 0.7816
61.21965 -51.96965 0.73519999
61.220871 -52.019638 0.68000001
61.222092 -52.069626 0.62239999
61.223312 -52.119606 0.57520002
61.224533 -52.169594 0.49759999
61.225754 -52.219574 0.4488
61.226974 -52.269562 0.36320001
61.228195 -52.31955 0.29280001
61.229416 -52.36953 0.212
61.230629 -52.419518 0.1208
61.23185 -52.469505 0.047200002
61.23307 -52.519485 -0.0704
61.234291 -52.569473 -0.1688
61.235512 -52.619461 -0.27759999
61.236732 -52.669441 -0.4104
60.989212 -50.724907 0.2832
60.990433 -50.774891 0.30000001
60.991653 -50.824875 0.30000001
60.992867 -50.874863 0.30000001
60.994087 -50.924847 0.32159999
60.995308 -50.974831 0.3256
60.996529 -51.024818 0.32640001
60.997749 -51.074802 0.3272
60.99897 -51.124786 0.32480001
61.000191 -51.174774 0.31119999
61.001411 -51.224758 0.38319999
61.002632 -51.274742 0.3328
61.003853 -51.32473 0.30239999
61.005074 -51.37471 0.3184
61.006294 -51.424698 0.32159999
61.007515 -51.474686 0.1648
61.008736 -51.524666 0.15279999
61.009956 -51.574654 0.1408
61.011169 -51.624638 0.1376
61.01239 -51.674622 0.76480001
61.013611 -51.724609 0.87199998
61.014832 -51.774593 0.88080001
61.016052 -51.824577 0.88319999
61.017273 -51.874565 0.8344
61.018494 -51.924549 0.78399998
61.019714 -51.974533 0.7288
61.020935 -52.024521 0.67919999
61.022156 -52.074505 0.61839998
61.023376 -52.124489 0.56160003
61.024597 -52.174477 0.49439999
61.025818 -52.224457 0.44639999
61.027039 -52.274445 0.36000001
61.028259 -52.324432 0.2904
61.02948 -52.374413 0.21600001
61.030693 -52.4244 0.1304
61.031914 -52.47438 0.028000001
61.033134 -52.524368 -0.064000003
61.034355 -52.574356 -0.17120001
61.035576 -52.624336 -0.27599999
61.036797 -52.674324 -0.4368
61.038017 -52.724312 -0.59200001
61.039238 -52.774292 -0.73199999
60.788048 -50.679802 0.28080001
60.789268 -50.72979 0.29359999
60.790489 -50.77977 0.2888
60.79171 -50.829758 0.2976
60.792923 -50.879742 0.3096
60.794144 -50.929726 0.31439999
60.795364 -50.979713 0.30160001
60.796585 -51.029697 0.31439999
60.797806 -51.079681 0.31760001
60.799026 -51.129669 0.32159999
60.800247 -51.179653 0.32080001
60.801468 -51.229637 0.3168
60.802689 -51.279625 0.32480001
60.803909 -51.329609 0.31200001
60.80513 -51.379593 0.33520001
60.806351 -51.429581 0.2904
60.807571 -51.479565 0.1512
60.808792 -51.529549 0.1504
60.810013 -51.579536 0.1424
60.811226 -51.629517 0.1224
60.812447 -51.679504 0.76719999
60.813667 -51.729488 0.87840003
60.814888 -51.779472 0.88080001
60.816109 -51.82946 0.87919998
60.817329 -51.879444 0.84240001
60.81855 -51.929428 0.78640002
60.819771 -51.979416 0.73680001
60.820992 -52.0294 0.67760003
60.822212 -52.079384 0.61919999
60.823433 -52.129372 0.5704
60.824654 -52.179352 0.50319999
60.825874 -52.22934 0.43279999
60.827095 -52.279327 0.3608
60.828316 -52.329308 0.29840001
60.829536 -52.379295 0.2112
60.83075 -52.429283 0.132
60.83197 -52.479263 0.039999999
60.833191 -52.529251 -0.062399998
60.834412 -52.579239 -0.1648
60.835632 -52.629219 -0.2832
60.836853 -52.679207 -0.41679999
60.838074 -52.729187 -0.55440003
60.839294 -52.779175 -0.73199999
60.588112 -50.684685 0.2712
60.589333 -50.734669 0.2992
60.590553 -50.784653 0.3048
60.591774 -50.834641 0.30239999
60.592987 -50.884621 0.30000001
60.594208 -50.934608 0.292
60.595428 -50.984596 0.3008
60.596649 -51.034576 0.31439999
60.59787 -51.084564 0.31760001
60.599091 -51.134548 0.3184
60.600311 -51.184532 0.33039999
60.601532 -51.23452 0.32480001
60.602753 -51.284504 0.32800001
60.603973 -51.334488 0.3344
60.605194 -51.384476 0.33680001
60.606415 -51.43446 0.28400001
60.607635 -51.484444 0.15360001
60.608856 -51.534431 0.1488
60.610077 -51.584415 0.148
60.61129 -51.634399 0.132
60.612511 -51.684387 0.77280003
60.613731 -51.734367 0.87840003
60.614952 -51.784355 0.88080001
60.616173 -51.834343 0.88480002
60.617393 -51.884323 0.86080003
60.618614 -51.934311 0.78799999
60.619835 -51.984295 0.74000001
60.621056 -52.034279 0.68480003
60.622276 -52.084267 0.62480003
60.623497 -52.134251 0.56559998
60.624718 -52.184235 0.50639999
60.625938 -52.234222 0.44400001
60.627159 -52.284203 0.37279999
60.62838 -52.33419 0.28799999
60.629601 -52.384178 0.2104
60.630814 -52.434158 0.1464
60.632034 -52.484146 0.044799998
60.633255 -52.534134 -0.045600001
60.634476 -52.584114 -0.1648
60.635696 -52.634102 -0.26640001
60.636917 -52.68409 -0.40000001
60.638138 -52.73407 -0.5248
60.639359 -52.784058 -0.69440001
60.388161 -50.689564 0.2344
60.389381 -50.739548 0.30239999
60.390602 -50.789536 0.3048
60.391823 -50.83952 0.31600001
60.393036 -50.889503 0.30320001
60.394257 -50.939491 0.308
60.395477 -50.989475 0.3168
60.396698 -51.039459 0.32960001
60.397919 -51.089447 0.32960001
60.399139 -51.139427 0.31999999
60.40036 -51.189415 0.31760001
60.401581 -51.239403 0.33680001
60.402802 -51.289383 0.33759999
60.404022 -51.339371 0.33199999
60.405243 -51.389355 0.3328
60.406464 -51.439339 0.35519999
60.407684 -51.489326 0.22319999
60.408905 -51.53931 0.1432
60.410126 -51.589294 0.1648
60.411339 -51.639282 0.1296
60.41256 -51.689266 0.74959999
60.41378 -51.73925 0.86479998
60.415001 -51.789238 0.87760001
60.416222 -51.839222 0.87760001
60.417442 -51.889206 0.85759997
60.418663 -51.939194 0.7816
60.419884 -51.989174 0.7392
60.421104 -52.039162 0.6832
60.422325 -52.089149 0.6408
60.423546 -52.13913 0.56400001
60.424767 -52.189117 0.50400001
60.425987 -52.239098 0.44800001
60.427208 -52.289085 0.36719999
60.428429 -52.339073 0.30320001
60.429649 -52.389053 0.2304
60.430862 -52.439041 0.1416
60.432083 -52.489029 0.042399999
60.433304 -52.539009 -0.051199999
60.434525 -52.588997 -0.164
60.435745 -52.638985 -0.26159999
60.436966 -52.688965 -0.41679999
60.438187 -52.738953 -0.54799998
60.188225 -50.694443 0.25040001
60.189445 -50.744431 0.29120001
60.190666 -50.794411 0.3328
60.191887 -50.844398 0.34400001
60.1931 -50.894386 0.34959999
60.194321 -50.944366 0.34799999
60.195541 -50.994354 0.32800001
60.196762 -51.044342 0.32879999
60.197983 -51.094322 0.3184
60.199203 -51.14431 0.3096
60.200424 -51.194298 0.31600001
60.201645 -51.244278 0.31920001
60.202866 -51.294266 0.34
60.204086 -51.344254 0.35120001
60.205307 -51.394234 0.35280001
60.206528 -51.444221 0.3136
60.207748 -51.494209 0.3168
60.208969 -51.544189 0.1584
60.21019 -51.594177 0.45359999
60.211403 -51.644157 0.50239998
60.212624 -51.694145 0.74879998
60.213844 -51.744133 0.8768
60.215065 -51.794113 0.88080001
60.216286 -51.844101 0.87840003
60.217506 -51.894089 0.84719998
60.218727 -51.944069 0.78960001
60.219948 -51.994057 0.74080002
60.221169 -52.044044 0.68080002
60.222389 -52.094025 0.63200003
60.22361 -52.144012 0.56720001
60.224831 -52.194 0.50639999
60.226051 -52.24398 0.44080001
60.227272 -52.293968 0.36559999
60.228493 -52.343956 0.308
60.229713 -52.393936 0.2296
60.230927 -52.443924 0.14560001
60.232147 -52.493904 0.039999999
60.233368 -52.543892 -0.047200002
60.234589 -52.59388 -0.16
60.235809 -52.64386 -0.2696
60.23703 -52.693848 -0.37360001
60.238251 -52.743835 -0.52880001
60.239471 -52.793816 -0.69919997
59.987068 -50.649338 0.308
59.988289 -50.699326 0.1512
59.98951 -50.749313 0.1856
59.99073 -50.799294 0.296
59.991951 -50.849281 0.32319999
59.993164 -50.899261 0.32480001
59.994385 -50.949249 0.3096
59.995605 -50.999237 0.3224
59.996826 -51.049217 0.31600001
59.998047 -51.099205 0.32080001
59.999268 -51.149193 0.324
60.000488 -51.199173 0.32879999
60.001709 -51.249161 0.31760001
60.00293 -51.299149 0.29280001
60.00415 -51.349129 0.32480001
60.005371 -51.399117 0.28400001
60.006592 -51.449104 0.25760001
60.007813 -51.499084 0.2624
60.009033 -51.549072 0.2832
60.010254 -51.59906 0.2568
60.011467 -51.64904 0.73360002
60.012688 -51.699028 0.74559999
60.013908 -51.749008 0.8768
60.015129 -51.798996 0.88160002
60.01635 -51.848984 0.87919998
60.01757 -51.898964 0.84399998
60.018791 -51.948952 0.79119998
60.020012 -51.99894 0.74400002
60.021233 -52.04892 0.68480003
60.022453 -52.098907 0.63520002
60.023674 -52.148895 0.57599998
60.024895 -52.198875 0.50319999
60.026115 -52.248863 0.44400001
60.027336 -52.298851 0.36399999
60.028557 -52.348831 0.29840001
60.029778 -52.398819 0.2208
60.030991 -52.448807 0.14480001
60.032211 -52.498787 0.053599998
60.033432 -52.548775 -0.048799999
60.034653 -52.598763 -0.1584
60.035873 -52.648743 -0.25839999
60.037094 -52.69873 -0.39919999
60.038315 -52.748711 -0.54799998
60.039536 -52.798698 -0.72719997
59.785904 -50.604233 0.228
59.787125 -50.654221 0.26879999
59.788345 -50.704208 0.28080001
59.789566 -50.754189 0.2
59.790787 -50.804176 0.30000001
59.792007 -50.854164 0.3136
59.793221 -50.904144 0.31279999
59.794441 -50.954132 0.31119999
59.795662 -51.00412 0.31600001
59.796883 -51.0541 0.32800001
59.798103 -51.104088 0.3008
59.799324 -51.154068 0.30880001
59.800545 -51.204056 0.2904
59.801765 -51.254044 0.31999999
59.802986 -51.304024 0.33360001
59.804207 -51.354012 0.32879999
59.805428 -51.403999 0.308
59.806648 -51.453979 0.2888
59.807869 -51.503967 0.23199999
59.80909 -51.553955 0.24959999
59.81031 -51.603935 0.25279999
59.811523 -51.653923 0.65200001
59.812744 -51.703911 0.74800003
59.813965 -51.753891 0.87440002
59.815186 -51.803879 0.8768
59.816406 -51.853867 0.8768
59.817627 -51.903847 0.83920002
59.818848 -51.953835 0.78640002
59.820068 -52.003815 0.74000001
59.821289 -52.053802 0.68239999
59.82251 -52.10379 0.63200003
59.82373 -52.15377 0.57520002
59.824951 -52.203758 0.52160001
59.826172 -52.253746 0.45039999
59.827393 -52.303726 0.37279999
59.828613 -52.353714 0.30559999
59.829834 -52.403702 0.2256
59.831047 -52.453682 0.15279999
59.832268 -52.50367 0.060800001
59.833488 -52.553658 -0.044
59.834709 -52.603638 -0.1392
59.83593 -52.653625 -0.2448
59.837151 -52.703613 -0.39359999
59.838371 -52.753593 -0.52319998
59.839592 -52.803581 -0.67839998
59.587189 -50.6591 0.29840001
59.588409 -50.709084 0.31119999
59.58963 -50.759071 0.3536
59.590851 -50.809055 0.34560001
59.592072 -50.859039 0.3256
59.593285 -50.909027 0.31040001
59.594505 -50.959011 0.3096
59.595726 -51.008995 0.324
59.596947 -51.058983 0.32800001
59.598167 -51.108967 0.3184
59.599388 -51.158951 0.2992
59.600609 -51.208939 0.3064
59.60183 -51.258923 0.30239999
59.60305 -51.308907 0.33360001
59.604271 -51.358894 0.3272
59.605492 -51.408875 0.3064
59.606712 -51.458862 0.33039999
59.607933 -51.50885 0.2728
59.609154 -51.55883 0.26480001
59.610374 -51.608818 0.34639999
59.611588 -51.658802 0.38960001
59.612808 -51.708786 0.74400002
59.614029 -51.758774 0.87519997
59.61525 -51.808758 0.87840003
59.61647 -51.858742 0.88080001
59.617691 -51.90873 0.85839999
59.618912 -51.958714 0.79839998
59.620132 -52.008698 0.74400002
59.621353 -52.058685 0.69760001
59.622574 -52.108669 0.63279998
59.623795 -52.158653 0.57359999
59.625015 -52.208641 0.5104
59.626236 -52.258621 0.44479999
59.627457 -52.308609 0.3856
59.628677 -52.358597 0.3256
59.629898 -52.408577 0.2272
59.631111 -52.458565 0.1568
59.632332 -52.508553 0.054400001
59.633553 -52.558533 -0.0352
59.634773 -52.608521 -0.1432
59.635994 -52.658508 -0.2608
59.637215 -52.708488 -0.384
59.638435 -52.758476 -0.50639999
59.639656 -52.808464 -0.68800002
59.389679 -50.763954 0.1664
59.3909 -50.813934 0.3184
59.39212 -50.863922 0.34799999
59.393333 -50.913906 0.31200001
59.394554 -50.96389 0.31279999
59.395775 -51.013878 0.3256
59.396996 -51.063862 0.3312
59.398216 -51.113846 0.31999999
59.399437 -51.163834 0.32960001
59.400658 -51.213818 0.31439999
59.401878 -51.263802 0.31999999
59.403099 -51.313789 0.3168
59.40432 -51.363773 0.29440001
59.40554 -51.413757 0.3064
59.406761 -51.463745 0.3008
59.407982 -51.513729 0.292
59.409203 -51.563713 0.2872
59.410423 -51.613701 0.2552
59.411636 -51.663681 0.53839999
59.412857 -51.713669 0.74159998
59.414078 -51.763653 0.87279999
59.415298 -51.813637 0.88160002
59.416519 -51.863625 0.87840003
59.41774 -51.913609 0.85360003
59.418961 -51.963593 0.80080003
59.420181 -52.01358 0.74400002
59.421402 -52.063564 0.68800002
59.422623 -52.113548 0.6408
59.423843 -52.163536 0.57840002
59.425064 -52.213524 0.51840001
59.426285 -52.263504 0.44400001
59.427505 -52.313492 0.38319999
59.428726 -52.36348 0.30160001
59.429947 -52.41346 0.2216
59.43116 -52.463448 0.1432
59.432381 -52.513428 0.043200001
59.433601 -52.563416 -0.034400001
59.434822 -52.613403 -0.1376
59.436043 -52.663383 -0.25600001
59.437263 -52.713371 -0.38960001
