# .PCD v0.7 - Point Cloud Data file format
VERSION 0.7
FIELDS x y z
SIZE 4 4 4
TYPE F F F
COUNT 1 1 1
WIDTH 1510
HEIGHT 1
VIEWPOINT 0 0 0 1 0 0 0
POINTS 1510
DATA ascii
75.718765 -57.798065 -5.3196049
75.710266 -57.839352 -5.1974087
75.711365 -57.887936 -5.1768985
75.713745 -57.937489 -5.1698942
75.716125 -57.987045 -5.16289
75.723457 -58.040359 -5.2083168
75.731842 -58.094479 -5.2648664
75.738884 -58.147568 -5.3071165
75.746742 -58.201283 -5.3581047
75.754677 -58.255058 -5.4098878
75.763519 -58.309509 -5.4712033
75.771446 -58.363289 -5.5229864
75.781334 -58.418541 -5.5954247
75.790779 -58.473454 -5.663096
75.799461 -58.527798 -5.7228227
75.810394 -58.583855 -5.8063827
75.821266 -58.639851 -5.8891482
75.831978 -58.695736 -5.970325
75.842018 -58.751106 -6.0443516
75.858208 -58.811153 -6.1835208
75.871323 -58.868862 -6.2901192
75.886017 -58.927769 -6.4134007
75.55954 -56.789837 -6.464798
75.577827 -56.851475 -6.6262121
75.51902 -56.854553 -5.9717507
75.517578 -56.901199 -5.9242301
75.515526 -56.947388 -5.8703547
75.516029 -56.995514 -5.8434901
75.516464 -57.043587 -5.8158302
75.51899 -57.093254 -5.8104143
75.521667 -57.143036 -5.8065877
75.524651 -57.193047 -5.8059387
75.527184 -57.242714 -5.8005228
75.530235 -57.292782 -5.8006678
75.533142 -57.342728 -5.7992244
75.534546 -57.391544 -5.7818923
75.53791 -57.441837 -5.7852154
75.538712 -57.490196 -5.7615275
75.53463 -57.534843 -5.6862025
75.535065 -57.582912 -5.6585431
75.549156 -57.641361 -5.7754688
75.548225 -57.688408 -5.7335091
75.547234 -57.735394 -5.6907554
75.562523 -57.794758 -5.8203921
75.519936 -57.81015 -5.3375273
75.511658 -57.851608 -5.2177143
75.511406 -57.899166 -5.1829042
75.514313 -57.94912 -5.1814613
75.517975 -57.999638 -5.1879621
75.525154 -58.052841 -5.2318006
75.53286 -58.106445 -5.2811999
75.539375 -58.159134 -5.3178887
75.54821 -58.213593 -5.3792052
75.556068 -58.267307 -5.4301934
75.564758 -58.321651 -5.4899201
75.573067 -58.37571 -5.5456753
75.582352 -58.430511 -5.6117582
75.591194 -58.48497 -5.6730738
75.600777 -58.539997 -5.7423339
75.611572 -58.595936 -5.8243051
75.621986 -58.651596 -5.9023042
75.633522 -58.708103 -5.9922194
75.646416 -58.765644 -6.0964341
75.657654 -58.821922 -6.1831717
75.672646 -58.881058 -6.3096309
75.686592 -58.939392 -6.4249678
75.705254 -59.00132 -6.590353
75.296738 -56.610092 -5.9023538
75.29686 -56.657932 -5.8715162
75.296234 -56.705208 -5.8327346
75.298172 -56.754417 -5.8209634
75.3022 -56.805222 -5.8314366
75.305107 -56.855175 -5.8299928
75.314018 -56.909691 -5.8921027
75.316696 -56.959473 -5.8882761
75.318924 -57.008911 -5.879683
75.321762 -57.058807 -5.8774447
75.323837 -57.108128 -5.8672624
75.324867 -57.156662 -5.8459582
75.327103 -57.206097 -5.8373652
75.327454 -57.254108 -5.8089108
75.330284 -57.304005 -5.8066726
75.333488 -57.354187 -5.8084073
75.335419 -57.4034 -5.7966361
75.338402 -57.453407 -5.7959867
75.335075 -57.498627 -5.7286057
75.338203 -57.548752 -5.7295456
75.347343 -57.603439 -5.7940397
75.347321 -57.651169 -5.7616134
75.349472 -57.70055 -5.7522249
75.356438 -57.753582 -5.7936802
75.359642 -57.803764 -5.7954144
75.32148 -57.822521 -5.3594208
75.315155 -57.865459 -5.2602625
75.313179 -57.911705 -5.2071815
75.31601 -57.961601 -5.2049437
75.319221 -58.01178 -5.2066779
75.326477 -58.065041 -5.2513108
75.332756 -58.117558 -5.2856159
75.341225 -58.171734 -5.3429604
75.348778 -58.22522 -5.3907709
75.357918 -58.279907 -5.4552646
75.365181 -58.333164 -5.4998975
75.37394 -58.387569 -5.5604191
75.382851 -58.442078 -5.62253
75.392212 -58.496937 -5.6894064
75.402023 -58.552135 -5.7610497
75.412735 -58.608021 -5.8422265
75.422707 -58.663334 -5.9154587
75.434769 -58.720242 -6.0109353
75.446907 -58.77721 -6.1072059
75.459572 -58.834576 -6.2090373
75.472984 -58.892513 -6.3188133
75.488358 -58.951935 -6.4492445
75.5056 -59.012779 -6.5995359
75.52652 -59.076416 -6.788754
75.118881 -56.733597 -6.0778623
75.126068 -56.7868 -6.1217012
75.129944 -56.837494 -6.1305852
75.123093 -56.880035 -6.0258665
75.125404 -56.929531 -6.0180674
75.117867 -56.971558 -5.9061985
75.118294 -57.019627 -5.8785396
75.12188 -57.070095 -5.8842454
75.123131 -57.11879 -5.865324
75.124161 -57.16732 -5.8440204
75.122116 -57.213505 -5.7901449
75.128845 -57.266365 -5.8292165
75.131073 -57.315807 -5.8206229
75.134514 -57.366158 -5.8247404
75.131409 -57.411549 -5.7597432
75.135147 -57.462128 -5.7670383
75.137375 -57.51157 -5.7584443
75.142303 -57.563061 -5.7784505
75.147316 -57.614609 -5.7992511
75.152321 -57.666161 -5.8200512
75.149895 -57.712059 -5.7622032
75.159637 -57.767208 -5.8330522
75.158562 -57.814133 -5.7895041
75.122871 -57.834774 -5.3797264
75.117676 -57.878567 -5.2924848
75.114426 -57.923843 -5.2258983
75.116875 -57.973457 -5.2196884
75.120316 -58.023808 -5.2238059
75.126823 -58.076496 -5.2604942
75.1343 -58.129929 -5.3075104
75.141716 -58.183304 -5.3537326
75.150024 -58.237362 -5.4094877
75.158638 -58.291649 -5.4684205
75.165451 -58.344563 -5.5082865
75.17511 -58.399654 -5.5783415
75.183868 -58.454052 -5.6388636
75.193535 -58.509136 -5.7089176
75.202217 -58.56348 -5.7686448
75.213242 -58.619591 -5.8529992
75.223801 -58.675362 -5.9325867
75.235039 -58.731644 -6.0193248
75.246277 -58.787926 -6.1060619
75.258568 -58.845009 -6.2039213
75.274536 -58.904884 -6.3407078
75.28833 -58.963104 -6.4544563
75.30407 -59.022804 -6.5888591
74.916092 -56.694931 -6.0861058
74.91404 -56.741119 -6.0322299
74.919579 -56.793068 -6.0585914
74.919785 -56.840965 -6.0285487
74.925385 -56.892971 -6.0557041
74.920418 -56.936935 -5.9708457
74.918137 -56.982952 -5.914587
74.918343 -57.030853 -5.8845444
74.917648 -57.078068 -5.8449683
74.9189 -57.126766 -5.8260469
74.921204 -57.176266 -5.8182483
74.928314 -57.229412 -5.8612928
74.931366 -57.279476 -5.8614378
74.929771 -57.326008 -5.8123283
74.933052 -57.376244 -5.8148575
74.934082 -57.424774 -5.7935534
74.937141 -57.474838 -5.7936983
74.940041 -57.524796 -5.7922544
74.946404 -57.577366 -5.8273544
74.945335 -57.624298 -5.7838068
74.94223 -57.669689 -5.7188091
74.944611 -57.719242 -5.7118044
74.946167 -57.768169 -5.6960607
74.945168 -57.815155 -5.6533074
74.924347 -57.847088 -5.4008255
74.918625 -57.890484 -5.308023
74.914696 -57.935246 -5.2342863
74.917976 -57.985485 -5.2368155
74.920731 -58.03532 -5.2337828
74.927238 -58.088009 -5.2704716
74.935699 -58.142181 -5.3278151
74.943039 -58.195499 -5.3732429
74.952324 -58.250298 -5.4393258
74.958755 -58.302933 -5.4752197
74.966919 -58.356876 -5.5293856
74.97628 -58.411736 -5.5962629
74.985641 -58.466591 -5.6631403
74.994553 -58.521107 -5.7252502
75.004517 -58.57642 -5.7984824
75.013573 -58.631046 -5.8621821
75.025269 -58.687675 -5.9536858
75.036133 -58.743668 -6.0364518
75.048798 -58.801037 -6.1382833
75.061165 -58.858173 -6.236937
75.075104 -58.916508 -6.3522739
75.088898 -58.974731 -6.4660225
75.109367 -59.038029 -6.6504741
74.741707 -56.773335 -6.330584
74.707985 -56.79546 -5.9414616
74.714188 -56.847916 -5.9749727
74.718445 -56.898895 -5.9878287
74.718575 -56.946739 -5.9569912
74.717049 -56.993328 -5.9086766
74.720253 -57.04351 -5.9104109
74.722336 -57.092834 -5.9002285
74.724113 -57.141933 -5.8868685
74.724167 -57.189716 -5.855237
74.726173 -57.238987 -5.8442602
74.729225 -57.289055 -5.8444057
74.73056 -57.337811 -5.8262787
74.734291 -57.388386 -5.8335743
74.736221 -57.437599 -5.8218031
74.742134 -57.48983 -5.8521361
74.739029 -57.535225 -5.7871385
74.74321 -57.586143 -5.7992005
74.741692 -57.632732 -5.750886
74.743393 -57.681774 -5.7367315
74.744118 -57.730072 -5.7122493
74.74485 -57.77837 -5.687767
74.74588 -57.826897 -5.6664629
74.72506 -57.858829 -5.4139814
74.720764 -57.903309 -5.3362727
74.717506 -57.948586 -5.2696862
74.719589 -57.99791 -5.2595043
74.721825 -58.047348 -5.2509112
74.729225 -58.100719 -5.2971325
74.736565 -58.154037 -5.3425598
74.743225 -58.206844 -5.3808379
74.751381 -58.260788 -5.4350042
74.759621 -58.314789 -5.4899645
74.769508 -58.370045 -5.5624022
74.77729 -58.423706 -5.6125965
74.786049 -58.478107 -5.6731186
74.796394 -58.533707 -5.7503228
74.805229 -58.588161 -5.8116384
74.815117 -58.643414 -5.8840766
74.825905 -58.69936 -5.9660473
74.837296 -58.755753 -6.0543742
74.85041 -58.813465 -6.1609721
74.861351 -58.869518 -6.2445316
74.875893 -58.928307 -6.3662243
74.890434 -58.987099 -6.4879169
74.90873 -59.048744 -6.6493301
74.930626 -59.113125 -6.848876
74.518822 -56.862625 -6.029439
74.519096 -56.910583 -6.0001903
74.512474 -56.953293 -5.8978543
74.520554 -57.007179 -5.9512262
74.523979 -57.057533 -5.9553437
74.522614 -57.104237 -5.908618
74.524467 -57.153385 -5.8960519
74.528046 -57.203857 -5.9017587
74.530731 -57.253635 -5.8979321
74.530479 -57.301193 -5.8631225
74.531738 -57.349892 -5.8442011
74.535172 -57.400242 -5.8483186
74.5383 -57.450367 -5.8492589
74.536926 -57.497066 -5.8025327
74.548393 -57.553524 -5.8916531
74.539658 -57.594635 -5.7670741
74.536263 -57.639793 -5.6988993
74.545097 -57.694256 -5.7602148
74.546722 -57.743237 -5.745266
74.550308 -57.793705 -5.7509718
74.550583 -57.84166 -5.7217236
74.526382 -57.871025 -5.4334927
74.52269 -57.915958 -5.3621397
74.517708 -57.959927 -5.2772808
74.520317 -58.009651 -5.2726603
74.524429 -58.060516 -5.2839274
74.529282 -58.11195 -5.3031387
74.537216 -58.165726 -5.3549213
74.544029 -58.218643 -5.3947883
74.553612 -58.27367 -5.4640484
74.56102 -58.327045 -5.5102701
74.569038 -58.380871 -5.5628471
74.578468 -58.435791 -5.6305189
74.587227 -58.490189 -5.691041
74.596519 -58.544987 -5.757123
74.605354 -58.599445 -5.818439
74.61599 -58.655273 -5.8988214
74.626709 -58.711155 -5.9799976
74.638321 -58.767723 -6.0707078
74.649788 -58.824177 -6.1598282
74.664253 -58.882912 -6.280726
74.676689 -58.940109 -6.3801746
74.691467 -58.999073 -6.5042505
74.708328 -59.059628 -6.6505694
74.340599 -56.79488 -6.3298845
74.338257 -56.840839 -6.2728314
74.345291 -56.893925 -6.3150816
74.320114 -56.92255 -6.0165229
74.32077 -56.970791 -5.9912462
74.322853 -57.020119 -5.9810643
74.324776 -57.069328 -5.9692931
74.325287 -57.117458 -5.9424276
74.327065 -57.166553 -5.9290676
74.331245 -57.217476 -5.9411297
74.333328 -57.266804 -5.9309473
74.3321 -57.313618 -5.8858104
74.334404 -57.363117 -5.8780112
74.335136 -57.411411 -5.8535295
74.339691 -57.462624 -5.8695636
74.337723 -57.508865 -5.8164821
74.345955 -57.56287 -5.8714423
74.341728 -57.607403 -5.7945285
74.341637 -57.655075 -5.7613082
74.348068 -57.707706 -5.7972026
74.336929 -57.746994 -5.6472011
74.353203 -57.807098 -5.7871652
74.332909 -57.839432 -5.5402441
74.327858 -57.883339 -5.4545918
74.328514 -57.93158 -5.4293156
74.319328 -57.972351 -5.2999692
74.321259 -58.021564 -5.288198
74.324394 -58.071682 -5.2891383
74.330376 -58.123974 -5.3202658
74.337631 -58.177235 -5.3648987
74.346474 -58.231693 -5.4262147
74.354706 -58.285694 -5.4811754
74.361816 -58.33884 -5.5242195
74.370209 -58.392956 -5.5807686
74.379791 -58.447987 -5.6500292
74.388176 -58.502102 -5.7065792
74.397095 -58.556618 -5.7686892
74.406975 -58.611874 -5.8411269
74.416496 -58.66684 -5.9095931
74.427353 -58.722843 -5.9923582
74.437988 -58.778664 -6.0727406
74.450737 -58.83609 -6.1753664
74.464302 -58.894138 -6.2867308
74.477715 -58.952076 -6.3965073
74.490311 -59.009384 -6.4975448
74.506874 -59.069717 -6.640686
74.527573 -59.133186 -6.8275208
74.15712 -56.914108 -6.4458122
74.151314 -56.957447 -6.3522153
74.129898 -56.988922 -6.0933776
74.122292 -57.030891 -5.9807148
74.124443 -57.080273 -5.9713273
74.124802 -57.128288 -5.942873
74.126205 -57.177097 -5.9255404
74.128357 -57.226482 -5.916153
74.131416 -57.276546 -5.9162984
74.132294 -57.324959 -5.893405
74.135735 -57.375309 -5.8975224
74.139984 -57.426289 -5.9103785
74.14019 -57.47419 -5.8803358
74.146774 -57.526936 -5.917819
74.1409 -57.570217 -5.8234272
74.145828 -57.621712 -5.8434334
74.147308 -57.670578 -5.8268962
74.149986 -57.72036 -5.8230691
74.158676 -57.774704 -5.8827958
74.15152 -57.817017 -5.774899
74.16021 -57.871361 -5.8346267
74.129478 -57.895767 -5.4772806
74.123978 -57.939331 -5.3868613
74.119904 -57.983982 -5.3115358
74.122353 -58.033592 -5.305326
74.125267 -58.083542 -5.3038826
74.13192 -58.136345 -5.3421602
74.139481 -58.189835 -5.3899708
74.14727 -58.243492 -5.440165
74.153854 -58.296242 -5.4776487
74.163139 -58.35104 -5.5437307
74.171524 -58.405151 -5.6002798
74.180359 -58.459614 -5.6615963
74.189949 -58.514637 -5.7308569
74.197662 -58.568241 -5.7802563
74.208 -58.62384 -5.8574605
74.217659 -58.678925 -5.9275155
74.227699 -58.734295 -6.0015421
74.240662 -58.791889 -6.1065516
74.252434 -58.848572 -6.1988497
74.264267 -58.905312 -6.2919426
74.277534 -58.963135 -6.4001298
74.292831 -59.022495 -6.5297666
74.310074 -59.08334 -6.680058
74.327316 -59.144188 -6.8303494
73.936699 -57.005283 -6.1708817
73.929024 -57.047195 -6.0574245
73.927193 -57.093555 -6.0059323
73.928375 -57.142197 -5.986217
73.930458 -57.191521 -5.9760342
73.933205 -57.24136 -5.973002
73.935966 -57.291195 -5.9699697
73.936768 -57.339554 -5.9462824
73.9384 -57.388535 -5.9313331
73.93808 -57.436035 -5.8957295
73.942406 -57.487072 -5.9093804
73.949524 -57.540218 -5.9524245
73.948524 -57.587208 -5.9096704
73.953453 -57.638699 -5.9296765
73.95591 -57.688305 -5.9234667
73.960396 -57.73946 -5.9387059
73.963974 -57.789925 -5.9444118
73.968231 -57.840908 -5.9572678
73.970985 -57.890739 -5.9542356
73.930199 -57.907505 -5.4904366
73.919518 -57.947136 -5.345202
73.921745 -57.996574 -5.3366084
73.923897 -58.045959 -5.3272209
73.926514 -58.095684 -5.3225999
73.93309 -58.14843 -5.3600826
73.940048 -58.201462 -5.4015379
73.948441 -58.255577 -5.4580874
73.956673 -58.309578 -5.5130482
73.961075 -58.360672 -5.527493
73.972847 -58.417351 -5.6197915
73.981606 -58.471756 -5.6803131
73.990738 -58.52644 -5.7448072
73.999435 -58.580784 -5.804534
74.008789 -58.635639 -5.8714108
74.018906 -58.691067 -5.9462323
74.030823 -58.747864 -6.0401192
74.040634 -58.803062 -6.111763
74.053825 -58.860828 -6.2191553
74.066116 -58.917908 -6.3170147
74.078552 -58.975105 -6.4164634
74.093925 -59.034523 -6.5468946
74.109665 -59.094223 -6.6812973
73.74939 -56.930634 -6.3752041
73.756798 -56.984005 -6.4214258
73.755432 -57.030708 -6.3746996
73.737465 -57.064808 -6.1524062
73.733459 -57.109516 -6.0778756
73.733894 -57.157585 -6.0502157
73.735893 -57.206856 -6.0392389
73.73632 -57.254925 -6.0115795
73.738029 -57.303967 -5.9974256
73.740036 -57.353233 -5.9864488
73.74189 -57.40239 -5.9738827
73.739395 -57.448231 -5.9152408
73.743195 -57.498875 -5.9233308
73.749634 -57.551502 -5.9592247
73.751862 -57.600945 -5.9506311
73.754166 -57.65044 -5.9428325
73.755722 -57.699364 -5.9270892
73.762756 -57.752453 -5.9693389
73.765282 -57.802124 -5.963923
73.779984 -57.861027 -6.087204
73.782661 -57.910809 -6.0833774
73.731438 -57.919647 -5.5091534
73.730896 -57.966976 -5.4711661
73.722984 -58.008717 -5.3553252
73.725288 -58.058212 -5.3475266
73.727676 -58.107765 -5.3405223
73.734558 -58.16074 -5.3811827
73.74189 -58.214058 -5.42661
73.749756 -58.267773 -5.4775987
73.757309 -58.321262 -5.5254097
73.764717 -58.374638 -5.5716314
73.774162 -58.42955 -5.6393027
73.78157 -58.482925 -5.6855249
73.791374 -58.538124 -5.7571683
73.799393 -58.591953 -5.8097458
73.810257 -58.647953 -5.8925109
73.819099 -58.702408 -5.9538269
73.830109 -58.758522 -6.0381813
73.842621 -58.815769 -6.1384244
73.854317 -58.872398 -6.229928
73.866447 -58.929363 -6.3261986
73.879341 -58.9869 -6.4304137
73.893509 -59.045406 -6.5481343
73.91143 -59.106766 -6.7055755
73.930321 -59.168865 -6.8733439
73.949524 -59.231194 -7.044291
73.540794 -57.126274 -6.1609402
73.537552 -57.171555 -6.0943532
73.5382 -57.219795 -6.069077
73.53923 -57.268322 -6.0477729
73.539589 -57.316338 -6.0193191
73.54129 -57.365376 -6.0051646
73.541191 -57.413048 -5.9719439
73.541397 -57.460945 -5.9419012
73.545128 -57.511528 -5.9491963
73.549614 -57.562675 -5.9644356
73.551613 -57.611946 -5.9534583
73.55452 -57.661896 -5.9520149
73.556152 -57.710876 -5.9370666
73.561157 -57.762428 -5.9578667
73.579224 -57.823898 -6.1168966
73.582436 -57.874084 -6.1186304
73.58519 -57.923916 -6.1155982
73.589821 -57.975182 -6.1324267
73.532745 -57.979572 -5.4962373
73.523941 -58.020626 -5.3708634
73.526764 -58.070522 -5.3686256
73.528473 -58.119564 -5.3544712
73.53656 -58.17345 -5.4078426
73.542915 -58.226028 -5.4429426
73.550934 -58.279858 -5.4955201
73.558113 -58.333061 -5.5393591
73.566872 -58.387463 -5.5998802
73.574516 -58.44101 -5.6484852
73.58297 -58.495182 -5.7058296
73.592102 -58.549866 -5.7703233
73.600868 -58.604267 -5.8308449
73.611511 -58.660095 -5.9112267
73.621025 -58.715061 -5.9796929
73.632187 -58.771294 -6.0656357
73.642899 -58.827171 -6.1468124
73.65519 -58.884258 -6.2446718
73.667702 -58.941505 -6.3449144
73.680214 -58.998756 -6.4451575
73.69529 -59.057949 -6.5724111
73.712234 -59.118561 -6.7195249
73.72467 -59.175762 -6.8189726
73.350273 -57.049175 -6.3311
73.343269 -57.091602 -6.2247925
73.343094 -57.139217 -6.1907778
73.340973 -57.185349 -6.1361074
73.3396 -57.232048 -6.0893817
73.340469 -57.280464 -6.0664887
73.340904 -57.328529 -6.0388293
73.341408 -57.376659 -6.0119638
73.339813 -57.423191 -5.9628544
73.34317 -57.473484 -5.9661779
73.349449 -57.526005 -6.0004835
73.352287 -57.575901 -5.9982452
73.353607 -57.624657 -5.9801188
73.354485 -57.673069 -5.9572258
73.35965 -57.724728 -5.9796152
73.365028 -57.776566 -6.0043874
73.379868 -57.835583 -6.1292572
73.383156 -57.885826 -6.1317854
73.387634 -57.936974 -6.1470251
73.391365 -57.987553 -6.1543202
73.335419 -57.992798 -5.5300474
73.325409 -58.03294 -5.3919625
73.326508 -58.081524 -5.3714528
73.330544 -58.132332 -5.3819261
73.33683 -58.184853 -5.4162312
73.344765 -58.238625 -5.4680138
73.351723 -58.291656 -5.5094695
73.358833 -58.344803 -5.5525141
73.366844 -58.398636 -5.6050911
73.376137 -58.45343 -5.6711731
73.383995 -58.507153 -5.7221622
73.393425 -58.562061 -5.7898335
73.402794 -58.61692 -5.8567104
73.411926 -58.671604 -5.9212041
73.422264 -58.727203 -5.9984088
73.432152 -58.782459 -6.0708461
73.443993 -58.839199 -6.1639395
73.453583 -58.894226 -6.2331996
73.467148 -58.952278 -6.344564
73.481911 -59.011242 -6.4686399
73.496086 -59.069748 -6.5863605
73.512726 -59.130135 -6.7302961
73.531616 -59.192238 -6.8980651
73.557129 -59.25935 -7.1357436
73.574898 -59.320595 -7.2915964
73.153412 -57.158257 -6.3056202
73.149117 -57.202732 -6.2279115
73.144737 -57.247154 -6.1494083
73.144485 -57.294712 -6.1145992
73.141243 -57.339989 -6.0480132
73.139114 -57.38612 -5.9933429
73.139626 -57.43425 -5.9664774
73.144028 -57.48534 -5.9809227
73.147606 -57.535809 -5.986629
73.151344 -57.586384 -5.9939237
73.151848 -57.634518 -5.9670587
73.154373 -57.684181 -5.9616432
73.159088 -57.7355 -5.9792657
73.162964 -57.786198 -5.9881496
73.182831 -57.849037 -6.1662459
73.185066 -57.898476 -6.1576519
73.188049 -57.948486 -6.1570034
73.192528 -57.999638 -6.1722426
73.136284 -58.004654 -5.5447922
73.126869 -58.045254 -5.4130626
73.128799 -58.094463 -5.4012918
73.131859 -58.144527 -5.4014373
73.136642 -58.195908 -5.4198542
73.145096 -58.25008 -5.4771976
73.15274 -58.303623 -5.5258031
73.160294 -58.357113 -5.5736141
73.168228 -58.410889 -5.6253967
73.175346 -58.464035 -5.6684408
73.185455 -58.519463 -5.7432623
73.194885 -58.574375 -5.8109336
73.203133 -58.628376 -5.8658943
73.212936 -58.683575 -5.9375372
73.222672 -58.738716 -6.0083866
73.233315 -58.794544 -6.0887685
73.245682 -58.851681 -6.1874228
73.256401 -58.907566 -6.2685995
73.268311 -58.964359 -6.3624864
73.282021 -59.022526 -6.4754405
73.296722 -59.081432 -6.5987215
73.314636 -59.142788 -6.7561626
73.336311 -59.206997 -6.9533253
73.361519 -59.273888 -7.1878262
73.386795 -59.340836 -7.4231215
72.964035 -57.225254 -6.3912139
72.948471 -57.261173 -6.1943412
72.946342 -57.307312 -6.1396713
72.944221 -57.353439 -6.0850015
72.938942 -57.397175 -5.9969654
72.941025 -57.446503 -5.986783
72.945358 -57.497536 -6.0004339
72.949539 -57.548458 -6.0124955
72.952599 -57.598526 -6.0126405
72.954674 -57.647854 -6.0024581
72.955849 -57.696495 -5.9827433
72.961617 -57.748611 -6.011488
72.976456 -57.807632 -6.1363578
72.983559 -57.860775 -6.1794014
72.985947 -57.910336 -6.1723967
72.982994 -57.955833 -6.1089883
72.993332 -58.011433 -6.186193
72.935959 -58.015594 -5.5468259
72.929024 -58.058075 -5.4413123
72.930428 -58.106888 -5.4239807
72.933266 -58.156784 -5.4217429
72.937592 -58.207821 -5.4353933
72.9459 -58.261879 -5.491148
72.953766 -58.315598 -5.5421367
72.961624 -58.369312 -5.5931253
72.970085 -58.423485 -5.6504688
72.97757 -58.476913 -5.697485
72.986107 -58.531147 -5.7556238
72.995842 -58.586285 -5.8264728
73.004379 -58.640514 -5.8846111
73.014343 -58.695827 -5.9578433
73.023628 -58.750629 -6.0239258
73.035172 -58.80714 -6.1138411
73.043854 -58.861485 -6.1735682
73.057503 -58.91959 -6.2857275
73.070091 -58.976902 -6.3867645
73.083275 -59.034668 -6.4941573
73.097527 -59.093231 -6.6126719
73.114693 -59.154015 -6.7621689
73.135315 -59.21743 -6.9482093
72.754387 -57.229126 -6.2947388
72.749855 -57.27343 -6.2146468
72.746826 -57.318882 -6.150444
72.745232 -57.36541 -6.101335
72.740105 -57.40926 -6.0148878
72.742043 -57.458473 -6.0031166
72.745392 -57.508766 -6.0064397
72.747025 -57.557751 -5.9914913
72.749931 -57.607704 -5.9900475
72.75576 -57.659882 -6.0195861
72.757088 -57.708637 -6.0014601
72.762856 -57.76075 -6.0302048
72.778893 -57.820686 -6.1677852
72.784271 -57.87252 -6.1925573
72.787262 -57.922531 -6.1919079
72.789337 -57.971855 -6.181726
72.795242 -58.02409 -6.2120595
72.738243 -58.028534 -5.5766649
72.72921 -58.06942 -5.4489074
72.732269 -58.119488 -5.4490528
72.73465 -58.169041 -5.4420485
72.738533 -58.219734 -5.4509325
72.74736 -58.274193 -5.512248
72.754555 -58.327396 -5.556087
72.761513 -58.380428 -5.5975423
72.770645 -58.435116 -5.6620359
72.779037 -58.489227 -5.718585
72.786591 -58.542717 -5.766396
72.796478 -58.597973 -5.8388343
72.804794 -58.652031 -5.8945889
72.814827 -58.707401 -5.9686155
72.824944 -58.762829 -6.043437
72.83551 -58.818596 -6.1230245
72.845322 -58.873798 -6.1946683
72.858963 -58.931904 -6.3068275
72.871849 -58.989441 -6.4110422
72.88459 -59.046867 -6.5136685
72.898163 -59.104916 -6.6250334
72.915855 -59.1661 -6.7800913
72.932648 -59.226604 -6.9256163
72.557678 -57.195076 -6.3673306
72.552475 -57.238869 -6.2800889
72.549072 -57.284031 -6.2119136
72.544022 -57.327942 -6.1262612
72.547234 -57.37812 -6.1279955
72.541122 -57.42123 -6.0312204
72.543427 -57.47073 -6.0234213
72.545212 -57.519821 -6.0100617
72.544662 -57.567154 -5.9720745
72.550728 -57.619499 -6.0039968
72.55378 -57.669571 -6.0041418
72.557137 -57.71986 -6.0074649
72.578438 -57.783787 -6.2006559
72.58284 -57.834881 -6.2151003
72.58477 -57.88409 -6.2033291
72.589333 -57.935299 -6.2193627
72.578796 -57.975044 -6.075717
72.596039 -58.035889 -6.2260089
72.539795 -58.040905 -5.5985584
72.531662 -58.082474 -5.4803343
72.533134 -58.131344 -5.4637966
72.53582 -58.181122 -5.45997
72.539925 -58.231987 -5.4712372
72.54763 -58.285587 -5.5206366
72.554825 -58.338791 -5.5644751
72.563957 -58.393478 -5.6289692
72.571968 -58.447308 -5.6815462
72.579529 -58.500797 -5.7293568
72.588142 -58.555084 -5.7882895
72.596375 -58.609085 -5.8432508
72.606712 -58.664684 -5.920455
72.615173 -58.718857 -5.9777985
72.62574 -58.774624 -6.0573864
72.636452 -58.830513 -6.1385627
72.646713 -58.886047 -6.214973
72.661034 -58.944675 -6.3342819
72.668892 -58.998386 -6.3852701
72.685608 -59.058834 -6.5300012
72.699181 -59.116882 -6.641366
72.715675 -59.177158 -6.7837133
72.732841 -59.237946 -6.9332099
72.373566 -57.218338 -6.5409594
72.356209 -57.252895 -6.3250208
72.351982 -57.297424 -6.2481065
72.348801 -57.342762 -6.1823149
72.348038 -57.389919 -6.1419449
72.34906 -57.438446 -6.1206403
72.350838 -57.487541 -6.1072803
72.352997 -57.536926 -6.0978923
72.355377 -57.586479 -6.090888
72.35611 -57.634777 -6.0664058
72.346924 -57.675549 -5.9370599
72.343895 -57.720997 -5.8728566
72.370979 -57.78931 -6.1272182
72.38372 -57.846737 -6.2298441
72.385796 -57.896057 -6.2196617
72.38871 -57.946014 -6.2182178
72.392509 -57.996647 -6.2263079
72.396767 -58.047626 -6.2391639
72.34082 -58.052872 -5.6148911
72.331108 -58.093243 -5.4799838
72.333565 -58.142853 -5.473774
72.336922 -58.19315 -5.477097
72.340881 -58.2439 -5.4867754
72.348434 -58.29739 -5.5345855
72.356148 -58.35099 -5.5839853
72.364838 -58.405334 -5.643713
72.37262 -58.458996 -5.6939068
72.378983 -58.511566 -5.7290063
72.388794 -58.566772 -5.8006501
72.397476 -58.621109 -5.8603778
72.40654 -58.675739 -5.9240766
72.416428 -58.730995 -5.9965143
72.426994 -58.786766 -6.0761023
72.437256 -58.842308 -6.1525121
72.449318 -58.899216 -6.2479887
72.459137 -58.954418 -6.3196321
72.472023 -59.011955 -6.4238467
72.485809 -59.070175 -6.5375948
72.500206 -59.128853 -6.6576986
72.517303 -59.189583 -6.8064013
72.154442 -57.262756 -6.3119617
72.151642 -57.308369 -6.2501416
72.14959 -57.354565 -6.1962662
72.149498 -57.402229 -6.1630459
72.15007 -57.450417 -6.1369748
72.152077 -57.499683 -6.125998
72.15416 -57.549011 -6.1158156
72.156837 -57.598793 -6.111989
72.158997 -57.648174 -6.1026011
72.161674 -57.697956 -6.098774
72.164505 -57.747852 -6.0965362
72.168541 -57.798656 -6.1070094
72.185104 -57.858994 -6.2501507
72.188461 -57.909283 -6.2534738
72.18927 -57.957642 -6.2297859
72.195923 -58.010445 -6.2680635
72.1968 -58.058857 -6.2451711
72.14138 -58.064499 -5.6264591
72.133102 -58.105957 -5.5066457
72.134727 -58.154938 -5.4916973
72.137184 -58.204552 -5.4854875
72.140541 -58.254845 -5.4888101
72.15065 -58.310272 -5.5636311
72.157913 -58.363533 -5.6082644
72.165169 -58.416794 -5.6528978
72.174156 -58.471367 -5.7158022
72.182175 -58.525192 -5.7683792
72.190254 -58.579082 -5.8217511
72.198189 -58.632854 -5.8735342
72.208153 -58.688168 -5.9467664
72.217964 -58.743366 -6.0184097
72.227936 -58.798679 -6.0916424
72.238869 -58.854736 -6.1752019
72.248451 -58.909763 -6.2444625
72.260521 -58.966675 -6.3399386
72.273788 -59.024494 -6.4481254
72.286148 -59.081635 -6.5467796
72.300919 -59.140598 -6.6708555
72.316734 -59.200356 -6.8060527
72.33638 -59.263027 -6.9817657
72.35318 -59.323528 -7.1272907
71.971878 -57.191696 -6.5663314
71.959015 -57.229675 -6.3980584
71.95652 -57.27552 -6.339416
71.952446 -57.320171 -6.264091
71.947693 -57.364307 -6.1816163
71.948502 -57.412663 -6.1579289
71.95005 -57.46159 -6.1421852
71.952805 -57.511429 -6.1391525
71.956688 -57.562119 -6.148037
71.95929 -57.611847 -6.1434159
71.961075 -57.660938 -6.1300554
71.961876 -57.709301 -6.1063681
71.963509 -57.758278 -6.0914192
71.96769 -57.8092 -6.1034813
71.979301 -57.865768 -6.194191
71.989037 -57.920914 -6.2650394
71.992622 -57.971378 -6.2707458
71.99485 -58.020817 -6.2621527
72.000084 -58.07254 -6.2853365
71.943535 -58.077328 -5.6547079
71.93428 -58.118042 -5.5245671
71.935829 -58.166965 -5.5088243
71.937614 -58.216061 -5.4954643
71.94239 -58.267441 -5.5138812
71.951828 -58.322353 -5.5815525
71.958641 -58.375271 -5.621419
71.967026 -58.429386 -5.677969
71.974434 -58.482761 -5.7241907
71.983498 -58.537392 -5.7878895
71.991135 -58.590939 -5.8364949
72.000641 -58.645908 -5.9049611
72.008957 -58.699966 -5.9607158
72.018021 -58.754597 -6.024415
72.028587 -58.81036 -6.104003
72.03997 -58.866764 -6.1923289
72.049255 -58.921558 -6.2584119
72.061775 -58.978813 -6.3586545
72.074066 -59.035892 -6.4565139
72.089432 -59.09531 -6.5869451
72.100822 -59.151711 -6.6752715
72.116867 -59.211643 -6.8128524
72.13726 -59.274883 -6.9965096
72.156837 -59.337494 -7.1714287
71.762344 -57.10017 -6.5355029
71.763229 -57.148582 -6.51261
71.763885 -57.196823 -6.4873338
71.761383 -57.242672 -6.4286919
71.751755 -57.2831 -6.294579
71.749405 -57.329056 -6.2375255
71.746979 -57.374966 -6.179678
71.748009 -57.423489 -6.1583738
71.750008 -57.472755 -6.147397
71.752991 -57.522766 -6.1467476
71.755676 -57.572548 -6.142921
71.758278 -57.622272 -6.1382999
71.760887 -57.671997 -6.1336784
71.764618 -57.72258 -6.1409731
71.766617 -57.771847 -6.1299968
71.767731 -57.820427 -6.1094871
71.778214 -57.876144 -6.1882806
71.790802 -57.933449 -6.2893176
71.793938 -57.983578 -6.290257
71.794739 -58.031929 -6.2665696
71.80027 -58.083878 -6.2929311
71.744621 -58.089352 -5.6718359
71.735138 -58.129894 -5.5393119
71.737518 -58.179447 -5.5323076
71.740128 -58.229172 -5.5276866
71.744003 -58.279865 -5.5365701
71.752243 -58.33387 -5.5915308
71.760109 -58.387585 -5.6425195
71.767815 -58.441189 -5.6919193
71.77417 -58.493763 -5.7270188
71.783165 -58.548332 -5.7899237
71.791542 -58.602451 -5.8464732
71.801132 -58.657475 -5.9157338
71.81012 -58.712048 -5.9786382
71.819702 -58.767075 -6.0478983
71.829376 -58.822163 -6.1179533
71.839706 -58.877762 -6.1951575
71.850494 -58.933701 -6.2771287
71.862038 -58.990211 -6.367044
71.874474 -59.047405 -6.4664917
71.888115 -59.105515 -6.5786514
71.901764 -59.163624 -6.6908107
71.917877 -59.22361 -6.829186
71.938873 -59.287308 -7.0191984
71.95372 -59.346325 -7.1440687
71.548187 -57.148346 -6.3589354
71.551163 -57.198357 -6.3582864
71.547089 -57.243004 -6.2829618
71.546165 -57.290051 -6.2410021
71.547272 -57.338634 -6.2204924
71.548973 -57.387672 -6.2063379
71.550232 -57.436371 -6.1874175
71.551781 -57.485298 -6.1716738
71.554771 -57.535309 -6.1710243
71.556244 -57.584179 -6.1544871
71.559151 -57.634129 -6.1530437
71.563332 -57.685051 -6.1651049
71.563538 -57.732952 -6.1350617
71.56636 -57.782848 -6.1328244
71.568977 -57.832569 -6.1282034
71.572701 -57.883152 -6.135498
71.583641 -57.939205 -6.2190576
71.595482 -57.995949 -6.3121505
71.597633 -58.045326 -6.302763
71.547234 -58.05479 -5.737278
71.545792 -58.101437 -5.6897573
71.536911 -58.142433 -5.5635886
71.538162 -58.191132 -5.5446682
71.540695 -58.240799 -5.5392528
71.544952 -58.291775 -5.5521083
71.553635 -58.346119 -5.6118355
71.559921 -58.39864 -5.6461411
71.569206 -58.453438 -5.712224
71.576538 -58.506756 -5.7576513
71.585007 -58.560928 -5.8149948
71.592941 -58.614704 -5.8667779
71.602074 -58.669392 -5.9312716
71.611214 -58.724075 -5.9957652
71.621552 -58.779675 -6.0729694
71.62986 -58.833733 -6.1287246
71.641029 -58.889957 -6.2146678
71.651291 -58.945499 -6.2910781
71.663887 -59.002811 -6.3921151
71.676094 -59.059834 -6.4891801
71.689209 -59.117542 -6.5957785
71.703308 -59.175991 -6.7127042
71.718895 -59.23558 -6.8455186
71.736511 -59.296715 -6.9997816
71.75737 -59.360291 -7.1882062
71.349564 -57.208328 -6.3468151
71.346985 -57.25412 -6.2873788
71.345322 -57.300594 -6.2374749
71.346573 -57.349293 -6.218554
71.349396 -57.399189 -6.2163162
71.350586 -57.44783 -6.1966009
71.352737 -57.497211 -6.1872129
71.354973 -57.54665 -6.1786194
71.357124 -57.596031 -6.1692319
71.359802 -57.645817 -6.1654053
71.363686 -57.696507 -6.1742887
71.364342 -57.744751 -6.1490121
71.365364 -57.793278 -6.1277084
71.368202 -57.84317 -6.1254706
71.371857 -57.893696 -6.1319709
71.37648 -57.944958 -6.1487989
71.384422 -57.998734 -6.2005816
71.382973 -58.04538 -6.1530614
71.385574 -58.095104 -6.1484404
71.346893 -58.113464 -5.7068853
71.337791 -58.154293 -5.5783334
71.340164 -58.203846 -5.5713291
71.342628 -58.253452 -5.5651193
71.346733 -58.304317 -5.5763865
71.354813 -58.358204 -5.6297579
71.361702 -58.411182 -5.6704187
71.369713 -58.465012 -5.7229962
71.377419 -58.518616 -5.7723956
71.386261 -58.573071 -5.8337116
71.393822 -58.62656 -5.8815227
71.402954 -58.681248 -5.9460163
71.412994 -58.736618 -6.0200429
71.42205 -58.791245 -6.0837421
71.431412 -58.8461 -6.1506195
71.442055 -58.901932 -6.2310014
71.452919 -58.957924 -6.313767
71.464088 -59.014153 -6.3997097
71.476677 -59.071461 -6.5007467
71.490013 -59.129337 -6.6097288
71.503433 -59.187275 -6.7195048
71.521278 -59.248577 -6.8761516
71.538445 -59.309364 -7.0256486
71.172523 -57.189224 -6.6275468
71.148697 -57.218876 -6.3432879
71.147171 -57.265465 -6.2949739
71.146782 -57.312908 -6.2585754
71.146385 -57.360348 -6.2221766
71.147781 -57.409164 -6.204845
71.149643 -57.458313 -6.1922793
71.152924 -57.508553 -6.194808
71.155754 -57.558449 -6.1925697
71.159187 -57.608799 -6.1966872
71.161713 -57.658466 -6.1912718
71.166351 -57.709732 -6.2080998
71.167381 -57.758259 -6.1867952
71.173134 -57.810379 -6.2155399
71.175293 -57.859756 -6.2061524
71.175568 -57.907719 -6.1769037
71.179298 -57.958294 -6.1841989
71.181381 -58.007626 -6.174016
71.186165 -58.058998 -6.1924334
71.188988 -58.108894 -6.1901956
71.147835 -58.125374 -5.7224245
71.138649 -58.166145 -5.5930781
71.141029 -58.215698 -5.5860739
71.143486 -58.265308 -5.579864
71.147591 -58.316174 -5.5911307
71.155151 -58.369663 -5.6389413
71.163918 -58.424065 -5.6994634
71.170425 -58.476753 -5.7361522
71.17836 -58.530529 -5.7879348
71.1866 -58.584526 -5.8428955
71.195656 -58.63916 -5.9065948
71.204414 -58.693558 -5.9671164
71.212807 -58.747673 -6.0236659
71.223068 -58.803215 -6.1000757
71.232048 -58.857784 -6.1629806
71.24382 -58.914467 -6.2552791
71.253555 -58.969608 -6.3261285
71.265022 -59.026062 -6.4152489
71.27784 -59.083546 -6.5186691
71.290878 -59.141197 -6.6244736
71.306625 -59.200901 -6.7588768
71.320564 -59.259232 -6.8742132
70.967613 -57.19669 -6.58112
70.960754 -57.239227 -6.4764013
70.944366 -57.274525 -6.2707906
70.945099 -57.322826 -6.2463083
70.946129 -57.371349 -6.2250042
70.948357 -57.420792 -6.2164106
70.951111 -57.470627 -6.2133789
70.953041 -57.51984 -6.2016072
70.955872 -57.569733 -6.199369
70.959755 -57.620426 -6.2082534
70.963707 -57.671181 -6.2179317
70.968269 -57.722385 -6.2339654
70.9711 -57.772282 -6.2317271
70.975578 -57.823429 -6.2469668
70.977066 -57.872299 -6.2304292
70.978165 -57.920883 -6.2099195
70.981293 -57.971008 -6.2108588
70.987206 -58.023243 -6.2411919
70.989136 -58.072453 -6.2294211
70.972595 -58.107635 -6.0222216
70.949303 -58.137688 -5.7435236
70.940948 -58.179085 -5.6229162
70.941673 -58.227383 -5.5984344
70.944885 -58.277565 -5.6001687
70.94809 -58.327747 -5.6019025
70.956474 -58.381863 -5.6584516
70.963661 -58.435066 -5.7022905
70.971146 -58.488499 -5.7493072
70.978928 -58.542156 -5.7995009
70.987389 -58.596325 -5.8568444
70.996452 -58.650959 -5.9205441
71.004761 -58.705013 -5.9762993
71.01413 -58.759872 -6.0431762
71.024315 -58.815353 -6.1187916
71.032776 -58.869526 -6.1761355
71.04409 -58.925869 -6.2636676
71.055473 -58.982262 -6.351994
71.067017 -59.038776 -6.4419093
71.077957 -59.094826 -6.5254688
71.091522 -59.152878 -6.6368337
71.105614 -59.211327 -6.7537599
71.118881 -59.26915 -6.8619466
71.137924 -59.331364 -7.0313044
71.162155 -59.397511 -7.2554774
70.75544 -57.15089 -6.4900608
70.755646 -57.198792 -6.4600177
70.749687 -57.242016 -6.3648324
70.745163 -57.286324 -6.2847409
70.744621 -57.333652 -6.2467537
70.746918 -57.383148 -6.2389545
70.748619 -57.43219 -6.2248001
70.752357 -57.482769 -6.2320957
70.755859 -57.533176 -6.2370071
70.7593 -57.58353 -6.2411242
70.763405 -57.634392 -6.2523918
70.766304 -57.684349 -6.2509484
70.769669 -57.734638 -6.254271
70.772194 -57.784309 -6.2488551
70.7724 -57.832207 -6.2188125
70.778763 -57.884785 -6.2539129
70.780235 -57.933651 -6.2373748
70.782166 -57.982864 -6.2256036
70.784851 -58.032646 -6.2217765
70.789032 -58.083569 -6.2338381
70.786301 -58.129246 -6.1728129
70.751076 -58.150227 -5.7678013
70.740845 -58.190201 -5.6273332
70.743141 -58.239697 -5.6195345
70.745827 -58.289474 -5.6157079
70.748955 -58.3396 -5.6166472
70.758163 -58.394341 -5.6819353
70.764603 -58.446976 -5.7178297
70.771187 -58.499722 -5.7553129
70.781219 -58.555092 -5.82934
70.789017 -58.608753 -5.8795338
70.79702 -58.662582 -5.9321113
70.806755 -58.717728 -6.0029602
70.814018 -58.770985 -6.0475931
70.824959 -58.827042 -6.1311531
70.834541 -58.882065 -6.2004132
70.844658 -58.937496 -6.2752342
70.855667 -58.993607 -6.3595891
70.867889 -59.050632 -6.4566541
70.879799 -59.107426 -6.5505409
70.892616 -59.164906 -6.6539617
70.904762 -59.221874 -6.7502327
70.922005 -59.282719 -6.9005241
70.938568 -59.343048 -7.0436659
70.58033 -57.180996 -6.7590208
70.552162 -57.20734 -6.4286847
70.54538 -57.249935 -6.3247609
70.544083 -57.296696 -6.2788296
70.545792 -57.345737 -6.2646751
70.548767 -57.395744 -6.2640257
70.551819 -57.445812 -6.2641711
70.55526 -57.496162 -6.2682886
70.558456 -57.546341 -6.2700224
70.560989 -57.596012 -6.2646065
70.563599 -57.645737 -6.2599854
70.567253 -57.696259 -6.2664866
70.568886 -57.745243 -6.2515373
70.571411 -57.79491 -6.2461214
70.574844 -57.845261 -6.2502394
70.578278 -57.895611 -6.2543569
70.579979 -57.944653 -6.240202
70.583862 -57.995346 -6.2490859
70.584366 -58.043476 -6.2222204
70.586746 -58.093025 -6.2152162
70.58905 -58.142525 -6.2074175
70.551872 -58.162022 -5.7817507
70.542084 -58.202339 -5.646049
70.544617 -58.252007 -5.6406336
70.547829 -58.302189 -5.6423678
70.550957 -58.35231 -5.6433072
70.558662 -58.405914 -5.6927066
70.566299 -58.459461 -5.741312
70.573486 -58.512665 -5.785151
70.581795 -58.566723 -5.8409057
70.589958 -58.620663 -5.895072
70.598267 -58.674725 -5.9508271
70.607025 -58.729122 -6.0113487
70.616318 -58.783924 -6.0774312
70.626953 -58.839748 -6.1578131
70.635422 -58.893921 -6.215157
70.646133 -58.949806 -6.2963333
70.65654 -59.005463 -6.3743329
70.667709 -59.061687 -6.4602757
70.679474 -59.11837 -6.5525742
70.693558 -59.176819 -6.6694999
70.707054 -59.234814 -6.7800708
70.723846 -59.295311 -6.9255953
70.743492 -59.357986 -7.1013083
70.759766 -59.418087 -7.2412724
70.371872 -57.233509 -6.6428304
70.353531 -57.267323 -6.4165645
70.348404 -57.311172 -6.3301177
70.34816 -57.35873 -6.2953081
70.350311 -57.408112 -6.2859201
70.352089 -57.457211 -6.2725606
70.357475 -57.509045 -6.2973332
70.358727 -57.557743 -6.2784119
70.362839 -57.608608 -6.2896791
70.365669 -57.658501 -6.2874413
70.367218 -57.707432 -6.271698
70.368858 -57.756409 -6.2567492
70.371231 -57.805969 -6.2497444
70.374741 -57.856373 -6.2546563
70.377571 -57.906269 -6.2524185
70.379951 -57.955822 -6.2454138
70.382851 -58.005775 -6.2439699
70.386887 -58.056583 -6.2544427
70.391594 -58.107906 -6.2720652
70.394051 -58.157516 -6.2658553
70.353264 -58.174278 -5.8020563
70.345207 -58.215908 -5.6846266
70.345482 -58.263863 -5.6553783
70.347572 -58.313187 -5.6451964
70.35025 -58.362968 -5.6413693
70.359154 -58.41748 -5.7034793
70.367844 -58.471825 -5.7632065
70.375107 -58.525085 -5.8078399
70.382286 -58.578289 -5.8516784
70.390305 -58.632122 -5.9042554
70.399666 -58.686977 -5.9711328
70.406693 -58.740067 -6.0133829
70.417336 -58.795895 -6.0937648
70.426773 -58.850807 -6.1614356
70.436203 -58.90572 -6.2291074
70.446472 -58.961266 -6.3055172
70.456734 -59.0168 -6.3819275
70.469254 -59.074059 -6.4821701
70.481689 -59.131248 -6.5816183
70.494133 -59.188446 -6.681067
70.508148 -59.246838 -6.7971983
70.52359 -59.306313 -6.9284239
70.539635 -59.366245 -7.0660043
70.179878 -57.250782 -6.7330456
70.156883 -57.281059 -6.4575253
70.148521 -57.32246 -6.3369184
70.147682 -57.36956 -6.2957535
70.147957 -57.417519 -6.2665048
70.15123 -57.467754 -6.2690334
70.154068 -57.517651 -6.2667956
70.158249 -57.568573 -6.2788568
70.163925 -57.620636 -6.306807
70.167969 -57.67144 -6.3172798
70.170341 -57.720997 -6.3102756
70.17115 -57.769352 -6.2865877
70.174805 -57.819878 -6.2930884
70.174408 -57.867317 -6.25669
70.17942 -57.918869 -6.2774906
70.183525 -57.969734 -6.2887578
70.187851 -58.020767 -6.3024082
70.191292 -58.071121 -6.3065252
70.192238 -58.119591 -6.2844267
70.196045 -58.170227 -6.2925167
70.155037 -58.186821 -5.826334
70.145103 -58.22702 -5.6890435
70.146957 -58.276176 -5.6764784
70.149117 -58.325554 -5.6670909
70.15239 -58.375793 -5.6696191
70.160553 -58.429737 -5.7237849
70.166618 -58.482086 -5.7557077
70.176201 -58.537113 -5.8249679
70.18248 -58.589634 -5.8592734
70.192001 -58.644604 -5.9277387
70.200981 -58.699177 -5.990644
70.209595 -58.753464 -6.0495768
70.218285 -58.807808 -6.109304
70.227264 -58.862381 -6.1722083
70.237686 -58.91803 -6.2502074
70.247192 -58.973007 -6.3186731
70.259178 -59.029858 -6.4133554
70.270126 -59.085915 -6.4969149
70.281509 -59.142307 -6.5852413
70.294701 -59.200073 -6.6926341
70.310295 -59.259663 -6.8254485
70.323486 -59.317429 -6.9328408
70.340431 -59.378048 -7.0799546
69.967834 -57.252831 -6.6111479
69.956322 -57.291832 -6.4571753
69.952469 -57.336655 -6.3842335
69.953354 -57.385067 -6.36134
69.955505 -57.434444 -6.3519521
69.95826 -57.484287 -6.3489199
69.960266 -57.533554 -6.3379436
69.964821 -57.584763 -6.3539772
69.967888 -57.634827 -6.3541222
69.970863 -57.684837 -6.3534732
69.973541 -57.734619 -6.3496466
69.975174 -57.783604 -6.3346972
69.976578 -57.832417 -6.3173652
69.979332 -57.882256 -6.314333
69.980888 -57.931175 -6.2985902
69.982368 -57.980049 -6.282052
69.986397 -58.030853 -6.2925248
69.991035 -58.082123 -6.3093524
69.992661 -58.131104 -6.294404
69.990761 -58.177406 -6.2421174
69.956055 -58.198788 -5.8426666
69.945221 -58.238304 -5.6958432
69.948273 -58.288372 -5.6959887
69.950813 -58.338039 -5.6905732
69.953415 -58.387764 -5.6859517
69.96067 -58.441025 -5.7305846
69.969215 -58.495255 -5.788723
69.975945 -58.548115 -5.8277955
69.983879 -58.601891 -5.8795781
69.993393 -58.656857 -5.9480438
70.00148 -58.710747 -6.0014157
70.010239 -58.765144 -6.0619373
70.018478 -58.819149 -6.1168976
70.028214 -58.87429 -6.1877465
70.038322 -58.929718 -6.262568
70.049194 -58.985714 -6.3453331
70.058548 -59.040573 -6.4122105
70.070168 -59.097141 -6.5029202
70.082603 -59.154335 -6.6023679
70.095795 -59.212101 -6.7097611
70.11042 -59.27095 -6.8322477
70.124359 -59.329281 -6.9475846
70.141525 -59.390076 -7.0970817
70.157944 -59.450287 -7.2386346
70.188026 -59.520885 -7.5247731
69.74984 -57.298103 -6.3940663
69.750412 -57.346287 -6.3679957
69.753548 -57.396412 -6.3689351
69.756149 -57.446133 -6.3643136
69.758682 -57.495804 -6.3588982
69.762268 -57.546265 -6.3646045
69.763367 -57.594849 -6.3440948
69.768074 -57.646172 -6.3617167
69.771584 -57.696575 -6.3666291
69.77066 -57.743626 -6.3246698
69.772514 -57.792774 -6.3121042
69.776474 -57.843533 -6.3217821
69.777199 -57.891827 -6.2973008
69.782661 -57.943718 -6.3228679
69.785339 -57.9935 -6.3190408
69.787338 -58.042767 -6.3080635
69.792427 -58.094376 -6.329658
69.797432 -58.145924 -6.3504586
69.798386 -58.194393 -6.3283606
69.756699 -58.210472 -5.8550282
69.749924 -58.253071 -5.7511034
69.748466 -58.299717 -5.7035837
69.751381 -58.349667 -5.7021403
69.755409 -58.400475 -5.7126126
69.762444 -58.453568 -5.7548623
69.77076 -58.507626 -5.8106174
69.776665 -58.55986 -5.840951
69.784676 -58.613689 -5.893528
69.793739 -58.668316 -5.9572272
69.801369 -58.721863 -6.0058327
69.81073 -58.776718 -6.07271
69.820175 -58.831631 -6.1403809
69.828033 -58.885349 -6.1913695
69.839203 -58.94157 -6.2773128
69.849609 -58.997231 -6.3553114
69.860245 -59.053051 -6.4356937
69.871643 -59.109455 -6.5240202
69.883476 -59.166187 -6.6171126
69.896286 -59.223667 -6.7205334
69.910912 -59.282516 -6.8430204
69.925598 -59.341423 -6.9663014
69.94442 -59.403465 -7.133276
69.552582 -57.311382 -6.4286714
69.552261 -57.358883 -6.3930678
69.554497 -57.408321 -6.3844743
69.556793 -57.457817 -6.3766751
69.5597 -57.507771 -6.3752317
69.56501 -57.559547 -6.39921
69.565735 -57.607849 -6.3747277
69.564072 -57.65432 -6.3248239
69.569824 -57.706436 -6.353569
69.571754 -57.755653 -6.3417978
69.576538 -57.807026 -6.3602147
69.578468 -57.856243 -6.3484435
69.582123 -57.906761 -6.3549442
69.584656 -57.956429 -6.3495288
69.587486 -58.006325 -6.3472905
69.59024 -58.056164 -6.3442578
69.586914 -58.101383 -6.2768769
69.582985 -58.146149 -6.2031407
69.596924 -58.204483 -6.3184781
69.557419 -58.222218 -5.8681841
69.548462 -58.263161 -5.741221
69.55069 -58.312599 -5.7326279
69.553001 -58.362091 -5.7248292
69.555679 -58.411873 -5.7210021
69.563309 -58.46542 -5.7696071
69.571556 -58.519421 -5.8245678
69.578506 -58.572453 -5.8660235
69.586815 -58.626511 -5.9217782
69.594612 -58.680172 -5.971972
69.603294 -58.734516 -6.0316992
69.613174 -58.789772 -6.1041374
69.621117 -58.843544 -6.15592
69.630554 -58.89846 -6.2235913
69.641037 -58.95417 -6.3023849
69.650703 -59.009258 -6.3724394
69.660889 -59.064739 -6.4480553
69.670708 -59.119942 -6.5196986
69.684494 -59.178158 -6.6334462
69.696259 -59.23484 -6.7257452
69.710655 -59.293518 -6.845849
69.725571 -59.352596 -6.9715128
69.741386 -59.412357 -7.1067104
69.379379 -57.295181 -6.749918
69.356453 -57.32552 -6.4751921
69.353432 -57.370968 -6.4109893
69.354912 -57.419834 -6.3944516
69.357063 -57.469215 -6.3850632
69.361023 -57.51997 -6.394742
69.363632 -57.569691 -6.390121
69.365707 -57.619015 -6.3799386
69.368683 -57.669025 -6.3792892
69.372574 -57.719719 -6.3881731
69.372475 -57.767391 -6.3549528
69.377563 -57.819 -6.3765473
69.381668 -57.869865 -6.3878145
69.383217 -57.918789 -6.3720713
69.384323 -57.967369 -6.3515615
69.386703 -58.01693 -6.3445568
69.39193 -58.068645 -6.3677402
69.393341 -58.117462 -6.3504081
69.396324 -58.167469 -6.3497591
69.377228 -58.20071 -6.1155491
69.358894 -58.234524 -5.8892832
69.354286 -58.278774 -5.8083968
69.351486 -58.324394 -5.7465773
69.354248 -58.374233 -5.7435451
69.357597 -58.42453 -5.7468677
69.364182 -58.477276 -5.7843509
69.372047 -58.530991 -5.8353395
69.379677 -58.584538 -5.883945
69.387466 -58.638199 -5.9341388
69.395851 -58.69231 -5.9906878
69.404541 -58.746658 -6.050415
69.412697 -58.800598 -6.1045818
69.42289 -58.856083 -6.1801972
69.431122 -58.910084 -6.2351575
69.441467 -58.965683 -6.3123622
69.451279 -59.020882 -6.3840055
69.462212 -59.076939 -6.4675655
69.473007 -59.132877 -6.5495362
69.48484 -59.189617 -6.6426291
69.498177 -59.247498 -6.7516108
69.512352 -59.306004 -6.8693314
69.526291 -59.364334 -6.9846678
69.546837 -59.427692 -7.1699138
69.571747 -59.49435 -7.401237
69.595215 -59.559929 -7.6174664
69.186043 -57.263699 -6.8582597
69.183174 -57.309261 -6.7956452
69.165581 -57.343643 -6.5773234
69.154671 -57.383106 -6.4297061
69.153984 -57.430321 -6.39013
69.154633 -57.478561 -6.3648534
69.159111 -57.529713 -6.3800931
69.164879 -57.581833 -6.4088378
69.167557 -57.631615 -6.4050107
69.169563 -57.680882 -6.3940339
69.171867 -57.730377 -6.3862348
69.176117 -57.781361 -6.3990912
69.178207 -57.830681 -6.3889089
69.17968 -57.879555 -6.3723707
69.183334 -57.930073 -6.3788719
69.18692 -57.980537 -6.3845782
69.176765 -58.020569 -6.2449045
69.188072 -58.076908 -6.3324361
69.194588 -58.129601 -6.3691249
69.197563 -58.179611 -6.3684759
69.201897 -58.230644 -6.3821268
69.16066 -58.247066 -5.9135609
69.152756 -58.288807 -5.79772
69.152283 -58.336193 -5.7605276
69.155418 -58.386314 -5.7614675
69.158096 -58.436096 -5.7576404
69.166702 -58.490383 -5.8165727
69.173065 -58.542961 -5.8516731
69.181152 -58.596848 -5.905045
69.188705 -58.650337 -5.9528556
69.196648 -58.704109 -6.0046382
69.204582 -58.757885 -6.0564213
69.213791 -58.812626 -6.1217098
69.222183 -58.866741 -6.1782589
69.231766 -58.921772 -6.247519
69.242325 -58.977535 -6.327107
69.252449 -59.032967 -6.4019279
69.263306 -59.088963 -6.4846935
69.273201 -59.144222 -6.5571313
69.286385 -59.201984 -6.6645236
69.300102 -59.260147 -6.7774777
69.313446 -59.318027 -6.8864594
69.327614 -59.376534 -7.004179
69.347252 -59.439205 -7.1798921
68.931984 -57.186081 -6.3239107
68.966118 -57.259758 -6.6529474
68.980515 -57.318436 -6.7730508
68.974037 -57.361259 -6.6723042
68.960274 -57.398556 -6.4944987
68.957932 -57.444515 -6.4374452
68.960457 -57.494183 -6.4320292
68.963432 -57.544193 -6.4313803
68.966049 -57.593918 -6.4267592
68.968498 -57.643528 -6.4205489
68.971024 -57.693195 -6.415133
68.973183 -57.742573 -6.405745
68.975792 -57.792305 -6.401124
68.975624 -57.839912 -6.3671088
68.980179 -57.891125 -6.3831425
68.984879 -57.942444 -6.4007654
68.986969 -57.991764 -6.3905835
68.991074 -58.042633 -6.4018502
68.994202 -58.092754 -6.4027896
68.997185 -58.142769 -6.4021406
68.998436 -58.191463 -6.3832197
69.001793 -58.241756 -6.3865428
68.962357 -58.259548 -5.9370432
68.957909 -58.303913 -5.8577461
68.954651 -58.34919 -5.7911596
68.956886 -58.398628 -5.7825665
68.959793 -58.448582 -5.7811227
68.966301 -58.50127 -5.8178115
68.975067 -58.555672 -5.8783331
68.981644 -58.608418 -5.9158168
68.989281 -58.661964 -5.9644217
68.998123 -58.716423 -6.0257373
69.007332 -58.771164 -6.0910258
69.01474 -58.824539 -6.137248
69.023804 -58.879169 -6.2009468
69.033386 -58.934196 -6.2702069
69.043732 -58.989792 -6.3474116
69.053238 -59.044765 -6.4158773
69.064102 -59.100761 -6.4986429
69.075722 -59.157333 -6.5893521
69.085754 -59.2127 -6.6633787
69.099922 -59.271206 -6.7810993
69.113716 -59.32943 -6.8948474
69.129311 -59.389015 -7.0276618
69.148048 -59.451004 -7.1938415
69.163422 -59.510422 -7.3242726
