# .PCD v0.7 - Point Cloud Data file format
VERSION 0.7
FIELDS x y z
SIZE 4 4 4
TYPE F F F
COUNT 1 1 1
WIDTH 1667
HEIGHT 1
VIEWPOINT 0 0 0 1 0 0 0
POINTS 1667
DATA ascii
138.75758 7.8873138 1.3672
138.80745 7.8837757 1.3392
138.85733 7.8802395 1.2824
138.9072 7.8767014 1.2304
138.95708 7.8731632 1.1952
139.00696 7.869627 1.1456
139.05682 7.8660889 1.1104
139.1067 7.8625526 1.048
139.15657 7.8590145 1.0048
139.20645 7.8554764 0.93199998
139.25633 7.8519402 0.85759997
139.3062 7.848402 0.8096
139.35608 7.8448658 0.71439999
139.40594 7.8413277 0.64399999
139.45583 7.8377895 0.59039998
139.50571 7.8342533 0.49039999
139.55557 7.8307152 0.40560001
139.60545 7.827179 0.28799999
139.65532 7.8236408 0.2032
139.7052 7.8201027 0.078400001
139.75507 7.8165665 -0.1256
139.80495 7.8130283 -0.36160001
139.85483 7.8094902 -0.67439997
132.11009 8.158287 0.91280001
132.15997 8.1547489 0.97439998
132.20984 8.1512127 1.1168
132.25972 8.1476746 1.1447999
132.3096 8.1441383 1.1528
132.35947 8.1406002 1.1544
132.40935 8.1370621 1.1552
132.45921 8.1335258 1.1384
132.50909 8.1299877 1.1408
132.55896 8.1264496 1.1568
132.60884 8.1229134 1.1208
132.65872 8.1193752 1.132
132.70859 8.115839 1.1464
132.75847 8.1123009 1.1488
132.80833 8.1087627 1.1632
132.85822 8.1052265 1.16
132.90808 8.1016884 1.148
132.95796 8.0981522 1.1447999
133.00784 8.094614 1.1416
133.05771 8.0910759 1.1512001
133.10759 8.0875397 1.1392
133.15747 8.0840015 1.1232001
133.20734 8.0804653 1.1064
133.25722 8.0769272 1.1160001
133.30708 8.0733891 1.1303999
133.35696 8.0698528 1.1272
133.40683 8.0663147 1.1408
133.45671 8.0627785 1.1888
133.50659 8.0592403 1.1888
133.55646 8.0557022 1.168
133.60634 8.052166 1.1375999
133.6562 8.0486279 1.132
133.70609 8.0450897 1.1408
133.75595 8.0415535 1.1408
133.80583 8.0380154 1.1496
133.85571 8.0344791 1.1424
133.90558 8.030941 1.1375999
133.95546 8.0274029 1.1392
134.00534 8.0238667 1.1248
134.05521 8.0203285 1.1128
134.10509 8.0167923 1.1112
134.15495 8.0132542 1.1336
134.20483 8.009716 1.3152
134.2547 8.0061798 1.3016
134.30458 8.0026417 1.2711999
134.35446 7.9991055 1.2079999
134.40433 7.9955673 1.2368
134.45421 7.9920292 1.2151999
134.50407 7.988493 1.2336
134.55396 7.9849548 1.1856
134.60384 7.9814186 1.176
134.6537 7.9778805 1.1944
134.70358 7.9743423 1.1824
134.75345 7.9708061 1.152
134.80333 7.967268 1.1616
134.85321 7.9637299 1.1576
134.90308 7.9601936 1.1440001
134.95296 7.9566555 1.124
135.00282 7.9531193 1.072
135.0527 7.9495811 0.98400003
135.10257 7.946043 0.99519998
135.15245 7.9425068 1.0368
135.20233 7.9389687 0.94880003
135.2522 7.9354324 0.96319997
135.30208 7.9318943 0.95279998
135.35194 7.9283562 0.96160001
135.40182 7.9248199 0.95920002
135.45171 7.9212818 0.9576
135.50157 7.9177456 0.95599997
135.55145 7.9142075 0.95520002
135.60132 7.9106693 0.95359999
135.6512 7.9071331 0.95120001
135.70108 7.903595 0.96079999
135.75095 7.9000587 0.96079999
135.80083 7.8965206 0.9544
135.85069 7.8929825 0.95679998
135.90057 7.8894463 0.95359999
135.95044 7.8859081 0.9576
136.00032 7.88237 0.9576
136.0502 7.8788338 0.95840001
136.10007 7.8752956 0.95200002
136.14995 7.8717594 0.95359999
136.19983 7.8682213 0.95279998
136.24969 7.8646832 0.96240002
136.29958 7.8611469 0.96079999
136.34944 7.8576088 0.9544
136.39932 7.8540726 0.95359999
136.44919 7.8505344 0.93760002
136.49907 7.8469963 0.92879999
136.54895 7.8434601 0.93120003
136.59882 7.839922 0.93760002
136.6487 7.8363857 0.9368
136.69856 7.8328476 0.94080001
136.74844 7.8293095 0.94239998
136.79831 7.8257732 0.94080001
136.84819 7.8222351 0.94160002
136.89807 7.8186989 0.94160002
136.94794 7.8151608 0.94239998
136.99782 7.8116226 0.93839997
137.0477 7.8080864 0.94639999
137.09756 7.8045483 0.94400001
137.14745 7.8010101 0.94480002
137.19731 7.7974739 0.94639999
137.24719 7.7939358 0.94559997
137.29706 7.7903996 0.94880003
137.34694 7.7868614 0.95200002
137.39682 7.7833233 0.94880003
137.44669 7.7797871 0.95120001
137.49657 7.7762489 0.9472
137.54643 7.7727127 0.95599997
137.59631 7.7691746 0.96160001
137.64618 7.7656364 0.96719998
137.69606 7.7621002 0.97119999
137.74594 7.7585621 0.99360001
137.79581 7.755024 1.0232
137.84569 7.7514877 1.0784
137.89555 7.7479496 1.1447999
137.94543 7.7444134 1.2112
137.99532 7.7408752 1.2776
138.04518 7.7373371 1.344
138.09506 7.7338009 1.4104
138.14493 7.7302628 1.4768
138.19481 7.7267265 1.5312001
138.24469 7.7231884 1.5184
138.29456 7.7196503 1.62
138.34444 7.716114 1.6447999
138.3943 7.7125759 1.6616
138.44418 7.7090397 1.6632
138.49405 7.7055016 1.6688
138.54393 7.7019634 1.6655999
138.59381 7.6984272 1.6624
138.64368 7.6948891 1.6128
138.69356 7.6913528 1.5856
138.74344 7.6878147 1.5344
138.7933 7.6842766 1.5008
138.84319 7.6807404 1.4672
138.89305 7.6772022 1.4288
138.94293 7.6736641 1.3952
138.9928 7.6701279 1.3432
139.04268 7.6665897 1.2976
139.09256 7.6630535 1.2424001
139.14243 7.6595154 1.2064
139.19231 7.6559772 1.16
139.24217 7.652441 1.0936
139.29205 7.6489029 1.0584
139.34192 7.6453667 0.97759998
139.3918 7.6418285 0.92079997
139.44168 7.6382904 0.8664
139.49155 7.6347542 0.78560001
139.54143 7.631216 0.70639998
139.59131 7.6276779 0.61839998
139.64117 7.6241417 0.55599999
139.69106 7.6206036 0.46079999
139.74092 7.6170673 0.3624
139.7908 7.6135292 0.26480001
139.84067 7.609993 0.096799999
139.89055 7.6064548 0.0208
139.94043 7.6029167 -0.208
139.9903 7.5993805 -0.46799999
140.04018 7.5958424 -0.75520003
132.09595 7.9587879 0.90799999
132.14581 7.9552498 0.95999998
132.19569 7.9517136 1.0224
132.24557 7.9481754 1.1303999
132.29544 7.9446392 1.1392
132.34532 7.9411011 1.156
132.39519 7.9375629 1.1672
132.44507 7.9340267 1.1744
132.49493 7.9304886 1.1416
132.54482 7.9269524 1.1336
132.5947 7.9234142 1.1592
132.64456 7.9198761 1.152
132.69444 7.9163399 1.1528
132.74432 7.9128017 1.1496
132.79419 7.9092636 1.1552
132.84407 7.9057274 1.156
132.89394 7.9021893 1.1544
132.94382 7.898653 1.1456
132.99368 7.8951149 1.1336
133.04356 7.8915768 1.1368001
133.09344 7.8880405 1.1248
133.14331 7.8845024 1.128
133.19319 7.8809662 1.1408
133.24306 7.8774281 1.1464
133.29294 7.8738899 1.132
133.3428 7.8703537 1.1504
133.39268 7.8668156 1.1192
133.44257 7.8632793 1.1303999
133.49243 7.8597412 1.1248
133.54231 7.8562031 1.1544
133.59219 7.8526669 1.1808
133.64206 7.8491287 1.1536
133.69194 7.8455925 1.148
133.74181 7.8420544 1.148
133.79169 7.8385162 1.1472
133.84155 7.83498 1.1424
133.89143 7.8314419 1.1303999
133.94131 7.8279037 1.1248
133.99118 7.8243675 1.1192
134.04106 7.8208294 1.1144
134.09094 7.8172932 1.1152
134.14081 7.813755 1.1128
134.19067 7.8102169 1.1192
134.24055 7.8066807 1.1224
134.29044 7.8031425 1.132
134.3403 7.7996063 1.1296
134.39018 7.7960682 1.1776
134.44006 7.7925301 1.1848
134.48993 7.7889938 1.1704
134.53981 7.7854557 1.1736
134.58968 7.7819176 1.1447999
134.63956 7.7783813 1.168
134.68942 7.7748432 1.1799999
134.7393 7.771307 1.1736
134.78918 7.7677689 1.1584001
134.83905 7.7642307 1.1552
134.88893 7.7606945 1.1344
134.93881 7.7571564 1.1336
134.98868 7.7536201 1.128
135.03854 7.750082 0.99040002
135.08842 7.7465439 0.96799999
135.13831 7.7430077 0.96960002
135.18817 7.7394695 0.94880003
135.23805 7.7359333 0.95039999
135.28793 7.7323952 0.95840001
135.3378 7.728857 0.94959998
135.38768 7.7253208 0.95039999
135.43755 7.7217827 0.95520002
135.48743 7.7182465 0.95279998
135.53729 7.7147083 0.95039999
135.58717 7.7111702 0.95359999
135.63705 7.707634 0.95520002
135.68692 7.7040958 0.95679998
135.7368 7.7005577 0.95039999
135.78668 7.6970215 0.9576
135.83655 7.6934834 0.95359999
135.88641 7.6899471 0.95599997
135.93629 7.686409 0.95359999
135.98618 7.6828709 0.95920002
136.03604 7.6793346 0.95520002
136.08592 7.6757965 0.94639999
136.1358 7.6722603 0.94639999
136.18567 7.6687222 0.95359999
136.23555 7.665184 0.95359999
136.28542 7.6616478 0.95359999
136.3353 7.6581097 0.95999998
136.38516 7.6545734 0.95679998
136.43504 7.6510353 0.94400001
136.48492 7.6474972 0.92879999
136.53479 7.643961 0.93120003
136.58467 7.6404228 0.93839997
136.63454 7.6368866 0.94
136.68442 7.6333485 0.93839997
136.73428 7.6298103 0.93599999
136.78416 7.6262741 0.94480002
136.83405 7.622736 0.94160002
136.88391 7.6191978 0.94559997
136.93379 7.6156616 0.93839997
136.98367 7.6121235 0.93760002
137.03354 7.6085873 0.95039999
137.08342 7.6050491 0.94400001
137.13329 7.601511 0.94
137.18317 7.5979748 0.93599999
137.23303 7.5944366 0.94559997
137.28291 7.5909004 0.93599999
137.33279 7.5873623 0.93919998
137.38266 7.5838242 0.9472
137.43254 7.5802879 0.94239998
137.48242 7.5767498 0.94480002
137.53229 7.5732117 0.95200002
137.58215 7.5696754 0.94880003
137.63203 7.5661373 0.95679998
137.68192 7.5626011 0.95279998
137.73178 7.559063 0.95520002
137.78166 7.5555248 0.95599997
137.83154 7.5519886 0.95840001
137.88141 7.5484505 0.96399999
137.93129 7.5449142 0.97759998
137.98116 7.5413761 0.9896
138.03104 7.537838 1.0368
138.0809 7.5343018 1.1160001
138.13078 7.5307636 1.1799999
138.18066 7.5272274 1.244
138.23053 7.5236893 1.308
138.28041 7.5201511 1.372
138.33029 7.5166149 1.436
138.38016 7.5130768 1.5
138.43004 7.5095406 1.5312001
138.4799 7.5060024 1.5088
138.52979 7.5024643 1.6248
138.57965 7.4989281 1.6568
138.62953 7.4953899 1.6616
138.67941 7.4918518 1.6727999
138.72928 7.4883156 1.6632
138.77916 7.4847775 1.656
138.82903 7.4812412 1.6192
138.87891 7.4777031 1.5888
138.92877 7.474165 1.5456001
138.97865 7.4706287 1.4960001
139.02853 7.4670906 1.4648
139.0784 7.4635544 1.4232
139.12828 7.4600163 1.3944
139.17816 7.4564781 1.3344001
139.22803 7.4529419 1.2896
139.27791 7.4494038 1.2488
139.32777 7.4458675 1.196
139.37766 7.4423294 1.148
139.42752 7.4387913 1.0776
139.4774 7.4352551 1.0328
139.52728 7.4317169 0.97280002
139.57715 7.4281807 0.884
139.62703 7.4246426 0.8312
139.6769 7.4211044 0.74479997
139.72678 7.4175682 0.68159997
139.77664 7.4140301 0.58880001
139.82652 7.4104919 0.51599997
139.8764 7.4069557 0.4032
139.92627 7.4034176 0.31760001
139.97615 7.3998814 0.156
140.02603 7.3963432 0.0416
140.0759 7.3928051 -0.078400001
140.12576 7.3892689 -0.252
140.17564 7.3857307 -0.75199997
132.08179 7.7592888 0.9368
132.13167 7.7557507 0.96719998
132.18155 7.7522144 0.98479998
132.23141 7.7486763 1.1032
132.2813 7.7451401 1.136
132.33118 7.7416019 1.1696
132.38104 7.7380638 1.192
132.43092 7.7345276 1.1784
132.48079 7.7309895 1.1608
132.53067 7.7274513 1.1528
132.58054 7.7239151 1.1447999
132.63042 7.720377 1.1512001
132.6803 7.7168407 1.148
132.73016 7.7133026 1.1544
132.78004 7.7097645 1.1544
132.82991 7.7062283 1.1488
132.87979 7.7026901 1.1528
132.92966 7.6991539 1.1576
132.97954 7.6956158 1.1384
133.02942 7.6920776 1.1472
133.07928 7.6885414 1.1248
133.12917 7.6850033 1.1528
133.17905 7.6814671 1.1576
133.22891 7.6779289 1.1544
133.27879 7.6743908 1.1568
133.32866 7.6708546 1.1496
133.37854 7.6673164 1.156
133.42841 7.6637802 1.1488
133.47829 7.6602421 1.1504
133.52817 7.6567039 1.1392
133.57803 7.6531677 1.1512001
133.62791 7.6496296 1.1296
133.67778 7.6460915 1.1248
133.72766 7.6425552 1.1632
133.77754 7.6390171 1.1375999
133.82741 7.6354809 1.1336
133.87729 7.6319427 1.24
133.92715 7.6284046 1.1504
133.97704 7.6248684 1.156
134.02692 7.6213303 1.1464
134.07678 7.617794 1.1408
134.12666 7.6142559 1.14
134.17653 7.6107178 1.1727999
134.22641 7.6071815 1.1992
134.27628 7.6036434 1.2224
134.32616 7.6001072 1.2048
134.37604 7.5965691 1.188
134.4259 7.5930309 1.16
134.47578 7.5894947 1.1504
134.52565 7.5859566 1.1592
134.57553 7.5824203 1.1384
134.6254 7.5788822 1.1568
134.67528 7.5753441 1.34
134.72516 7.5718079 1.1375999
134.77502 7.5682697 1.1192
134.82491 7.5647316 1.1023999
134.87479 7.5611954 1.0928
134.92465 7.5576572 1.0864
134.97453 7.554121 1.068
135.0244 7.5505829 0.9648
135.07428 7.5470448 0.96799999
135.12415 7.5435085 0.96079999
135.17403 7.5399704 0.96319997
135.22391 7.5364342 0.95359999
135.27377 7.532896 0.95200002
135.32365 7.5293579 0.95039999
135.37352 7.5258217 0.9576
135.4234 7.5222836 0.95279998
135.47327 7.5187473 0.96399999
135.52315 7.5152092 0.95120001
135.57303 7.5116711 0.95599997
135.62289 7.5081348 0.95200002
135.67278 7.5045967 0.96079999
135.72266 7.5010605 0.95679998
135.77252 7.4975224 0.95039999
135.8224 7.4939842 0.95599997
135.87227 7.490448 0.95520002
135.92215 7.4869099 0.95039999
135.97202 7.4833717 0.94559997
136.0219 7.4798355 0.95120001
136.07178 7.4762974 0.95679998
136.12164 7.4727612 0.95039999
136.17152 7.469223 0.95279998
136.22139 7.4656849 0.95039999
136.27127 7.4621487 0.95920002
136.32115 7.4586105 0.95999998
136.37102 7.4550743 0.95200002
136.4209 7.4515362 0.93760002
136.47076 7.447998 0.93519998
136.52065 7.4444618 0.93919998
136.57053 7.4409237 0.94080001
136.62039 7.4373875 0.94400001
136.67027 7.4338493 0.94480002
136.72014 7.4303112 0.92879999
136.77002 7.426775 0.94160002
136.81989 7.4232368 0.94160002
136.86977 7.4197006 0.93839997
136.91965 7.4161625 0.94080001
136.96951 7.4126244 0.93519998
137.01939 7.4090881 0.9368
137.06926 7.40555 0.94480002
137.11914 7.4020119 0.94480002
137.16902 7.3984756 0.9368
137.21889 7.3949375 0.94559997
137.26877 7.3914013 0.94239998
137.31863 7.3878632 0.94959998
137.36852 7.384325 0.94239998
137.4184 7.3807888 0.93760002
137.46826 7.3772507 0.94
137.51814 7.3737144 0.94480002
137.56801 7.3701763 0.94800001
137.61789 7.3666382 0.94880003
137.66776 7.363102 0.94800001
137.71764 7.3595638 0.94880003
137.76752 7.3560257 0.94639999
137.81738 7.3524895 0.94
137.86726 7.3489513 0.94160002
137.91714 7.3454151 0.95200002
137.96701 7.341877 0.95359999
138.01689 7.3383389 0.95679998
138.06676 7.3348026 0.9576
138.11664 7.3312645 0.96240002
138.1665 7.3277283 0.97280002
138.21638 7.3241901 0.98400003
138.26627 7.320652 1.0352
138.31613 7.3171158 1.184
138.36601 7.3135777 1.2431999
138.41588 7.3100414 1.3024
138.46576 7.3065033 1.3616
138.51563 7.3029652 1.4208
138.56551 7.2994289 1.4808
138.61539 7.2958908 1.5319999
138.66525 7.2923546 1.5296
138.71513 7.2888165 1.6408
138.76501 7.2852783 1.6592
138.81488 7.2817421 1.6616
138.86476 7.278204 1.6624
138.91463 7.2746658 1.6704
138.96451 7.2711296 1.6536
139.01437 7.2675915 1.612
139.06425 7.2640553 1.5888
139.11414 7.2605171 1.536
139.164 7.256979 1.4960001
139.21388 7.2534428 1.4584
139.26375 7.2499046 1.4104
139.31363 7.2463684 1.3584
139.36349 7.2428303 1.324
139.41338 7.2392921 1.2768
139.46326 7.2357559 1.2232
139.51312 7.2322178 1.1672
139.563 7.2286797 1.0976
139.61287 7.2251434 1.048
139.66275 7.2216053 0.98159999
139.71263 7.2180691 0.93760002
139.7625 7.2145309 0.8448
139.81238 7.2109947 0.79839998
139.86224 7.2074566 0.73040003
139.91212 7.2039185 0.61839998
139.96201 7.2003822 0.50480002
140.01187 7.1968441 0.41679999
140.06175 7.193306 0.3416
140.11162 7.1897697 0.23280001
140.1615 7.1862316 0.068000004
140.21136 7.1826954 -0.1224
140.26125 7.1791573 -0.27360001
132.06764 7.5597916 0.95039999
132.11752 7.5562534 0.97759998
132.16739 7.5527172 0.98320001
132.21727 7.5491791 1.1088001
132.26715 7.5456429 1.1264
132.31702 7.5421047 1.136
132.3669 7.5385666 1.1632
132.41676 7.5350304 1.1648
132.46664 7.5314922 1.164
132.51653 7.5279541 1.1799999
132.56639 7.5244179 1.1744
132.61627 7.5208797 1.1872
132.66614 7.5173435 1.1776
132.71602 7.5138054 1.1688
132.7659 7.5102673 1.1720001
132.81577 7.506731 1.1672
132.86565 7.5031929 1.1655999
132.91551 7.4996567 1.1608
132.96539 7.4961185 1.1552
133.01526 7.4925804 1.1552
133.06514 7.4890442 1.1632
133.11502 7.4855061 1.1664
133.16489 7.4819698 1.1536
133.21477 7.4784317 1.16
133.26463 7.4748936 1.1496
133.31451 7.4713573 1.1432
133.36438 7.4678192 1.14
133.41426 7.464283 1.1512001
133.46414 7.4607449 1.1408
133.51401 7.4572067 1.1608
133.56389 7.4536705 1.2096
133.61377 7.4501324 1.128
133.66364 7.4465942 1.1432
133.71352 7.443058 1.14
133.76338 7.4395199 1.1496
133.81326 7.4359837 1.1416
133.86313 7.4324455 1.1720001
133.91301 7.4289074 1.1720001
133.96289 7.4253712 1.152
134.01276 7.421833 1.1312
134.06264 7.4182968 1.1384
134.1125 7.4147587 1.1768
134.16238 7.4112206 1.156
134.21225 7.4076843 1.1616
134.26213 7.4041462 1.1464
134.31201 7.40061 1.1375999
134.36188 7.3970718 1.1368001
134.41176 7.3935337 1.1408
134.46164 7.3899975 1.1464
134.51151 7.3864594 1.1816
134.56139 7.3829231 1.1616
134.61125 7.379385 1.14
134.66113 7.3758469 1.1160001
134.711 7.3723106 1.1216
134.76088 7.3687725 1.1095999
134.81076 7.3652344 1.104
134.86063 7.3616982 1.108
134.91051 7.35816 1.104
134.96037 7.3546238 1.104
135.01025 7.3510857 1.0247999
135.06013 7.3475475 0.95279998
135.11 7.3440113 0.95200002
135.15988 7.3404732 0.95279998
135.20975 7.336937 0.95120001
135.25963 7.3333988 0.95679998
135.30951 7.3298607 0.95920002
135.35938 7.3263245 0.95359999
135.40926 7.3227863 0.95279998
135.45912 7.3192501 0.95599997
135.509 7.315712 0.95279998
135.55887 7.3121738 0.9544
135.60875 7.3086376 0.95999998
135.65863 7.3050995 0.95679998
135.7085 7.3015633 0.95120001
135.75838 7.2980251 0.95920002
135.80824 7.294487 0.94880003
135.85812 7.2909508 0.95599997
135.908 7.2874126 0.95520002
135.95787 7.2838745 0.95200002
136.00775 7.2803383 0.94880003
136.05762 7.2768002 0.95200002
136.1075 7.2732639 0.95520002
136.15738 7.2697258 0.95279998
136.20724 7.2661877 0.95679998
136.25713 7.2626514 0.95599997
136.30699 7.2591133 0.95039999
136.35687 7.2555771 0.93760002
136.40674 7.252039 0.93279999
136.45662 7.2485008 0.93279999
136.5065 7.2449646 0.9368
136.55637 7.2414265 0.94239998
136.60625 7.2378902 0.9368
136.65613 7.2343521 0.9368
136.70599 7.230814 0.94160002
136.75587 7.2272778 0.93919998
136.80574 7.2237396 0.9368
136.85562 7.2202034 0.9368
136.90549 7.2166653 0.94080001
136.95537 7.2131271 0.93440002
137.00525 7.2095909 0.93919998
137.05511 7.2060528 0.93839997
137.105 7.2025146 0.94
137.15486 7.1989784 0.94319999
137.20474 7.1954403 0.94
137.25461 7.1919041 0.93599999
137.30449 7.1883659 0.94080001
137.35437 7.1848278 0.94
137.40424 7.1812916 0.93839997
137.45412 7.1777534 0.94239998
137.504 7.1742172 0.94080001
137.55386 7.1706791 0.94559997
137.60374 7.167141 0.94559997
137.65361 7.1636047 0.93599999
137.70349 7.1600666 0.94239998
137.75336 7.1565285 0.94480002
137.80324 7.1529922 0.94880003
137.85312 7.1494541 0.94160002
137.90298 7.1459179 0.94400001
137.95287 7.1423798 0.94080001
138.00273 7.1388416 0.94319999
138.05261 7.1353054 0.94639999
138.10248 7.1317673 0.9472
138.15236 7.128231 0.95039999
138.20224 7.1246929 0.94800001
138.25211 7.1211548 0.9472
138.30199 7.1176186 0.95840001
138.35185 7.1140804 0.9648
138.40173 7.1105442 0.97759998
138.45161 7.1070061 1.0056
138.50148 7.1034679 1.0984
138.55136 7.0999317 1.1784
138.60123 7.0963936 1.2584
138.65111 7.0928574 1.3392
138.70099 7.0893192 1.4191999
138.75085 7.0857811 1.4992
138.80074 7.0822449 1.5319999
138.8506 7.0787067 1.5312001
138.90048 7.0751686 1.6384
138.95035 7.0716324 1.6576
139.00023 7.0680943 1.6624
139.05011 7.064558 1.6648
139.09998 7.0610199 1.6696
139.14986 7.0574818 1.6368001
139.19974 7.0539455 1.5912
139.2496 7.0504074 1.5616
139.29948 7.0468712 1.5184
139.34935 7.0433331 1.4776
139.39923 7.0397949 1.4216
139.4491 7.0362587 1.3872
139.49898 7.0327206 1.3464
139.54886 7.0291824 1.2912
139.59872 7.0256462 1.2528
139.64861 7.0221081 1.1848
139.69847 7.0185719 1.1312
139.74835 7.0150337 1.0576
139.79822 7.0114975 1.0104001
139.8481 7.0079594 0.96319997
139.89798 7.0044212 0.87519997
139.94785 7.000885 0.7992
139.99773 6.9973469 0.70719999
140.04761 6.9938087 0.62239999
140.09747 6.9902725 0.52160001
140.14735 6.9867344 0.42399999
140.19722 6.9831982 0.324
140.2471 6.97966 0.2352
140.29697 6.9761219 0.083999999
140.34685 6.9725857 -0.1096
140.39673 6.9690475 -0.35519999
132.0535 7.3602924 0.96560001
132.10336 7.3567543 0.98159999
132.15324 7.3532181 0.98320001
132.20313 7.3496799 1.0664001
132.25299 7.3461437 1.1208
132.30287 7.3426056 1.124
132.35274 7.3390675 1.1440001
132.40262 7.3355312 1.16
132.4525 7.3319931 1.1632
132.50237 7.3284569 1.1544
132.55225 7.3249187 1.1592
132.60211 7.3213806 1.1664
132.65199 7.3178444 1.1768
132.70187 7.3143063 1.1768
132.75174 7.3107681 1.1648
132.80162 7.3072319 1.1688
132.85149 7.3036938 1.168
132.90137 7.3001575 1.184
132.95123 7.2966194 1.1768
133.00111 7.2930813 1.1736
133.05099 7.2895451 1.1752
133.10086 7.2860069 1.1544
133.15074 7.2824707 1.164
133.20061 7.2789326 1.1608
133.25049 7.2753944 1.1536
133.30037 7.2718582 1.1832
133.35023 7.2683201 1.1808
133.40012 7.2647839 1.1552
133.44998 7.2612457 1.1592
133.49986 7.2577076 1.1472
133.54974 7.2541714 1.1608
133.59961 7.2506332 1.1544
133.64949 7.247097 1.1440001
133.69936 7.2435589 1.1496
133.74924 7.2400208 1.1447999
133.7991 7.2364845 1.1568
133.84898 7.2329464 1.1576
133.89886 7.2294083 1.1488
133.94873 7.225872 1.1312
133.99861 7.2223339 1.1248
134.04849 7.2187977 1.1368001
134.09836 7.2152596 1.1384
134.14824 7.2117214 1.1504
134.1981 7.2081852 1.1544
134.24799 7.2046471 1.1456
134.29785 7.2011108 1.1303999
134.34773 7.1975727 1.1288
134.39761 7.1940346 1.1408
134.44748 7.1904984 1.1392
134.49736 7.1869602 1.2136
134.54723 7.1834221 1.1720001
134.59711 7.1798859 1.1504
134.64697 7.1763477 1.136
134.69685 7.1728115 1.14
134.74673 7.1692734 1.1424
134.7966 7.1657352 1.1303999
134.84648 7.162199 1.1208
134.89636 7.1586609 1.1152
134.94623 7.1551247 1.0872
134.99611 7.1515865 1.064
135.04597 7.1480484 0.96960002
135.09586 7.1445122 0.96799999
135.14572 7.140974 0.96079999
135.1956 7.1374378 0.95279998
135.24548 7.1338997 0.95679998
135.29535 7.1303616 0.95039999
135.34523 7.1268253 0.95279998
135.3951 7.1232872 0.95679998
135.44498 7.119751 0.95920002
135.49486 7.1162128 0.95039999
135.54472 7.1126747 0.95120001
135.5946 7.1091385 0.94880003
135.64447 7.1056004 0.94800001
135.69435 7.1020622 0.95679998
135.74423 7.098526 0.95120001
135.7941 7.0949879 0.95520002
135.84398 7.0914516 0.95200002
135.89384 7.0879135 0.94959998
135.94373 7.0843754 0.95679998
135.99359 7.0808392 0.95120001
136.04347 7.077301 0.95679998
136.09335 7.0737648 0.95279998
136.14322 7.0702267 0.95279998
136.1931 7.0666885 0.94639999
136.24297 7.0631523 0.93599999
136.29285 7.0596142 0.93360001
136.34271 7.056078 0.94080001
136.39259 7.0525398 0.9368
136.44247 7.0490017 0.93760002
136.49234 7.0454655 0.93839997
136.54222 7.0419273 0.93360001
136.59209 7.0383911 0.93360001
136.64197 7.034853 0.93279999
136.69185 7.0313148 0.93120003
136.74171 7.0277786 0.9368
136.7916 7.0242405 0.94160002
136.84146 7.0207024 0.93279999
136.89134 7.0171661 0.93360001
136.94122 7.013628 0.93919998
136.99109 7.0100918 0.93360001
137.04097 7.0065536 0.93760002
137.09084 7.0030155 0.94160002
137.14072 6.9994793 0.93199998
137.19058 6.9959412 0.93440002
137.24046 6.9924049 0.93839997
137.29034 6.9888668 0.93440002
137.34021 6.9853287 0.94880003
137.39009 6.9817924 0.93919998
137.43997 6.9782543 0.93440002
137.48984 6.9747162 0.94319999
137.53972 6.97118 0.93599999
137.58958 6.9676418 0.94080001
137.63947 6.9641056 0.94080001
137.68933 6.9605675 0.93839997
137.73921 6.9570293 0.93839997
137.78909 6.9534931 0.93760002
137.83896 6.949955 0.94
137.88884 6.9464188 0.93919998
137.93871 6.9428806 0.94639999
137.98859 6.9393425 0.94639999
138.03845 6.9358063 0.94319999
138.08833 6.9322681 0.94480002
138.13821 6.9287319 0.93440002
138.18808 6.9251938 0.94639999
138.23796 6.9216557 0.94959998
138.28784 6.9181194 0.94400001
138.33771 6.9145813 0.94639999
138.38759 6.9110451 0.94800001
138.43745 6.9075069 0.95039999
138.48734 6.9039688 0.95520002
138.5372 6.9004326 0.96079999
138.58708 6.8968945 0.9752
138.63696 6.8933563 0.99919999
138.68683 6.8898201 1.1144
138.73671 6.886282 1.1968
138.78658 6.8827457 1.28
138.83646 6.8792076 1.3624001
138.88634 6.8756695 1.4448
138.9362 6.8721333 1.5024
138.98608 6.8685951 1.5328
139.03595 6.8650589 1.6248
139.08583 6.8615208 1.6464
139.13571 6.8579826 1.664
139.18558 6.8544464 1.6624
139.23546 6.8509083 1.6688
139.28532 6.8473721 1.6624
139.33521 6.8438339 1.5976
139.38507 6.8402958 1.5696
139.43495 6.8367596 1.5408
139.48483 6.8332214 1.4704
139.5347 6.8296852 1.4368
139.58458 6.8261471 1.4016
139.63445 6.8226089 1.3415999
139.68433 6.8190727 1.3008
139.73421 6.8155346 1.2575999
139.78407 6.8119965 1.1848
139.83395 6.8084602 1.1272
139.88382 6.8049221 1.0816
139.9337 6.8013859 0.99599999
139.98358 6.7978477 0.94800001
140.03345 6.7943096 0.86080003
140.08333 6.7907734 0.80800003
140.13319 6.7872353 0.70880002
140.18307 6.783699 0.61680001
140.23294 6.7801609 0.53600001
140.28282 6.7766228 0.428
140.3327 6.7730865 0.32319999
140.38257 6.7695484 0.18719999
140.43245 6.7660103 0.048
140.48233 6.7624741 -0.094400004
132.03935 7.1607933 0.89840001
132.08922 7.1572552 0.9576
132.1391 7.1537189 0.96240002
132.18896 7.1501808 1.0152
132.23885 7.1466446 1.0976
132.28873 7.1431065 1.1
132.33859 7.1395683 1.1272
132.38847 7.1360321 1.132
132.43834 7.132494 1.1416
132.48822 7.1289558 1.148
132.53809 7.1254196 1.1496
132.58797 7.1218815 1.1584001
132.63785 7.1183453 1.168
132.68771 7.1148071 1.1808
132.73759 7.111269 1.1928
132.78748 7.1077328 1.2144001
132.83734 7.1041946 1.2503999
132.88722 7.1006584 1.2616
132.93709 7.0971203 1.2688
132.98697 7.0935822 1.2816
133.03683 7.0900459 1.296
133.08672 7.0865078 1.3048
133.1366 7.0829716 1.3432
133.18646 7.0794334 1.3368
133.23634 7.0758953 1.3296
133.28621 7.0723591 1.3464
133.33609 7.068821 1.3592
133.38596 7.0652847 1.3552001
133.43584 7.0617466 1.3767999
133.48572 7.0582085 1.3848
133.53558 7.0546722 1.2592
133.58546 7.0511341 1.3063999
133.63535 7.047596 1.296
133.68521 7.0440598 1.2264
133.73509 7.0405216 1.216
133.78496 7.0369854 1.2112
133.83484 7.0334473 1.204
133.8847 7.0299091 1.1968
133.93459 7.0263729 1.1848
133.98447 7.0228348 1.188
134.03433 7.0192986 1.1528
134.08421 7.0157604 1.1447999
134.13408 7.0122223 1.1368001
134.18396 7.0086861 1.5856
134.23384 7.0051479 1.1256
134.28371 7.0016117 1.1352
134.33359 6.9980736 1.124
134.38345 6.9945354 1.1168
134.43333 6.9909992 1.132
134.48322 6.9874611 1.136
134.53308 6.9839249 1.1296
134.58296 6.9803867 1.1208
134.63283 6.9768486 1.1272
134.68271 6.9733124 1.132
134.73257 6.9697742 1.14
134.78246 6.9662361 1.128
134.83234 6.9626999 1.1264
134.8822 6.9591618 1.12
134.93208 6.9556255 1.104
134.98195 6.9520874 1.028
135.03183 6.9485493 0.99119997
135.0817 6.945013 0.95679998
135.13158 6.9414749 0.95999998
135.18146 6.9379387 0.96240002
135.23132 6.9344006 0.95840001
135.2812 6.9308624 0.95279998
135.33109 6.9273262 0.95599997
135.38095 6.9237881 0.96079999
135.43083 6.9202518 0.95200002
135.4807 6.9167137 0.95039999
135.53058 6.9131756 0.95359999
135.58044 6.9096394 0.95920002
135.63033 6.9061012 0.95279998
135.68021 6.902565 0.95520002
135.73007 6.8990269 0.95200002
135.77995 6.8954887 0.95679998
135.82982 6.8919525 0.95359999
135.8797 6.8884144 0.94800001
135.92957 6.8848763 0.95359999
135.97945 6.88134 0.95999998
136.02933 6.8778019 0.93360001
136.07919 6.8742657 0.94
136.12907 6.8707275 0.94
136.17896 6.8671894 0.9368
136.22882 6.8636532 0.93919998
136.2787 6.8601151 0.93839997
136.32857 6.8565788 0.94080001
136.37845 6.8530407 0.93760002
136.42831 6.8495026 0.93839997
136.4782 6.8459663 0.93199998
136.52808 6.8424282 0.9368
136.57794 6.838892 0.94160002
136.62782 6.8353539 0.94080001
136.67769 6.8318157 0.93839997
136.72757 6.8282795 0.93599999
136.77745 6.8247414 0.93760002
136.82732 6.8212051 0.9368
136.8772 6.817667 0.93199998
136.92706 6.8141289 0.93519998
136.97694 6.8105927 0.9368
137.02682 6.8070545 0.93599999
137.07669 6.8035164 0.93599999
137.12657 6.7999802 0.93279999
137.17644 6.796442 0.93760002
137.22632 6.7929058 0.94239998
137.27618 6.7893677 0.94080001
137.32607 6.7858295 0.94400001
137.37595 6.7822933 0.93839997
137.42581 6.7787552 0.94239998
137.47569 6.775219 0.94160002
137.52556 6.7716808 0.93839997
137.57544 6.7681427 0.93360001
137.62532 6.7646065 0.93519998
137.67519 6.7610683 0.94800001
137.72507 6.7575302 0.94239998
137.77493 6.753994 0.93120003
137.82481 6.7504559 0.94160002
137.87469 6.7469196 0.93599999
137.92456 6.7433815 0.94160002
137.97444 6.7398434 0.94
138.02431 6.7363071 0.9472
138.07419 6.732769 0.94239998
138.12405 6.7292328 0.94800001
138.17393 6.7256947 0.93839997
138.22382 6.7221565 0.94400001
138.27368 6.7186203 0.94080001
138.32356 6.7150822 0.94639999
138.37344 6.7115459 0.9472
138.42331 6.7080078 0.95039999
138.47319 6.7044697 0.95039999
138.52306 6.7009335 0.95039999
138.57294 6.6973953 0.95120001
138.6228 6.6938591 0.95120001
138.67268 6.690321 0.95520002
138.72256 6.6867828 0.96160001
138.77243 6.6832466 0.9752
138.82231 6.6797085 1.0096
138.87218 6.6761703 1.0872
138.92206 6.6726341 1.1904
138.97192 6.669096 1.2936
139.0218 6.6655598 1.3968
139.07169 6.6620216 1.5008
139.12155 6.6584835 1.5368
139.17143 6.6549473 1.5632
139.22131 6.6514091 1.6504
139.27118 6.6478729 1.6648
139.32106 6.6443348 1.6608
139.37093 6.6407967 1.6664
139.42081 6.6372604 1.6632
139.47067 6.6337223 1.604
139.52055 6.6301842 1.5736001
139.57043 6.6266479 1.5312001
139.6203 6.6231098 1.4895999
139.67018 6.6195736 1.4512
139.72005 6.6160355 1.3944
139.76993 6.6124992 1.3648
139.81979 6.6089611 1.2848001
139.86967 6.605423 1.2464
139.91956 6.6018867 1.1752
139.96942 6.5983486 1.1272
140.0193 6.5948105 1.0608
140.06917 6.5912743 0.99599999
140.11905 6.5877361 0.93120003
140.16893 6.5841999 0.85439998
140.2188 6.5806618 0.7536
140.26868 6.5771236 0.67439997
140.31854 6.5735874 0.60720003
140.36842 6.5700493 0.50239998
140.4183 6.5665131 0.3872
140.46817 6.5629749 0.2728
140.51805 6.5594368 0.12720001
140.56792 6.5559006 -0.034400001
140.6178 6.5523624 -0.1568
132.02519 6.9612942 0.90960002
132.07507 6.957756 0.95279998
132.12494 6.9542198 0.96079999
132.17482 6.9506817 0.96160001
132.2247 6.9471455 0.97439998
132.27457 6.9436073 1.0632
132.32445 6.9400692 1.0951999
132.37431 6.936533 1.1048
132.42419 6.9329948 1.1095999
132.47408 6.9294586 1.1288
132.52394 6.9259205 1.1375999
132.57382 6.9223824 1.1352
132.62369 6.9188461 1.1288
132.67357 6.915308 1.1208
132.72345 6.9117699 1.128
132.77332 6.9082336 1.1552
132.8232 6.9046955 1.1896
132.87306 6.9011593 1.2352
132.92294 6.8976212 1.2536
132.97281 6.894083 1.2776
133.02269 6.8905468 1.3088
133.07257 6.8870087 1.3344001
133.12244 6.8834724 1.3568
133.17232 6.8799343 1.3688
133.22218 6.8763962 1.3839999
133.27206 6.87286 1.396
133.32193 6.8693218 1.3936
133.37181 6.8657856 1.404
133.42169 6.8622475 1.4056
133.47156 6.8587093 1.3992
133.52144 6.8551731 1.3968
133.57132 6.851635 1.4216
133.62119 6.8480988 1.3839999
133.67107 6.8445606 1.3664
133.72093 6.8410225 1.3544
133.77081 6.8374863 1.2927999
133.82068 6.8339481 1.2768
133.87056 6.83041 1.232
133.92044 6.8268738 1.1712
133.97031 6.8233356 1.1704
134.02019 6.8197994 1.1584001
134.07005 6.8162613 1.1568
134.11993 6.8127232 1.1568
134.1698 6.8091869 1.1272
134.21968 6.8056488 1.1224
134.26956 6.8021126 1.1208
134.31943 6.7985744 1.1176
134.36931 6.7950363 1.1064
134.41919 6.7915001 1.1224
134.46906 6.787962 1.1168
134.51894 6.7844238 1.1112
134.5688 6.7808876 1.1160001
134.61868 6.7773495 1.1095999
134.66855 6.7738132 1.12
134.71843 6.7702751 1.128
134.76831 6.766737 1.1264
134.81818 6.7632008 1.1288
134.86806 6.7596626 1.1216
134.91792 6.7561264 1.1032
134.9678 6.7525883 1.0712
135.01768 6.7490501 0.95599997
135.06755 6.7455139 0.96560001
135.11743 6.7419758 0.9576
135.1673 6.7384396 0.95599997
135.21718 6.7349014 0.95520002
135.26706 6.7313633 0.95999998
135.31693 6.7278271 0.9576
135.36681 6.7242889 0.96719998
135.41667 6.7207527 0.95840001
135.46655 6.7172146 0.95999998
135.51642 6.7136765 0.95999998
135.5663 6.7101402 0.95999998
135.61618 6.7066021 0.95039999
135.66605 6.703064 0.94480002
135.71593 6.6995277 0.94239998
135.76579 6.6959896 0.94080001
135.81567 6.6924534 0.93839997
135.86555 6.6889153 0.94239998
135.91542 6.6853771 0.94
135.9653 6.6818409 0.93599999
136.01517 6.6783028 0.9368
136.06505 6.6747665 0.93919998
136.11493 6.6712284 0.93919998
136.16479 6.6676903 0.93839997
136.21468 6.6641541 0.94239998
136.26454 6.6606159 0.93839997
136.31442 6.6570797 0.94
136.36429 6.6535416 0.93919998
136.41417 6.6500034 0.92720002
136.46405 6.6464672 0.9368
136.51392 6.6429291 0.94
136.5638 6.6393929 0.94239998
136.61368 6.6358547 0.9296
136.66354 6.6323166 0.93360001
136.71342 6.6287804 0.93599999
136.76329 6.6252422 0.93440002
136.81317 6.6217041 0.93599999
136.86304 6.6181679 0.93519998
136.91292 6.6146297 0.93599999
136.9628 6.6110935 0.93519998
137.01266 6.6075554 0.93919998
137.06255 6.6040173 0.93599999
137.11241 6.600481 0.94
137.16229 6.5969429 0.93839997
137.21216 6.5934067 0.9368
137.26204 6.5898685 0.94
137.31192 6.5863304 0.93919998
137.36179 6.5827942 0.93760002
137.41167 6.5792561 0.9368
137.46155 6.5757179 0.94480002
137.51141 6.5721817 0.93519998
137.56129 6.5686436 0.94080001
137.61116 6.5651073 0.94160002
137.66104 6.5615692 0.93760002
137.71091 6.5580311 0.9368
137.76079 6.5544949 0.93440002
137.81067 6.5509567 0.9296
137.86053 6.5474205 0.93599999
137.91042 6.5438824 0.93440002
137.96028 6.5403442 0.93279999
138.01016 6.536808 0.93519998
138.06003 6.5332699 0.94080001
138.10991 6.5297337 0.93839997
138.15979 6.5261955 0.93919998
138.20966 6.5226574 0.93839997
138.25954 6.5191212 0.94080001
138.3094 6.515583 0.94080001
138.35928 6.5120468 0.94080001
138.40916 6.5085087 0.94880003
138.45903 6.5049706 0.95039999
138.50891 6.5014343 0.94400001
138.55878 6.4978962 0.94639999
138.60866 6.4943581 0.94959998
138.65854 6.4908218 0.94959998
138.7084 6.4872837 0.94959998
138.75829 6.4837475 0.95359999
138.80815 6.4802094 0.95920002
138.85803 6.4766712 0.95279998
138.9079 6.473135 0.96399999
138.95778 6.4695969 0.98720002
139.00766 6.4660606 1.1408
139.05753 6.4625225 1.2184
139.10741 6.4589844 1.3072
139.15729 6.4554482 1.3968
139.20715 6.45191 1.4856
139.25703 6.4483738 1.5136
139.3069 6.4448357 1.564
139.35678 6.4412975 1.6392
139.40665 6.4377613 1.66
139.45653 6.4342232 1.6648
139.50641 6.430687 1.6632
139.55627 6.4271488 1.6528
139.60616 6.4236107 1.5968
139.65602 6.4200745 1.5688
139.7059 6.4165363 1.5216
139.75577 6.4129982 1.4823999
139.80565 6.409462 1.436
139.85553 6.4059238 1.3872
139.9054 6.4023876 1.336
139.95528 6.3988495 1.2888
140.00516 6.3953114 1.2192
140.05502 6.3917751 1.1824
140.1049 6.388237 1.096
140.15477 6.3847008 1.0408
140.20465 6.3811626 0.95279998
140.25452 6.3776245 0.88639998
140.3044 6.3740883 0.82160002
140.35428 6.3705502 0.75199997
140.40414 6.367012 0.6512
140.45403 6.3634758 0.59359998
140.50389 6.3599377 0.45120001
140.55377 6.3564014 0.3048
140.60365 6.3528633 0.21439999
140.65352 6.3493271 0.048799999
140.7034 6.345789 -0.087200001
132.01105 6.761795 0.92079997
132.06091 6.7582569 0.95920002
132.11079 6.7547207 0.96079999
132.16068 6.7511826 0.96319997
132.21054 6.7476463 0.96880001
132.26042 6.7441082 0.96560001
132.3103 6.7405701 0.96880001
132.36017 6.7370338 1
132.41005 6.7334957 1.0624
132.45992 6.7299576 1.0648
132.5098 6.7264214 1.1216
132.55966 6.7228832 1.1248
132.60954 6.719347 1.1447999
132.65942 6.7158089 1.1440001
132.70929 6.7122707 1.156
132.75917 6.7087345 1.156
132.80904 6.7051964 1.1368001
132.85892 6.7016602 1.128
132.9088 6.698122 1.1296
132.95866 6.6945839 1.1392
133.00854 6.6910477 1.1488
133.05841 6.6875095 1.1655999
133.10829 6.6839733 1.1848
133.15817 6.6804352 1.1968
133.20804 6.676897 1.2336
133.25792 6.6733608 1.2568001
133.30779 6.6698227 1.2768
133.35767 6.6662865 1.296
133.40753 6.6627483 1.3048
133.45741 6.6592102 1.3072
133.50729 6.655674 1.2312
133.55716 6.6521358 1.2079999
133.60704 6.6485977 1.2208
133.65691 6.6450615 1.2312
133.70679 6.6415234 1.2568001
133.75667 6.6379871 1.2952
133.80653 6.634449 1.3063999
133.85641 6.6309109 1.3368
133.90628 6.6273746 1.3216
133.95616 6.6238365 1.256
134.00604 6.6203003 1.2151999
134.05591 6.6167622 1.1928
134.10579 6.613224 1.1648
134.15565 6.6096878 1.1392
134.20554 6.6061497 1.128
134.2554 6.6026134 1.1152
134.30528 6.5990753 1.1144
134.35516 6.5955372 1.1168
134.40503 6.592001 1.1208
134.45491 6.5884628 1.1256
134.50479 6.5849266 1.1152
134.55466 6.5813885 1.112
134.60454 6.5778503 1.1048
134.6544 6.5743141 1.1056
134.70428 6.570776 1.1088001
134.75415 6.5672379 1.1056
134.80403 6.5637016 1.1023999
134.85391 6.5601635 1.0968
134.90378 6.5566273 1.1095999
134.95366 6.5530891 1.0592
135.00352 6.549551 0.94080001
135.05341 6.5460148 0.94400001
135.10327 6.5424767 0.94880003
135.15315 6.5389404 0.94639999
135.20303 6.5354023 0.9472
135.2529 6.5318642 0.9472
135.30278 6.5283279 0.94400001
135.35266 6.5247898 0.94160002
135.40253 6.5212536 0.94080001
135.45241 6.5177155 0.9472
135.50227 6.5141773 0.94559997
135.55215 6.5106411 0.94639999
135.60202 6.507103 0.94480002
135.6519 6.5035667 0.94800001
135.70178 6.5000286 0.94319999
135.75165 6.4964905 0.94880003
135.80153 6.4929543 0.94480002
135.85139 6.4894161 0.94639999
135.90128 6.485878 0.94239998
135.95116 6.4823418 0.94480002
136.00102 6.4788036 0.94559997
136.0509 6.4752674 0.94239998
136.10077 6.4717293 0.93440002
136.15065 6.4681911 0.93440002
136.20053 6.4646549 0.93599999
136.2504 6.4611168 0.94080001
136.30028 6.4575806 0.9368
136.35014 6.4540424 0.94
136.40002 6.4505043 0.94639999
136.44989 6.4469681 0.93839997
136.49977 6.4434299 0.94
136.54965 6.4398937 0.93760002
136.59952 6.4363556 0.94
136.6494 6.4328175 0.94080001
136.69926 6.4292812 0.94400001
136.74915 6.4257431 0.94239998
136.79901 6.4222069 0.94239998
136.84889 6.4186687 0.93839997
136.89877 6.4151306 0.93360001
136.94864 6.4115944 0.93519998
136.99852 6.4080563 0.93839997
137.0484 6.4045181 0.93919998
137.09827 6.4009819 0.9368
137.14815 6.3974438 0.94080001
137.19801 6.3939075 0.93919998
137.24789 6.3903694 0.9368
137.29776 6.3868313 0.93279999
137.34764 6.3832951 0.93839997
137.39752 6.3797569 0.93760002
137.44739 6.3762207 0.93839997
137.49727 6.3726826 0.93120003
137.54713 6.3691444 0.93839997
137.59702 6.3656082 0.93839997
137.64688 6.3620701 0.94080001
137.69676 6.358532 0.94319999
137.74664 6.3549957 0.93919998
137.79651 6.3514576 0.93519998
137.84639 6.3479214 0.93919998
137.89627 6.3443832 0.93040001
137.94614 6.3408451 0.94400001
137.99602 6.3373089 0.94080001
138.04588 6.3337708 0.94080001
138.09576 6.3302345 0.94
138.14563 6.3266964 0.94080001
138.19551 6.3231583 0.93360001
138.24539 6.319622 0.93839997
138.29526 6.3160839 0.94559997
138.34514 6.3125477 0.94239998
138.395 6.3090096 0.94959998
138.44489 6.3054714 0.94880003
138.49477 6.3019352 0.95200002
138.54463 6.2983971 0.9544
138.59451 6.2948608 0.94800001
138.64438 6.2913227 0.94959998
138.69426 6.2877846 0.95200002
138.74414 6.2842484 0.9472
138.79401 6.2807102 0.94639999
138.84389 6.2771721 0.95120001
138.89375 6.2736359 0.94559997
138.94363 6.2700977 0.9544
138.9935 6.2665615 0.95359999
139.04338 6.2630234 0.95999998
139.09326 6.2594852 0.97759998
139.14313 6.255949 1.036
139.19301 6.2524109 1.204
139.24287 6.2488747 1.2936
139.29276 6.2453365 1.3832
139.34264 6.2417984 1.472
139.3925 6.2382622 1.5352
139.44238 6.234724 1.6144
139.49225 6.2311859 1.6528
139.54213 6.2276497 1.66
139.59201 6.2241116 1.6576
139.64188 6.2205753 1.6632
139.69176 6.2170372 1.668
139.74162 6.213501 1.5951999
139.7915 6.2099628 1.5512
139.84137 6.2064247 1.5048
139.89125 6.2028885 1.4632
139.94113 6.1993504 1.4152
139.991 6.1958122 1.3568
140.04088 6.192276 1.3
140.09076 6.1887379 1.2608
140.14063 6.1852016 1.1904
140.19051 6.1816635 1.1368001
140.24037 6.1781254 1.0896
140.29025 6.1745892 0.98799998
140.34012 6.171051 0.93440002
140.39 6.1675148 0.8768
140.43988 6.1639767 0.7784
140.48975 6.1604385 0.69440001
140.53963 6.1569023 0.60479999
140.58949 6.1533642 0.46720001
140.63937 6.149826 0.3944
140.68924 6.1462898 0.2272
140.73912 6.1427517 0.1024
140.789 6.1392155 -0.052000001
140.83887 6.1356773 -0.2728
131.9969 6.5622978 0.93199998
132.04677 6.5587597 0.96240002
132.09665 6.5552235 0.96399999
132.14651 6.5516853 0.96319997
132.1964 6.5481491 0.96319997
132.24628 6.544611 0.96560001
132.29614 6.5410728 0.9648
132.34602 6.5375366 0.96399999
132.3959 6.5339985 0.9648
132.44577 6.5304604 0.97359997
132.49564 6.5269241 0.96560001
132.54552 6.523386 0.98000002
132.5954 6.5198498 1.0216
132.64526 6.5163116 1.0832
132.69514 6.5127735 1.1112
132.74503 6.5092373 1.132
132.79489 6.5056992 1.1384
132.84477 6.5021629 1.1447999
132.89464 6.4986248 1.148
132.94452 6.4950867 1.152
132.99438 6.4915504 1.1447999
133.04427 6.4880123 1.1296
133.09415 6.4844761 1.112
133.14401 6.480938 1.1184
133.19389 6.4773998 1.1208
133.24377 6.4738636 1.2472
133.29364 6.4703255 1.24
133.34351 6.4667892 1.028
133.39339 6.4632511 0.99760002
133.44327 6.459713 0.98879999
133.49313 6.4561768 1.0168
133.54301 6.4526386 1.104
133.5929 6.4491005 1.1272
133.64276 6.4455643 1.1375999
133.69264 6.4420261 1.1928
133.74251 6.4384899 1.2256
133.79239 6.4349518 1.2888
133.84225 6.4314137 1.3408
133.89214 6.4278774 1.3512
133.94202 6.4243393 1.3424
133.99188 6.4208031 1.2352
134.04176 6.4172649 1.1752
134.09164 6.4137268 1.1375999
134.14151 6.4101906 1.1224
134.19139 6.4066525 1.1336
134.24126 6.4031162 1.1168
134.29114 6.3995781 1.112
134.341 6.39604 1.1208
134.39088 6.3925037 1.1248
134.44077 6.3889656 1.1328
134.49063 6.3854294 1.1312
134.54051 6.3818913 1.1160001
134.59038 6.3783531 1.1224
134.64026 6.3748169 1.1104
134.69012 6.3712788 1.1136
134.74001 6.3677406 1.1112
134.78989 6.3642044 1.1008
134.83975 6.3606663 1.0984
134.88963 6.3571301 1.084
134.93951 6.3535919 0.98159999
134.98938 6.3500538 0.94
135.03925 6.3465176 0.94080001
135.08913 6.3429794 0.94400001
135.13901 6.3394432 0.94880003
135.18887 6.3359051 0.94639999
135.23875 6.3323669 0.94639999
135.28864 6.3288307 0.94400001
135.3385 6.3252926 0.94800001
135.38838 6.3217564 0.94080001
135.43826 6.3182182 0.93519998
135.48813 6.3146801 0.94319999
135.53799 6.3111439 0.93360001
135.58788 6.3076057 0.93839997
135.63776 6.3040695 0.94480002
135.68762 6.3005314 0.94639999
135.7375 6.2969933 0.94400001
135.78738 6.293457 0.94400001
135.83725 6.2899189 0.94480002
135.88712 6.2863808 0.94239998
135.937 6.2828445 0.94639999
135.98688 6.2793064 0.93839997
136.03674 6.2757702 0.94080001
136.08662 6.2722321 0.93360001
136.13651 6.2686939 0.93839997
136.18637 6.2651577 0.94
136.23625 6.2616196 0.9368
136.28612 6.2580833 0.94
136.336 6.2545452 0.93919998
136.38586 6.2510071 0.93839997
136.43575 6.2474709 0.93919998
136.48563 6.2439327 0.94
136.53549 6.2403965 0.94
136.58537 6.2368584 0.9472
136.63525 6.2333202 0.93760002
136.68512 6.229784 0.94080001
136.735 6.2262459 0.9368
136.78487 6.2227097 0.94
136.83475 6.2191715 0.93360001
136.88461 6.2156334 0.93599999
136.93449 6.2120972 0.93760002
136.98438 6.208559 0.93040001
137.03424 6.2050209 0.93760002
137.08412 6.2014847 0.93120003
137.13399 6.1979465 0.94
137.18387 6.1944103 0.92879999
137.23373 6.1908722 0.93120003
137.28362 6.1873341 0.93440002
137.3335 6.1837978 0.93199998
137.38336 6.1802597 0.94
137.43324 6.1767235 0.94160002
137.48312 6.1731853 0.93199998
137.53299 6.1696472 0.93360001
137.58287 6.166111 0.93360001
137.63274 6.1625729 0.93279999
137.68262 6.1590347 0.94
137.73248 6.1554985 0.93279999
137.78236 6.1519604 0.93199998
137.83224 6.1484241 0.93360001
137.88211 6.144886 0.94239998
137.93199 6.1413479 0.9368
137.98186 6.1378117 0.93279999
138.03174 6.1342735 0.93040001
138.0816 6.1307373 0.9368
138.13148 6.1271992 0.94239998
138.18137 6.123661 0.93919998
138.23123 6.1201248 0.94480002
138.28111 6.1165867 0.94480002
138.33099 6.1130505 0.94319999
138.38086 6.1095123 0.94559997
138.43074 6.1059742 0.95039999
138.48061 6.102438 0.94959998
138.53049 6.0988998 0.9472
138.58035 6.0953636 0.95279998
138.63023 6.0918255 0.95120001
138.68011 6.0882874 0.95200002
138.72998 6.0847511 0.94639999
138.77986 6.081213 0.94480002
138.82974 6.0776749 0.94880003
138.87961 6.0741386 0.94880003
138.92947 6.0706005 0.94559997
138.97935 6.0670643 0.95279998
139.02924 6.0635262 0.94559997
139.0791 6.059988 0.95120001
139.12898 6.0564518 0.94880003
139.17886 6.0529137 0.95840001
139.22873 6.0493774 0.97280002
139.27861 6.0458393 0.99919999
139.32848 6.0423012 1.1912
139.37836 6.038765 1.3008
139.42822 6.0352268 1.4096
139.4781 6.0316887 1.4960001
139.52798 6.0281525 1.5376
139.57785 6.0246143 1.6232001
139.62773 6.0210781 1.6536
139.67761 6.01754 1.6624
139.72748 6.0140038 1.6664
139.77734 6.0104656 1.664
139.82722 6.0069275 1.608
139.87711 6.0033913 1.5832
139.92697 5.9998531 1.5296
139.97685 5.996315 1.4904
140.02673 5.9927788 1.4256001
140.0766 5.9892406 1.3896
140.12648 5.9857044 1.3288
140.17635 5.9821663 1.2816
140.22623 5.9786282 1.2079999
140.27609 5.9750919 1.1616
140.32597 5.9715538 1.0984
140.37585 5.9680176 1.0264
140.42572 5.9644794 0.94319999
140.4756 5.9609413 0.88639998
140.52547 5.9574051 0.79280001
140.57535 5.953867 0.74400002
140.62521 5.9503288 0.64160001
140.67509 5.9467926 0.5352
140.72498 5.9432545 0.39039999
140.77484 5.9397182 0.2744
140.82472 5.9361801 0.18880001
140.8746 5.9326439 0.012
140.92447 5.9291058 -0.1608
132.03262 6.3592587 0.95120001
132.0825 6.3557224 0.9648
132.13237 6.3521843 0.96560001
132.18225 6.3486481 0.96240002
132.23212 6.3451099 0.9648
132.282 6.3415718 0.96719998
132.33188 6.3380356 0.96719998
132.38174 6.3344975 0.96399999
132.43163 6.3309593 0.96399999
132.48149 6.3274231 0.96240002
132.53137 6.323885 0.96560001
132.58124 6.3203487 0.96719998
132.63112 6.3168106 0.97759998
132.681 6.3132725 0.97280002
132.73087 6.3097363 0.972
132.78075 6.3061981 0.98720002
132.83061 6.3026619 0.98799998
132.88049 6.2991238 1.016
132.93037 6.2955856 1.0648
132.98024 6.2920494 1.048
133.03012 6.2885113 1.0112
133.07999 6.2849751 0.98479998
133.12987 6.2814369 0.97680002
133.17975 6.2778988 0.97680002
133.22961 6.2743626 0.98079997
133.2795 6.2708244 0.96240002
133.32936 6.2672882 0.96560001
133.37924 6.2637501 0.96880001
133.42911 6.2602119 0.95359999
133.47899 6.2566757 0.94639999
133.52887 6.2531376 0.9472
133.57874 6.2495995 0.94639999
133.62862 6.2460632 0.94880003
133.6785 6.2425251 0.95039999
133.72836 6.2389889 0.97759998
133.77823 6.2354507 1.0584
133.82811 6.2319126 1.1664
133.87799 6.2283764 1.2624
133.92786 6.2248383 1.2528
133.97774 6.221302 1.2512
134.02762 6.2177639 1.2176
134.07748 6.2142258 1.1928
134.12737 6.2106895 1.1544
134.17723 6.2071514 1.1408
134.22711 6.2036152 1.1328
134.27698 6.2000771 1.1184
134.32686 6.1965389 1.1176
134.37674 6.1930027 1.1136
134.42661 6.1894646 1.1144
134.47649 6.1859283 1.1128
134.52635 6.1823902 1.1104
134.57623 6.1788521 1.0951999
134.62611 6.1753159 1.0976
134.67598 6.1717777 1.1048
134.72586 6.1682396 1.0968
134.77573 6.1647034 1.1112
134.82561 6.1611652 1.1095999
134.87549 6.157629 1.0904
134.92535 6.1540909 0.9752
134.97523 6.1505527 0.94239998
135.0251 6.1470165 0.94959998
135.07498 6.1434784 0.94239998
135.12485 6.1399422 0.95200002
135.17473 6.136404 0.94639999
135.22461 6.1328659 0.94639999
135.27448 6.1293297 0.94319999
135.32436 6.1257915 0.95120001
135.37422 6.1222553 0.94800001
135.4241 6.1187172 0.94880003
135.47398 6.1151791 0.94160002
135.52385 6.1116428 0.94639999
135.57373 6.1081047 0.9472
135.6236 6.1045685 0.94239998
135.67348 6.1010303 0.94639999
135.72336 6.0974922 0.94160002
135.77322 6.093956 0.94400001
135.8231 6.0904179 0.9472
135.87297 6.0868797 0.93839997
135.92285 6.0833435 0.93440002
135.97272 6.0798054 0.94080001
136.0226 6.0762691 0.94
136.07248 6.072731 0.93760002
136.12234 6.0691929 0.94
136.17223 6.0656567 0.93839997
136.22211 6.0621185 0.93839997
136.27197 6.0585823 0.9368
136.32185 6.0550442 0.93919998
136.37172 6.051506 0.93599999
136.4216 6.0479698 0.93519998
136.47147 6.0444317 0.93040001
136.52135 6.0408955 0.93919998
136.57123 6.0373573 0.93760002
136.62109 6.0338192 0.93360001
136.67097 6.030283 0.93199998
136.72084 6.0267448 0.9368
136.77072 6.0232086 0.9368
136.82059 6.0196705 0.9368
136.87047 6.0161324 0.93279999
136.92035 6.0125961 0.93199998
136.97021 6.009058 0.93360001
137.0201 6.0055199 0.93199998
137.06998 6.0019836 0.93279999
137.11984 5.9984455 0.93440002
137.16972 5.9949093 0.93519998
137.21959 5.9913712 0.93919998
137.26947 5.987833 0.92559999
137.31934 5.9842968 0.93120003
137.36922 5.9807587 0.93440002
137.4191 5.9772224 0.93599999
137.46896 5.9736843 0.92799997
137.51884 5.9701462 0.92479998
137.56871 5.96661 0.93519998
