# .PCD v0.7 - Point Cloud Data file format
VERSION 0.7
FIELDS x y z
SIZE 4 4 4
TYPE F F F
COUNT 1 1 1
WIDTH 550
HEIGHT 1
VIEWPOINT 0 0 0 1 0 0 0
POINTS 550
DATA ascii
0.23534034 0.11055975 -0.096517727
0.10693664 0.045123078 -0.08479549
0.11440134 0.043113604 -0.08586739
0.12618461 0.042139962 -0.085660703
0.13459335 0.043848611 -0.084845424
0.10521408 0.0553171 -0.085553616
0.11404838 0.054031182 -0.08747451
0.12611434 0.054172587 -0.087259859
0.13451074 0.054211292 -0.085460871
0.20300382 0.053698946 -0.084914222
0.21094051 0.053651527 -0.089170545
0.22067012 0.052773505 -0.089106098
0.10356413 0.065899603 -0.085827403
0.114006 0.065866493 -0.087482266
0.12627955 0.066058099 -0.087135077
0.13363096 0.065198332 -0.084826224
0.10392871 0.075600207 -0.085179664
0.11413911 0.077832416 -0.086253487
0.1260788 0.077890575 -0.086973019
0.13458107 0.078438923 -0.085461557
0.11638941 0.086042322 -0.08483059
0.12649578 0.08794304 -0.08520183
0.13429056 0.08651448 -0.084766097
0.22793509 0.10781704 -0.084807381
0.23533429 0.10735273 -0.087661035
0.22522737 0.11382399 -0.088016041
0.23329493 0.11240376 -0.091255374
0.24297781 0.11089578 -0.089604847
0.082724705 0.023403272 -0.072356701
0.086044267 0.023248358 -0.072698675
0.11890969 0.023821831 -0.0723124
0.12558857 0.023672909 -0.072530955
0.071833104 0.034698822 -0.072064519
0.078978673 0.030584579 -0.075099938
0.088169493 0.030051835 -0.074787728
0.10331384 0.0329393 -0.075101338
0.11412591 0.030072121 -0.077639811
0.12603869 0.029676724 -0.078794919
0.13783789 0.030231249 -0.077324301
0.14813392 0.033092842 -0.074732244
0.071563236 0.04168538 -0.072687969
0.078225069 0.042041436 -0.076422922
0.090009972 0.042250529 -0.075152032
0.10159289 0.041262224 -0.079695113
0.11263585 0.037429113 -0.083062351
0.12527312 0.036513016 -0.083632998
0.13984613 0.041004319 -0.082634225
0.15036629 0.041896664 -0.078240827
0.15786701 0.044008415 -0.073738374
0.07924442 0.051605098 -0.07377284
0.089611292 0.053802446 -0.07777945
0.099974528 0.052746609 -0.082674339
0.14054655 0.054398604 -0.083079383
0.15016982 0.054027025 -0.080594219
0.15853676 0.053923301 -0.074588887
0.20255248 0.054268047 -0.077076763
0.20951514 0.055388723 -0.078899629
0.22240603 0.054082755 -0.078416593
0.082317777 0.066873826 -0.07477662
0.089751773 0.066407926 -0.080170304
0.097722284 0.065974221 -0.083220102
0.13880572 0.066361479 -0.08121857
0.15020126 0.06599395 -0.0781831
0.15750422 0.064924628 -0.073439598
0.21080011 0.062577464 -0.0752583
0.2191193 0.062127106 -0.075570844
0.081474438 0.07894934 -0.074159607
0.090192996 0.078171849 -0.080079392
0.10060973 0.080019981 -0.082649261
0.10914563 0.082970522 -0.083570786
0.14053904 0.077773795 -0.07984335
0.14936873 0.077112451 -0.074901909
0.15639046 0.073387235 -0.072112657
0.082237117 0.085740402 -0.072944745
0.091090769 0.088862114 -0.07586164
0.1019072 0.090098627 -0.079184428
0.11321295 0.091091223 -0.081627466
0.12536688 0.093596861 -0.083110102
0.13915344 0.090547048 -0.081075951
0.14499925 0.08978948 -0.0743175
0.094577551 0.097132109 -0.073281132
0.10304233 0.10013616 -0.074487604
0.11404888 0.10209557 -0.076800771
0.1261601 0.10221397 -0.079028331
0.13774866 0.1017679 -0.077456139
0.14478104 0.098077096 -0.073721595
0.22399043 0.10526818 -0.07658466
0.23399468 0.10519291 -0.077276155
0.11529668 0.10842542 -0.072559275
0.12596142 0.10890602 -0.073680647
0.13419788 0.10842545 -0.072758824
0.22148949 0.11444808 -0.07780204
0.23341249 0.11352514 -0.078436472
0.24274334 0.11219425 -0.078437366
0.079423532 0.021007394 -0.065402679
0.088603579 0.020637477 -0.065519765
0.10568573 0.022815673 -0.062143933
0.11445336 0.021205418 -0.065310776
0.12603404 0.020302773 -0.06620606
0.13769238 0.021071194 -0.064922415
0.14635159 0.022773681 -0.062495694
0.070080467 0.030825196 -0.064978369
0.074271828 0.02700169 -0.068719506
0.093388602 0.028590303 -0.067640163
0.10154942 0.027575631 -0.067233011
0.11068472 0.025075188 -0.07046926
0.14086688 0.025019471 -0.070269167
0.15094773 0.028242178 -0.066722251
0.15857288 0.032952037 -0.064057946
0.068528615 0.041871041 -0.06639649
0.092693791 0.03660756 -0.071910776
0.16268624 0.041639335 -0.066452272
0.069315255 0.053976998 -0.064852148
0.076801941 0.056609351 -0.070155092
0.16470703 0.053953487 -0.067686997
0.1685468 0.054992344 -0.061538368
0.20186718 0.056574915 -0.066693619
0.20937042 0.057706501 -0.067698099
0.22118038 0.056613524 -0.06658604
0.070653208 0.061649658 -0.061784923
0.077128291 0.06514775 -0.066223778
0.16363104 0.066242874 -0.067504823
0.16857569 0.064892046 -0.06120421
0.20247051 0.063735358 -0.064480886
0.20990641 0.066568181 -0.066320688
0.22084659 0.065719746 -0.065807506
0.076057844 0.077732362 -0.065922789
0.15371743 0.081121653 -0.07093817
0.16233452 0.077913374 -0.066020116
0.16833071 0.076889858 -0.060454495
0.21096396 0.073097371 -0.061816752
0.21747772 0.07244923 -0.061062027
0.078983441 0.089638554 -0.066290498
0.086963885 0.092929326 -0.069851689
0.15073046 0.090299435 -0.068446189
0.16098846 0.089616254 -0.063469656
0.082349457 0.098971829 -0.06374792
0.089845985 0.10236102 -0.065552808
0.10051554 0.10519729 -0.069395706
0.10910635 0.10756411 -0.071810611
0.14105122 0.10557302 -0.06606172
0.14855079 0.099741958 -0.06408193
0.157802 0.097441696 -0.061078604
0.2141761 0.10385325 -0.062993586
0.2213909 0.10034413 -0.066181324
0.23346214 0.10222661 -0.065905303
0.092081957 0.11131674 -0.061299499
0.10192834 0.11132079 -0.063394725
0.11388437 0.11091449 -0.066030577
0.12602684 0.11066151 -0.065826878
0.13492735 0.10933752 -0.06595239
0.21482709 0.11162216 -0.065578021
0.22145127 0.11336452 -0.066458829
0.23480086 0.11159121 -0.066343836
0.24051993 0.11186932 -0.071243554
0.078852825 0.021025797 -0.054142609
0.087540947 0.020830026 -0.055213984
0.10283855 0.021529069 -0.053814296
0.11396668 0.01774922 -0.054134388
0.12614445 0.016265677 -0.054399423
0.1381004 0.017131684 -0.053737074
0.1490459 0.021199415 -0.053865597
0.069354422 0.030466026 -0.054070093
0.073430561 0.025242319 -0.051564813
0.091798104 0.025782593 -0.052375924
0.09722089 0.024567436 -0.056175888
0.15455425 0.02513626 -0.05523685
0.16074005 0.030541893 -0.053848922
0.066906445 0.041843042 -0.053809151
0.166473 0.039994273 -0.054797553
0.16878006 0.04534791 -0.052540783
0.067168973 0.053900275 -0.053452443
0.17041071 0.053912405 -0.05413387
0.20318243 0.058860045 -0.058695741
0.20542361 0.058654908 -0.057679791
0.22002743 0.059132315 -0.058249153
0.070230998 0.064870521 -0.052972831
0.073197193 0.070054524 -0.053522926
0.1715147 0.066388652 -0.05412424
0.2020933 0.066564947 -0.0552192
0.21048851 0.063763537 -0.053380527
0.22055361 0.065420195 -0.054259192
0.075928867 0.078655049 -0.05373181
0.1735201 0.078363724 -0.053886298
0.18057805 0.082450971 -0.049057551
0.20241207 0.075152509 -0.051895201
0.20962439 0.077347748 -0.054024167
0.21869721 0.074827649 -0.053397674
0.081930079 0.088263087 -0.057701387
0.086107291 0.091328509 -0.05321712
0.16659892 0.092986353 -0.059168864
0.1739084 0.089861192 -0.055036683
0.18154027 0.089979157 -0.049835134
0.21403478 0.094623595 -0.050707545
0.22208612 0.094723187 -0.053282782
0.083068699 0.098632611 -0.058703184
0.088584743 0.10234809 -0.053976234
0.13858396 0.10701205 -0.056469452
0.15063909 0.10549799 -0.057848901
0.16246371 0.10225266 -0.056672048
0.17364372 0.10172419 -0.051958732
0.18081728 0.098069467 -0.048912756
0.21171837 0.10129702 -0.053957097
0.2235717 0.10310005 -0.05292251
0.23113884 0.10231458 -0.054377373
0.091680892 0.11396387 -0.053819794
0.10317502 0.11686362 -0.057005364
0.11356519 0.11190782 -0.053488195
0.12601827 0.10917828 -0.053995129
0.13825001 0.11066666 -0.051585611
0.15021941 0.11343008 -0.051589321
0.16133159 0.11261589 -0.051368438
0.17068362 0.10959742 -0.049369324
0.21407346 0.10956823 -0.055728968
0.22052929 0.11010764 -0.055676032
0.23112398 0.10950273 -0.057064421
0.094486721 0.12304924 -0.05347237
0.10167816 0.12596849 -0.053552378
0.10854665 0.1211623 -0.049609199
0.10030832 0.13249606 -0.049150601
0.080713436 0.02362545 -0.047433034
0.08410088 0.023828216 -0.047914349
0.10270135 0.02169759 -0.042264756
0.11381796 0.017708594 -0.041964673
0.12599799 0.017071256 -0.041963305
0.13789102 0.019086201 -0.041678399
0.1482648 0.021724539 -0.043306097
0.07068795 0.033494953 -0.045112096
0.078124575 0.030261867 -0.042446274
0.089651681 0.027789947 -0.04218448
0.097196624 0.024693385 -0.039599538
0.15245213 0.025521349 -0.039547756
0.16076605 0.030810367 -0.042484324
0.069485746 0.04247779 -0.042673066
0.07536231 0.039817546 -0.037919734
0.16655894 0.038960245 -0.04158631
0.16926001 0.044815529 -0.042570591
0.069261812 0.054103885 -0.041954909
0.17163987 0.053796355 -0.042103693
0.070850059 0.061774515 -0.045375247
0.072560512 0.061894037 -0.042141534
0.17518668 0.066472732 -0.041653387
0.18046224 0.071805008 -0.036965348
0.20281507 0.070108727 -0.045286153
0.20971954 0.068939075 -0.042609133
0.21797471 0.069173582 -0.045044597
0.079435579 0.080430686 -0.042017892
0.085003458 0.083269693 -0.038331572
0.1781297 0.074477188 -0.045226589
0.18426485 0.079276279 -0.041049063
0.19970553 0.078406468 -0.041301191
0.21090913 0.079995364 -0.043187317
0.21780106 0.077323288 -0.042234771
0.087709673 0.089769468 -0.042063229
0.18703173 0.089701086 -0.044105113
0.19810031 0.090022877 -0.042610943
0.2102176 0.089939564 -0.042641636
0.22059648 0.092267118 -0.041814495
0.092914157 0.10198699 -0.042108864
0.17855893 0.10629848 -0.046780311
0.18581128 0.10229977 -0.042634826
0.1981094 0.10209989 -0.040765129
0.20945621 0.10287406 -0.042054433
0.22256513 0.10256652 -0.042438138
0.22846058 0.10080849 -0.047161311
0.095509648 0.11107244 -0.045155797
0.09808065 0.11439761 -0.041876994
0.11386619 0.11390835 -0.041918814
0.12569083 0.11441536 -0.042184744
0.13692772 0.11676008 -0.044055477
0.14839199 0.11910038 -0.047346208
0.1633853 0.11796186 -0.045478936
0.17422673 0.11460064 -0.042748179
0.18460679 0.11052808 -0.038302459
0.19623557 0.10917315 -0.037118893
0.21841669 0.1081135 -0.047839656
0.095644534 0.12266358 -0.047287181
0.10158372 0.127626 -0.041868072
0.10955118 0.12309682 -0.041379642
0.14018524 0.12316956 -0.039594419
0.15018198 0.12473733 -0.041688312
0.1615155 0.12393482 -0.040034439
0.17053345 0.12191856 -0.037691705
0.10143856 0.1325707 -0.044975076
0.10535202 0.022669088 -0.033410162
0.11435112 0.021430712 -0.030426485
0.12570447 0.020785581 -0.030462064
0.13507304 0.022344185 -0.032378785
0.082944781 0.035105482 -0.033904631
0.090399407 0.031448323 -0.030390069
0.10108395 0.02746751 -0.029126329
0.11305528 0.024385799 -0.024742294
0.12630202 0.024885727 -0.024996964
0.13954014 0.028133778 -0.028619194
0.14937834 0.030702023 -0.02998003
0.15875848 0.03393383 -0.032803562
0.078139827 0.04231355 -0.029980274
0.085476592 0.038077481 -0.026313003
0.15445656 0.037155099 -0.025227152
0.16284913 0.041447066 -0.029712617
0.16830194 0.046529803 -0.034502491
0.071569018 0.054899022 -0.033266265
0.072720028 0.053678747 -0.028234202
0.16648439 0.051290113 -0.026833415
0.1696924 0.05540517 -0.031157684
0.077320583 0.0659675 -0.028351486
0.17528456 0.065196782 -0.029660894
0.18053548 0.070981488 -0.031106053
0.20376518 0.071779884 -0.024522709
0.20867735 0.070896134 -0.026606051
0.08065702 0.076034024 -0.031409338
0.085994355 0.079791375 -0.028859882
0.18619297 0.074691892 -0.030521858
0.19755922 0.074889846 -0.030231629
0.21153928 0.074120447 -0.03133671
0.21736838 0.080548339 -0.028866172
0.090180539 0.089987174 -0.029990327
0.22049178 0.089481026 -0.030257238
0.094314367 0.10008129 -0.030707929
0.096769549 0.10565341 -0.030613875
0.21187605 0.10620668 -0.031615403
0.22003381 0.10112516 -0.030157054
0.099022083 0.11394981 -0.031507768
0.1178152 0.11966822 -0.035511177
0.12883365 0.11978151 -0.035576012
0.1786359 0.11839447 -0.034513891
0.18615377 0.11588744 -0.030689675
0.19811247 0.11416216 -0.030362288
0.20756955 0.11033162 -0.028624639
0.10256857 0.12719448 -0.030729534
0.1139608 0.12554461 -0.030430963
0.12573844 0.12154993 -0.029574707
0.13773674 0.12548506 -0.030266639
0.15035352 0.13070209 -0.030799089
0.16245973 0.1299592 -0.031031204
0.17383066 0.12488288 -0.029949859
0.18117529 0.12105916 -0.026508965
0.10554526 0.13425365 -0.027525829
0.11068618 0.13387167 -0.026132531
0.15296257 0.13217829 -0.024873594
0.15855666 0.13224262 -0.025463253
0.093204618 0.034796823 -0.021561472
0.10276283 0.032078851 -0.01866981
0.11391477 0.028547235 -0.017848916
0.12565315 0.02813339 -0.018006019
0.13592784 0.032595772 -0.018940449
0.14591555 0.035557769 -0.023345672
0.079111062 0.045761917 -0.020825509
0.089341648 0.040941246 -0.017471638
0.098662511 0.037841313 -0.013929419
0.14108963 0.039513681 -0.017408684
0.14961816 0.042183992 -0.019402893
0.15846415 0.04489987 -0.022195471
0.076337643 0.053126819 -0.017035941
0.085241929 0.049850829 -0.013467611
0.15074445 0.050983001 -0.014177546
0.161222 0.054612219 -0.018638667
0.16804917 0.05920013 -0.023160614
0.080379494 0.063824639 -0.019480979
0.085251875 0.069713943 -0.016968055
0.16478384 0.063081704 -0.015200239
0.17281929 0.066824988 -0.018807085
0.1875139 0.071355961 -0.016797394
0.19855131 0.071191393 -0.016813576
0.20992643 0.069232829 -0.017999468
0.088093549 0.078009635 -0.017916443
0.17758334 0.073337972 -0.015919114
0.18343569 0.072571382 -0.019871609
0.1961422 0.072546989 -0.021072436
0.21534494 0.072873995 -0.020761443
0.21897405 0.078435242 -0.017771251
0.09270604 0.089931048 -0.017983695
0.22320518 0.089712009 -0.018143665
0.094577715 0.10201331 -0.017471315
0.097148463 0.10585124 -0.015714737
0.21419466 0.10648479 -0.017673733
0.22168568 0.10217097 -0.01770616
0.095477901 0.10938434 -0.021408506
0.099056982 0.11486968 -0.019081045
0.11874337 0.11521972 -0.012881991
0.12458561 0.11636908 -0.015176859
0.18724762 0.11899329 -0.017812463
0.1982294 0.11817007 -0.017905163
0.20860873 0.1121525 -0.018016122
0.10330164 0.12591492 -0.017925397
0.11858492 0.12651581 -0.017866831
0.12598859 0.12159763 -0.020298967
0.13740617 0.12646364 -0.018072534
0.14850862 0.13055128 -0.016141813
0.16328683 0.13125946 -0.016645901
0.1740476 0.12722287 -0.017817387
0.18187661 0.12169369 -0.018326487
0.1067496 0.13458017 -0.018883813
0.11315855 0.13735679 -0.018031407
0.15259674 0.13256623 -0.020267634
0.15984209 0.13232408 -0.01932901
0.10624349 0.035675459 -0.011339933
0.11437787 0.034423821 -0.010302885
0.12543464 0.033656012 -0.0097402856
0.13375112 0.034831524 -0.010721513
0.092355326 0.045004319 -0.0093024811
0.10240551 0.042252973 -0.0068061398
0.11402131 0.041670594 -0.0042531723
0.12606396 0.04161587 -0.0036547561
0.13730471 0.042640686 -0.0063443906
0.080434382 0.05715277 -0.0097271064
0.089988634 0.054274015 -0.0065152119
0.10045669 0.052659143 -0.0016284974
0.11232693 0.049921867 -0.00060085411
0.14081077 0.053268481 -0.0035688593
0.14882174 0.056239076 -0.0096447654
0.15705895 0.059780285 -0.011521446
0.081314057 0.064945206 -0.0059986133
0.089023113 0.06375964 -0.0033211429
0.099210016 0.06491743 -0.0005613449
0.11486464 0.068915971 -0.0015767651
0.12611359 0.068099052 -0.0024153807
0.13864723 0.066302605 -0.0029642754
0.15013933 0.065756418 -0.0044074901
0.16107973 0.067635812 -0.0075340699
0.16976379 0.070782654 -0.010176231
0.18839607 0.07162153 -0.010262989
0.20000495 0.071508259 -0.0098200757
0.20954373 0.070104003 -0.0076929741
0.090709031 0.078269392 -0.0067113428
0.10635618 0.075856961 -0.0015682459
0.11376075 0.078020729 -0.0035058938
0.12545517 0.075670481 -0.0028991983
0.13512665 0.073480524 -0.0016226051
0.14959815 0.073134489 -0.00075163902
0.16337182 0.074248955 -0.0019411198
0.17470764 0.077253394 -0.0053308867
0.18523151 0.073639706 -0.0047837794
0.19800931 0.07367567 -0.0054521128
0.21192873 0.073249526 -0.0035744992
0.21881314 0.079061545 -0.0067489371
0.094668485 0.08853171 -0.0072832359
0.096384831 0.091500521 -0.0044559459
0.11091059 0.084717385 -0.00080268254
0.22217387 0.090296611 -0.005533962
0.09503369 0.098881967 -0.0069435881
0.097182311 0.10219441 -0.0036873929
0.11863981 0.10665753 -0.0036774678
0.12437492 0.10483203 -0.0034290676
0.21195993 0.10422534 -0.0050396752
0.22053733 0.10051695 -0.0066309199
0.10339598 0.11795276 -0.0024359694
0.1148646 0.11325549 -0.0066418205
0.12889439 0.11312902 -0.0061889179
0.1343115 0.11698005 -0.0023542838
0.17888729 0.1192153 -0.0014357629
0.18575719 0.11561296 -0.0047435723
0.19826443 0.1161401 -0.0057085264
0.2068696 0.1112206 -0.006834304
0.105763 0.12526909 -0.0065647373
0.11417671 0.1267954 -0.0046157963
0.13178048 0.1201888 -0.010117682
0.13903037 0.12358892 -0.0067292792
0.14980659 0.12701729 -0.0053205537
0.16175568 0.12826873 -0.0056906152
0.17378993 0.12484259 -0.0060596052
0.18098567 0.12113579 -0.0090465844
0.11339723 0.13584548 -0.0074113118
0.11754429 0.047841903 5.1770359e-05
0.12515137 0.047427304 0.00026806764
0.10553654 0.056219477 0.00083226664
0.11413053 0.055458162 0.001185877
0.1261097 0.053879261 0.0021014139
0.13495791 0.054585148 0.0015567169
0.083869174 0.067288771 7.1484596e-05
0.090201408 0.068681791 0.0037612736
0.10175453 0.066859156 0.0023263707
0.11308378 0.063488439 0.001228572
0.12599632 0.062218536 0.0012569625
0.13386935 0.061413862 0.00093197229
0.090141341 0.076837443 0.0074026738
0.10244679 0.077949144 0.0071180146
0.11706445 0.082953125 0.00096986583
0.12676969 0.080918141 0.0019943244
0.13851154 0.079062112 0.0027507094
0.15010341 0.078904659 0.0046582446
0.16143955 0.079660974 0.0039261021
0.17429216 0.08228033 0.0031707487
0.18544459 0.076893114 0.0058902176
0.19825186 0.075052828 0.006286337
0.21010698 0.076961882 0.0056093507
0.21727006 0.081944801 0.0016676707
0.0943233 0.089135662 0.0069865398
0.10220619 0.090124711 0.0085571362
0.11370179 0.090343066 0.004599561
0.12614678 0.089995086 0.0038744956
0.1379761 0.090107106 0.0073385588
0.14908698 0.088444039 0.010345519
0.16300035 0.088779986 0.0097103212
0.17473295 0.089658096 0.0065607373
0.18039198 0.094138436 0.010838863
0.21248999 0.090913765 0.0084991492
0.21782891 0.089748316 0.002565525
0.095894419 0.097042471 0.00017886981
0.099484019 0.10212988 0.0059821438
0.11652709 0.10152651 0.0062997569
0.12709984 0.10011113 0.0019205428
0.13778067 0.10221864 0.0075857379
0.14581649 0.10325845 0.011528482
0.16642389 0.10333082 0.011336754
0.17410468 0.10183702 0.0079561183
0.1849499 0.10347794 0.0067822104
0.19929534 0.10558155 0.0082715731
0.20837787 0.1000816 0.0047820439
0.2170192 0.096718043 0.00054448767
0.1043594 0.1140721 0.0059605916
0.11484749 0.11502536 0.006403964
0.13886663 0.11303011 0.0037122185
0.14987643 0.1143641 0.0082224114
0.16220221 0.11479143 0.0089000938
0.17410925 0.11410284 0.0053006029
0.18569864 0.10994904 0.0016496175
0.1974277 0.11073794 0.0027755215
0.20480923 0.10861801 0.0010649704
0.10690864 0.12177434 0.0026103461
0.10957827 0.12222772 0.0055845398
0.14299035 0.12010571 0.0005610548
0.15104774 0.12194577 0.0021237738
0.1616689 0.12273782 0.0026840621
0.17111163 0.12184998 0.0020063869
0.093862414 0.079437494 0.01298943
0.097758375 0.08051344 0.012607133
0.18653166 0.079594776 0.015597548
0.19797656 0.079530261 0.016040573
0.20642735 0.081332557 0.013985562
0.09519019 0.085059784 0.01258429
0.10130423 0.091907129 0.01261435
0.1526618 0.092946917 0.013013007
0.15938765 0.093342423 0.012718167
0.17977402 0.086101785 0.012101686
0.18566521 0.089983471 0.016835712
0.19835934 0.090011917 0.018494712
0.20675772 0.089508362 0.014418291
0.10393693 0.10171708 0.016958544
0.11225773 0.1025811 0.017253669
0.15117331 0.10143994 0.012960434
0.16087677 0.10145937 0.013108846
0.18822762 0.10029145 0.015702536
0.19746691 0.10083862 0.016057821
0.2049419 0.097217344 0.012659589
0.10628231 0.1119806 0.016517846
0.11248411 0.11361519 0.017004307
0.15468934 0.10899007 0.012194357
0.15884948 0.10929322 0.012418883
0.11019951 0.12045957 0.013175879
