# .PCD v0.7 - Point Cloud Data file format
VERSION 0.7
FIELDS x y z
SIZE 4 4 4
TYPE F F F
COUNT 1 1 1
WIDTH 1574
HEIGHT 1
VIEWPOINT 0 0 0 1 0 0 0
POINTS 1574
DATA ascii
26.163893 23.808708 1.1189481
26.117826 23.807961 1.5449913
26.069466 23.80262 1.6814795
26.020075 23.79525 1.687588
25.970661 23.787849 1.6912971
25.921167 23.780266 1.6846075
25.871592 23.77253 1.6675196
25.821793 23.764351 1.622436
25.772051 23.756264 1.5845515
25.722273 23.748116 1.5418676
25.672384 23.739769 1.4855859
25.622593 23.731606 1.4413023
25.572802 23.723427 1.3970187
25.522842 23.714928 1.3319383
25.472963 23.706581 1.2764564
25.423019 23.698097 1.2129757
25.373138 23.689766 1.1574938
25.323112 23.681129 1.0836148
25.273117 23.672554 1.0137351
25.223158 23.664055 0.94865477
25.172964 23.655067 0.8531791
28.901331 24.422142 0.94196296
28.852015 24.414909 0.95767009
28.802565 24.407433 0.9565798
28.753172 24.400063 0.96268833
28.703768 24.392662 0.96719706
28.654264 24.385048 0.95970774
28.60486 24.377663 0.96421647
28.555372 24.370094 0.95832694
28.505962 24.362679 0.96203589
28.456505 24.355186 0.96014559
28.407074 24.34774 0.96145487
28.357651 24.340279 0.96356392
28.30822 24.332832 0.96487331
28.258757 24.325325 0.96218324
28.20932 24.317863 0.96269262
28.159864 24.310356 0.96080232
28.110426 24.302895 0.96131182
28.060989 24.295418 0.96182132
28.011553 24.287956 0.96233058
27.962095 24.280464 0.9604404
27.912621 24.272926 0.95615053
27.863209 24.265511 0.95985949
27.813778 24.258064 0.96116877
27.764303 24.250511 0.9568789
27.714897 24.243111 0.96138763
27.665447 24.235634 0.96029735
27.616005 24.228157 0.96000695
27.566572 24.220711 0.96131611
27.517117 24.213203 0.95942593
27.46768 24.205727 0.95993531
27.41828 24.198341 0.96524394
27.368851 24.190895 0.96655333
27.319363 24.183327 0.96066368
27.269978 24.175972 0.96757209
27.22052 24.168465 0.96568179
27.171057 24.160942 0.96299171
27.121653 24.153542 0.96750057
27.072147 24.145943 0.95921135
27.022758 24.138588 0.96611977
26.973303 24.131081 0.96422946
26.923899 24.12368 0.9687382
26.874434 24.116158 0.96604824
26.825043 24.108788 0.97215676
26.775568 24.10125 0.9678669
26.726173 24.09388 0.97397542
26.67675 24.086433 0.97608447
26.627319 24.078987 0.97739387
26.577877 24.071495 0.97710347
26.528433 24.064034 0.97681284
26.479008 24.056587 0.97892201
26.429575 24.049141 0.98023129
26.380014 24.04142 0.96474326
26.330481 24.033775 0.95325458
26.281931 24.028069 1.0657465
26.236259 24.028099 1.541382
26.186922 24.020836 1.5546894
26.13854 24.015465 1.6879783
26.089113 24.008034 1.6900873
26.03965 24.000511 1.6873972
25.990139 23.992897 1.678308
25.94039 23.98481 1.6396236
25.890808 23.977058 1.6217358
25.840992 23.968849 1.5742527
25.791142 23.960564 1.5227702
25.741362 23.9524 1.4800863
25.691614 23.944328 1.441402
25.641657 23.935829 1.3763216
25.591751 23.927437 1.3176401
25.541927 23.919197 1.269357
25.491957 23.910683 1.2026769
25.442083 23.902336 1.147995
25.39212 23.893822 1.0821147
25.342253 23.885506 1.0282326
25.291924 23.876259 0.91595948
25.242041 23.867928 0.86047757
28.920816 24.62719 0.92977405
28.8715 24.619957 0.94548106
28.822168 24.612709 0.95958841
28.772709 24.605202 0.95689833
28.723289 24.597786 0.9598074
28.673828 24.590263 0.95711732
28.624384 24.582771 0.95682681
28.574953 24.575325 0.95813608
28.525536 24.567909 0.96104515
28.476099 24.560448 0.96155453
28.426653 24.552971 0.96126401
28.377211 24.545494 0.9609735
28.327761 24.537987 0.95988321
28.278292 24.530464 0.95639324
28.228912 24.523125 0.96410155
28.179462 24.515633 0.96301115
28.130007 24.508141 0.96112096
28.080563 24.500664 0.96083045
28.031164 24.493263 0.9661392
27.98172 24.485786 0.96584868
27.93224 24.478233 0.96075892
27.882769 24.470711 0.95726895
27.833351 24.463295 0.9601779
27.783884 24.455757 0.95668805
27.734484 24.448357 0.96199679
27.685009 24.440819 0.95770681
27.635622 24.433464 0.96461523
27.586145 24.425926 0.96032548
27.53673 24.41851 0.96323442
27.487272 24.411003 0.96134424
27.437836 24.403526 0.96185362
27.388426 24.396111 0.96556258
27.338974 24.388634 0.96447229
27.289532 24.381157 0.96418178
27.240107 24.373726 0.96629095
27.190605 24.366127 0.95880151
27.141201 24.358711 0.96331024
27.091776 24.35128 0.96541953
27.042347 24.343834 0.96672881
26.992947 24.336449 0.97203743
26.943497 24.328957 0.97094703
26.894058 24.321495 0.97145641
26.844648 24.314064 0.97516549
26.795153 24.306496 0.96847594
26.745768 24.299141 0.97538435
26.696337 24.291679 0.97669363
26.646906 24.284233 0.97800303
26.59745 24.276741 0.97611272
26.548044 24.269325 0.98062146
26.498543 24.261742 0.97313213
26.448967 24.254005 0.9560442
26.399525 24.246529 0.9557538
26.354733 24.248314 1.542572
26.305271 24.240791 1.5398818
26.25639 24.234428 1.6107802
26.207573 24.228203 1.6896775
26.158125 24.220711 1.6885872
26.108656 24.213188 1.6850972
26.059061 24.205421 1.6656097
26.009396 24.197487 1.6373236
25.959684 24.189476 1.6034384
25.909861 24.181252 1.5551554
25.860064 24.173073 1.5100719
25.810226 24.164818 1.4601891
25.76038 24.156532 1.4087065
25.71051 24.148201 1.3548244
25.660671 24.139946 1.3049418
25.610693 24.131401 1.2366619
25.560772 24.122978 1.1763806
25.51086 24.114571 1.1168995
25.460917 24.106102 1.0534188
25.410902 24.097466 0.98113954
28.940285 24.832237 0.91598535
28.89109 24.825233 0.94689012
28.841703 24.817879 0.95379841
28.792265 24.810417 0.95430779
28.74283 24.802956 0.9548173
28.693392 24.795494 0.95532668
28.64395 24.788017 0.95503616
28.59457 24.780663 0.96274447
28.545055 24.773048 0.95365536
28.495632 24.765602 0.95576453
28.446259 24.758278 0.96427274
28.396807 24.750786 0.96318233
28.347378 24.74334 0.96449161
28.297903 24.735786 0.96020174
28.248465 24.728325 0.96071124
28.198982 24.720772 0.95562148
28.149578 24.713371 0.96013021
28.100117 24.705864 0.95744014
28.050684 24.698418 0.95874953
28.001223 24.69088 0.95605946
27.951792 24.683434 0.95736861
27.902336 24.675941 0.95547843
27.852936 24.668556 0.96078706
27.803455 24.661003 0.95569742
27.754019 24.653542 0.9562068
27.704567 24.646034 0.95511639
27.655144 24.638603 0.95722556
27.605732 24.631187 0.9609344
27.556288 24.623711 0.96064401
27.506897 24.616341 0.96675253
27.457445 24.608849 0.96566224
27.407921 24.601204 0.95497334
27.358566 24.59391 0.96588111
27.30909 24.586372 0.96159136
27.259729 24.579063 0.97169924
27.21023 24.571465 0.96420979
27.160816 24.564064 0.96791875
27.11138 24.556587 0.96842813
27.061975 24.549187 0.97293699
27.012474 24.541603 0.96544766
26.963024 24.534111 0.96435726
26.913626 24.526726 0.96966588
26.864193 24.519279 0.97097516
26.814821 24.511925 0.97948337
26.765364 24.504417 0.97759318
26.715889 24.49688 0.97330332
26.66646 24.489433 0.97461247
26.616976 24.481895 0.96952271
26.567432 24.474205 0.95643437
26.518364 24.467461 1.0033365
26.469793 24.461739 1.1134288
26.423754 24.461037 1.5426716
26.374432 24.453804 1.5575787
26.326027 24.448387 1.688468
26.276546 24.440834 1.6833782
26.227121 24.433388 1.6854873
26.177593 24.425758 1.6747985
26.127913 24.417793 1.6441128
26.078136 24.409676 1.6022288
26.028448 24.401695 1.5707431
25.978725 24.393654 1.5352581
25.928761 24.385155 1.4693778
25.879026 24.377098 1.4322932
25.829235 24.368935 1.3880095
25.779308 24.360497 1.3269285
25.72945 24.352196 1.2738461
25.679491 24.343681 1.2087657
25.629539 24.335197 1.1444854
25.579742 24.327019 1.0994018
25.529665 24.318275 1.0191238
25.479588 24.309547 0.93884575
28.959789 25.037315 0.90619612
28.910692 25.03054 0.94989872
28.861263 25.023079 0.951208
28.811832 25.015633 0.95251727
28.762394 25.008171 0.95302665
28.712934 25.000648 0.95033669
28.663515 24.993233 0.95324564
28.614065 24.985741 0.95215523
28.564648 24.97831 0.9550643
28.515165 24.970757 0.94997454
28.46574 24.96331 0.95208383
28.416361 24.955971 0.95979202
28.366898 24.948463 0.95710194
28.317429 24.940926 0.95361197
28.268011 24.933495 0.95652092
28.218554 24.925987 0.95463085
28.169125 24.918541 0.95594001
28.119688 24.911079 0.95644951
28.070263 24.903648 0.95855856
28.020775 24.89608 0.95266891
27.971357 24.888649 0.95557809
27.921921 24.881187 0.95608747
27.872477 24.873711 0.95579696
27.823046 24.866264 0.95710623
27.77359 24.858757 0.95521593
27.724154 24.851295 0.95572543
27.674702 24.843803 0.95463514
27.625303 24.836418 0.95994377
27.575809 24.828835 0.95325422
27.526428 24.821495 0.96096265
27.477013 24.814064 0.9638716
27.427568 24.806587 0.96358109
27.378099 24.799049 0.96009111
27.328676 24.791618 0.96220028
27.279249 24.784172 0.96430957
27.22982 24.776726 0.96561885
27.18037 24.769249 0.96452844
27.130945 24.761803 0.96663761
27.081528 24.754372 0.96954656
27.032053 24.746834 0.96525681
26.982603 24.739342 0.9641664
26.93314 24.731834 0.96147633
26.883772 24.72451 0.97078431
26.834341 24.717064 0.97209358
26.784887 24.709541 0.9702034
26.735435 24.702065 0.96911311
26.68586 24.694313 0.95202518
26.63636 24.686729 0.94453585
26.587992 24.681404 1.0802243
26.542175 24.681145 1.5374627
26.492794 24.673775 1.5451709
26.444498 24.668587 1.6896579
26.395042 24.661095 1.6877675
26.345535 24.653496 1.6794784
26.296074 24.645973 1.6767883
26.24649 24.638206 1.6589006
26.196749 24.63015 1.621016
26.146975 24.622017 1.5791318
26.097229 24.61393 1.5404475
26.04743 24.605751 1.495364
25.997536 24.597389 1.4382823
25.947788 24.589287 1.3995979
25.897844 24.580818 1.3361173
25.848045 24.572639 1.2910337
25.798204 24.564369 1.2403511
25.748278 24.555931 1.17927
25.698355 24.547508 1.118189
25.648294 24.538795 1.0403106
25.598362 24.530342 0.97842979
25.548464 24.521965 0.92054832
28.979462 25.242775 0.91800308
28.930235 25.235725 0.94490838
28.88084 25.228355 0.9510169
28.831379 25.220833 0.94832683
28.781954 25.213387 0.950436
28.732504 25.20591 0.94934559
28.683107 25.198524 0.95465434
28.633636 25.191002 0.95116436
28.584232 25.183601 0.9556731
28.534777 25.176079 0.9537828
28.485292 25.168526 0.94869316
28.435844 25.161049 0.94760287
28.386408 25.153587 0.94811225
28.336988 25.146156 0.95102119
28.287571 25.138741 0.95393026
28.238115 25.131218 0.95203996
28.188688 25.123787 0.95414925
28.139189 25.116203 0.94665992
28.089823 25.108879 0.9559679
28.040392 25.101433 0.95727718
27.99091 25.09388 0.95218754
27.941435 25.086327 0.94789767
27.892036 25.078941 0.9532063
27.842625 25.071526 0.95691514
27.793104 25.063896 0.94702613
27.743774 25.056648 0.9611336
27.694256 25.049034 0.95124459
27.644793 25.041496 0.9485544
27.595432 25.034187 0.95866227
27.545963 25.026665 0.9551723
27.496538 25.019234 0.95728159
27.447109 25.011787 0.95859087
27.397741 25.004463 0.96789885
27.348267 24.99691 0.96360898
27.298817 24.989418 0.96251857
27.249392 24.981987 0.96462786
27.199974 24.974556 0.96753681
27.150511 24.967049 0.96484673
27.10111 24.959663 0.97015536
27.051662 24.952156 0.96906495
27.002193 24.944633 0.9655751
26.952795 24.937248 0.97088373
26.903351 24.929771 0.97059321
26.853907 24.922295 0.97030282
26.80426 24.914421 0.94441628
26.755148 24.907585 0.98571944
26.708935 24.906548 1.3933654
26.660627 24.901329 1.5362527
26.611254 24.89399 1.5447607
26.562893 24.88868 1.681249
26.513514 24.881325 1.6889575
26.463957 24.873619 1.6742692
26.414492 24.866096 1.6715791
26.364891 24.858315 1.6512916
26.315226 24.850395 1.6230055
26.265415 24.842186 1.5763223
26.215656 24.834068 1.5360382
26.165913 24.826012 1.4981534
26.116114 24.817818 1.4530699
26.06628 24.809563 1.4031873
26.016455 24.801338 1.3549042
25.966516 24.792885 1.2922235
25.916739 24.784721 1.2495396
25.866768 24.776207 1.1828594
25.816933 24.767937 1.1329768
25.767084 24.759666 1.0814942
25.717049 24.751015 1.0068153
29.048491 25.455498 0.91890264
28.999273 25.448479 0.9474076
28.949831 25.441002 0.94711709
28.900414 25.433586 0.95002627
28.850994 25.426155 0.95293522
28.801519 25.418602 0.94864535
28.752064 25.41111 0.94675517
28.702677 25.40374 0.95366359
28.653229 25.396263 0.9525733
28.60379 25.388802 0.95308268
28.55434 25.38131 0.95199227
28.504911 25.373848 0.95330155
28.455446 25.366325 0.95061147
28.405979 25.358803 0.94712162
28.356586 25.351433 0.95323002
28.307142 25.343956 0.95293951
28.257679 25.336449 0.95024943
28.208269 25.329018 0.95395827
28.158831 25.321556 0.95446777
28.109362 25.314034 0.9509778
28.059938 25.306602 0.95308697
28.010475 25.29908 0.9503969
27.961044 25.291634 0.95170617
27.911619 25.284187 0.95381534
27.862171 25.276695 0.95272493
27.812792 25.269356 0.96043324
27.763283 25.261757 0.95214403
27.71384 25.25428 0.95185351
27.664454 25.24691 0.95876205
27.614946 25.239296 0.95047283
27.565559 25.231941 0.95738113
27.516085 25.224403 0.95309126
27.46666 25.216972 0.95520055
27.41725 25.209557 0.95890939
27.367781 25.202034 0.95541942
27.318394 25.194649 0.96232784
27.26897 25.187218 0.96443689
27.219545 25.179787 0.96654618
27.170115 25.17234 0.96785545
27.120659 25.164833 0.96596515
27.071239 25.157417 0.96887422
27.021809 25.14994 0.97018349
26.972334 25.142403 0.96589375
26.922581 25.134315 0.92640924
26.873098 25.126762 0.9213196
26.82832 25.128578 1.5097375
26.77911 25.121574 1.5390424
26.729801 25.114342 1.5555494
26.681353 25.108849 1.6808393
26.631878 25.101311 1.6765494
26.58246 25.093895 1.6794584
26.532938 25.086266 1.6695695
26.483343 25.078484 1.6500821
26.433584 25.070366 1.6097978
26.383816 25.062248 1.5687137
26.334076 25.054176 1.530829
26.284315 25.046074 1.4905448
26.234518 25.037895 1.4454613
26.184738 25.029732 1.4027774
26.134882 25.021446 1.3504951
26.085152 25.013405 1.3142102
26.035191 25.00489 1.2483299
25.985392 24.996712 1.2032465
29.166689 25.675179 0.88569784
29.117487 25.66819 0.91580272
29.068274 25.661171 0.9443078
29.018822 25.653664 0.9432174
28.96941 25.646248 0.94692636
28.919968 25.638786 0.94663584
28.870544 25.63134 0.94874501
28.821089 25.623848 0.94685483
28.771643 25.616356 0.94656432
28.722225 25.608925 0.94947338
28.67277 25.601433 0.94758308
28.623369 25.594048 0.95289183
28.573883 25.586479 0.94700217
28.524446 25.579018 0.94751155
28.475019 25.571571 0.94962072
28.425591 25.564125 0.95093
28.376135 25.556618 0.94903982
28.326672 25.54911 0.94634974
28.277233 25.541649 0.94685912
28.227772 25.534142 0.94416904
28.178373 25.526741 0.94947767
28.128937 25.519279 0.94998717
28.079479 25.511772 0.94809687
28.030062 25.504356 0.95100594
27.980631 25.496895 0.95231521
27.931168 25.489388 0.94962513
27.881788 25.482033 0.95733345
27.832314 25.474495 0.95304358
27.782824 25.466927 0.94715393
27.733433 25.459557 0.95326245
27.683977 25.452049 0.95137239
27.634565 25.444649 0.95508122
27.585142 25.437187 0.95719028
27.535709 25.429741 0.95849955
27.486259 25.422249 0.95740926
27.436804 25.414757 0.95551908
27.387411 25.407387 0.9616276
27.337948 25.399864 0.95893753
27.288467 25.392311 0.95384777
27.239092 25.384972 0.96235585
27.189707 25.377617 0.96926439
27.140238 25.370079 0.96577442
27.090738 25.362495 0.95828497
27.040932 25.354301 0.91240156
26.993099 25.350014 1.1152794
26.947008 25.34922 1.5381234
26.897533 25.341682 1.5338335
26.84918 25.336372 1.6711216
26.799768 25.328957 1.6748304
26.750307 25.321449 1.6721404
26.700861 25.313957 1.67185
26.651312 25.306267 1.6579615
26.601595 25.298256 1.6232764
26.551941 25.290367 1.59659
26.502207 25.28231 1.5595052
26.452478 25.274269 1.5232204
26.402695 25.266106 1.4797367
26.352915 25.257957 1.4370527
26.303059 25.249657 1.3847704
26.253328 25.241615 1.3484855
26.203438 25.233253 1.291404
26.153708 25.225212 1.2551191
26.10372 25.216637 1.1860392
29.235699 25.887871 0.88419783
29.186731 25.88134 0.94389796
29.137287 25.873863 0.94360745
29.087889 25.866478 0.9489162
29.038464 25.859047 0.95102537
28.989006 25.851524 0.94913507
28.939569 25.844063 0.94964457
28.890179 25.836693 0.95575309
28.840715 25.829185 0.95306301
28.791286 25.821739 0.95437229
28.741879 25.814323 0.95888102
28.692442 25.806862 0.9593904
28.642986 25.799355 0.95750022
28.593523 25.791847 0.95481014
28.544119 25.784447 0.95931888
28.494644 25.776909 0.95502901
28.445206 25.769432 0.95553851
28.395737 25.761909 0.95204842
28.346371 25.754585 0.96135664
28.296844 25.746941 0.95066774
28.247458 25.739586 0.95757604
28.197945 25.731972 0.94848692
28.148521 25.724525 0.95059609
28.099104 25.717094 0.95350528
28.049709 25.709724 0.9596138
28.000221 25.702156 0.95372415
27.950804 25.69474 0.95663309
27.901308 25.687157 0.94994366
27.851891 25.679726 0.95285273
27.802443 25.672234 0.95176232
27.753054 25.664879 0.95867074
27.703598 25.657372 0.95678055
27.654142 25.649879 0.95489025
27.604719 25.642448 0.95699954
27.555288 25.634972 0.95830882
27.505844 25.62751 0.9580183
27.456383 25.619987 0.95532811
27.407001 25.612648 0.96303654
27.357546 25.605141 0.96114635
27.308121 25.59771 0.96325541
27.258602 25.590065 0.9533664
27.208891 25.582069 0.91948116
27.160944 25.577568 1.1079614
27.114796 25.576653 1.5236062
27.0655 25.569466 1.5417128
27.016264 25.562401 1.5678182
26.967619 25.556511 1.6683121
26.91824 25.549156 1.6760205
26.868797 25.541679 1.67573
26.819258 25.534019 1.6634413
26.769644 25.526207 1.6415542
26.72006 25.518456 1.6236665
26.670223 25.510185 1.5737838
26.620571 25.502296 1.5470974
26.570755 25.494072 1.4996142
26.520998 25.485985 1.4601299
26.471195 25.477791 1.4142466
26.421404 25.469627 1.3699629
26.371517 25.46125 1.3136811
26.321707 25.453041 1.2669978
26.271938 25.444923 1.2259138
26.222113 25.436699 1.1776308
26.172165 25.428215 1.1133503
29.403439 26.115211 0.86328173
29.354109 26.107964 0.87738895
29.304962 26.101082 0.91469264
29.255785 26.094124 0.94799709
29.206324 26.086617 0.9453069
29.1569 26.079185 0.94741607
29.107481 26.071754 0.95032501
29.058083 26.064369 0.95563364
29.008589 26.056801 0.94894433
28.959183 26.049385 0.95345306
28.909733 26.041893 0.95236278
28.860296 26.034431 0.95287204
28.810822 26.026894 0.94858241
28.761375 26.019417 0.94829178
28.711985 26.012032 0.9544003
28.662483 26.004448 0.94691098
28.613077 25.997047 0.95141971
28.563629 25.989555 0.95032954
28.514217 25.982155 0.95403838
28.464762 25.974648 0.9521482
28.41535 25.967216 0.95585704
28.36586 25.959663 0.94996738
28.316442 25.952232 0.95287657
28.267025 25.944817 0.95578551
28.217537 25.937248 0.94989586
28.168119 25.929832 0.95280492
28.118664 25.92231 0.95091462
28.069256 25.914909 0.95542359
28.019794 25.907402 0.9527334
27.970383 25.899986 0.95644236
27.920959 25.892555 0.95855141
27.871458 25.884972 0.9510622
27.822052 25.877556 0.95557094
27.772604 25.870064 0.95448053
27.723192 25.862648 0.95818949
27.67374 25.855171 0.95709908
27.62426 25.847618 0.95200944
27.574856 25.840218 0.95651817
27.525398 25.83271 0.95462799
27.475981 25.825279 0.95753694
27.426455 25.817635 0.94684815
27.376541 25.809242 0.88736689
27.327082 25.80172 0.88467681
27.282751 25.80442 1.5298859
27.233295 25.796913 1.5279956
27.184893 25.791512 1.6588848
27.13555 25.784233 1.6713923
27.086075 25.776695 1.6671026
27.036663 25.769279 1.6708114
26.987162 25.761696 1.663322
26.937572 25.753914 1.6446345
26.887812 25.745811 1.6043502
26.838224 25.738045 1.5856626
26.788639 25.730293 1.5677748
26.738766 25.721962 1.5130928
26.689049 25.713951 1.4784076
26.639303 25.705849 1.4397233
26.589466 25.697594 1.3898405
26.539629 25.689339 1.3399577
26.489813 25.681129 1.2924745
26.440001 25.67292 1.2457912
26.390266 25.664864 1.2087066
29.618341 26.345512 0.55550051
29.56848 26.337196 0.50241828
29.521883 26.335381 0.86127186
29.472567 26.328148 0.87697911
29.423679 26.321785 0.94707763
29.374186 26.314217 0.94038808
29.324812 26.306877 0.94889629
29.275394 26.299461 0.95180523
29.225925 26.291908 0.94831538
29.176514 26.284508 0.95202422
29.127045 26.276985 0.94853425
29.077639 26.269585 0.95304298
29.028177 26.262062 0.95035303
28.978714 26.254555 0.94766283
28.929251 26.247032 0.94497275
28.879877 26.239693 0.95348096
28.830416 26.232185 0.95079076
28.780973 26.224709 0.95050049
28.731556 26.217278 0.95340943
28.682104 26.209785 0.95231903
28.632629 26.202248 0.94802916
28.583218 26.194832 0.95173812
28.533768 26.187355 0.95064783
28.484331 26.179893 0.95115721
28.4349 26.172432 0.95246649
28.385448 26.16494 0.95137608
28.335974 26.157402 0.94708622
28.286537 26.14994 0.94759572
28.237152 26.14257 0.95450413
28.187681 26.135048 0.95101404
28.138233 26.127571 0.94992375
28.088846 26.120186 0.95683217
28.039352 26.112617 0.95014274
27.989965 26.105247 0.95705116
27.940496 26.097725 0.95356107
27.891054 26.090248 0.95327067
27.84161 26.082787 0.95298016
27.792198 26.075356 0.95668912
27.742743 26.067848 0.95479894
27.693348 26.060478 0.96090746
27.64393 26.053062 0.9638164
27.594324 26.04525 0.94272923
27.54431 26.036644 0.87045002
27.497072 26.033546 1.1485162
27.450651 26.032082 1.5297663
27.40119 26.024574 1.5270762
27.352861 26.019325 1.6675639
27.303436 26.011879 1.669673
27.253967 26.004356 1.6661831
27.204582 25.996986 1.6730914
27.155106 25.989449 1.6688015
27.105434 25.981514 1.6397157
27.05575 25.973564 1.6090299
27.006182 25.965843 1.592742
26.9564 25.957695 1.550058
26.906715 25.94973 1.5193722
26.856932 25.941566 1.4758886
26.80719 25.93351 1.438004
26.75741 25.925362 1.3953201
26.707695 25.917351 1.3606349
26.657846 25.909065 1.3091524
26.607988 25.900749 1.25687
26.558178 25.892555 1.2101868
26.508394 25.884392 1.166703
29.835789 26.580864 0.56846976
29.785997 26.57267 0.52418613
29.736406 26.564919 0.50549841
29.68993 26.563347 0.87954986
29.6409 26.556694 0.93125129
29.591549 26.5494 0.94295895
29.542139 26.541985 0.94666779
29.492695 26.534508 0.94637728
29.443266 26.527046 0.94768667
29.39382 26.519585 0.94739616
29.344397 26.512138 0.94950533
29.294973 26.504707 0.95161438
29.245556 26.497276 0.95452344
29.196033 26.489647 0.94463456
29.146648 26.482277 0.95154297
29.097225 26.474846 0.95365214
29.04776 26.467339 0.95096195
28.998318 26.459862 0.95067143
28.94883 26.452293 0.94478202
28.899456 26.444939 0.9532901
28.85 26.437447 0.9513998
28.800518 26.429893 0.94631004
28.751133 26.422539 0.9532187
28.701645 26.41497 0.94732904
28.652182 26.407448 0.94463885
28.602797 26.400078 0.95154727
28.553314 26.39254 0.94645751
28.503889 26.385094 0.94856679
28.454477 26.377693 0.95227563
28.404991 26.370125 0.9463861
28.355572 26.362694 0.94929504
28.306122 26.355202 0.94820464
28.256729 26.347832 0.95431328
28.207249 26.340279 0.94922352
28.157816 26.332832 0.95053279
28.108437 26.325478 0.95824111
28.058937 26.317879 0.95075166
28.009501 26.310417 0.95126116
27.9601 26.303032 0.95656979
27.910696 26.295631 0.96107864
27.86117 26.287987 0.95038974
27.811655 26.280373 0.94130075
27.761992 26.272453 0.91301453
27.71213 26.264137 0.8599323
27.668003 26.26725 1.5307374
27.618547 26.259743 1.5288472
27.569117 26.252296 1.5301565
27.520788 26.247047 1.670644
27.471313 26.239494 1.6663542
27.421801 26.23188 1.6572652
27.372452 26.224602 1.6689727
27.322983 26.217079 1.6654829
27.273216 26.208961 1.6243987
27.223564 26.201057 1.5977123
27.173918 26.193169 1.5718259
27.124289 26.185326 1.5483389
27.074568 26.177299 1.5128541
27.024788 26.169167 1.4701701
26.975042 26.161079 1.4314857
26.925293 26.153008 1.392801
26.875475 26.144768 1.345318
26.825729 26.136681 1.3066335
26.77602 26.128685 1.2727482
26.726068 26.120201 1.2084677
26.676283 26.112038 1.164984
26.626554 26.103996 1.1286991
30.152195 26.831291 0.59081864
30.102365 26.823036 0.54173565
30.052895 26.815498 0.53824568
30.003458 26.808037 0.53875494
29.95657 26.805641 0.86081433
29.90736 26.798637 0.89011943
29.858309 26.791954 0.93942118
29.808949 26.784645 0.94952917
29.759434 26.777016 0.94043994
29.710012 26.769569 0.94254911
29.660574 26.762108 0.94305861
29.611124 26.754631 0.9419682
29.561663 26.747108 0.93927813
29.512268 26.739738 0.94538665
29.462807 26.732216 0.94269657
29.413395 26.7248 0.94640553
29.363995 26.717415 0.95171416
29.314566 26.709969 0.95302343
29.265045 26.702339 0.94313443
29.215614 26.694893 0.9444437
29.16617 26.687401 0.94415331
29.116703 26.679878 0.94066334
29.067272 26.672432 0.94197249
29.017839 26.664986 0.94328177
28.968384 26.657478 0.94139171
28.918974 26.650063 0.94510055
28.869518 26.642555 0.94321036
28.82011 26.635155 0.9477191
28.770649 26.627647 0.9450289
28.72118 26.620125 0.94153905
28.671768 26.612709 0.94524789
28.622313 26.605202 0.94335771
28.572882 26.59774 0.94466698
28.523424 26.590248 0.94277668
28.474052 26.582909 0.951285
28.424595 26.575417 0.9493947
28.375153 26.56794 0.94910419
28.325735 26.560493 0.95201325
28.276291 26.553017 0.95172274
28.226828 26.545509 0.94903278
28.177391 26.538048 0.94954205
28.128004 26.530693 0.95645046
28.078554 26.523201 0.95536017
28.029022 26.515541 0.94387138
27.979027 26.506966 0.87399185
27.929279 26.498878 0.83530736
27.8853 26.502281 1.5245095
27.835876 26.49485 1.5266187
27.786438 26.487389 1.5271281
27.73811 26.482109 1.6676158
27.688673 26.474648 1.6681252
27.639198 26.46711 1.6638353
27.589767 26.459663 1.6651446
27.540274 26.452095 1.658455
27.490774 26.444511 1.6509657
27.441036 26.43644 1.613881
27.391207 26.4282 1.5647981
27.341778 26.420738 1.5661074
27.291933 26.412468 1.5154247
27.242277 26.404564 1.4879385
27.192585 26.396599 1.456453
27.142767 26.388374 1.4089698
27.093128 26.380501 1.3838831
27.043291 26.372246 1.3340006
26.993658 26.364403 1.3097137
26.943853 26.356209 1.2638303
26.894066 26.348045 1.2203465
26.844154 26.339622 1.1608653
26.794268 26.331276 1.1045836
26.74452 26.323189 1.0658991
30.467844 27.080208 0.51798224
30.418411 27.072762 0.5192914
30.369001 27.065346 0.52300048
30.322226 27.063164 0.85945749
30.273062 27.056252 0.89436162
30.223852 27.049248 0.92366648
30.174566 27.042076 0.94337285
30.125113 27.034584 0.94148278
30.075619 27.027 0.93479323
30.02623 27.01963 0.94170165
29.976774 27.012138 0.93981135
29.927299 27.004601 0.93552148
29.877926 26.997261 0.94402981
29.828489 26.989799 0.94453919
29.778996 26.982216 0.93784964
29.729614 26.974861 0.94555795
29.680109 26.967262 0.93726873
29.630671 26.959801 0.93777823
29.581316 26.952507 0.94868588
29.531797 26.944878 0.938797
29.482359 26.937416 0.93930626
29.432903 26.929893 0.93741608
29.383492 26.922493 0.94112504
29.334009 26.91494 0.93603528
29.284624 26.90757 0.94294369
29.23518 26.900108 0.94265318
29.185774 26.892708 0.94716191
29.136332 26.885216 0.94687152
29.086876 26.877708 0.94498134
29.037432 26.870247 0.94469082
28.987982 26.862755 0.94360042
28.938519 26.855247 0.94091046
28.889063 26.84774 0.93902016
28.839626 26.840263 0.93952966
28.790245 26.832924 0.94723785
28.740784 26.825401 0.94454777
28.69129 26.817833 0.93785834
28.641914 26.810493 0.94636655
28.592447 26.802956 0.94287658
28.543022 26.795525 0.94498563
28.493603 26.788094 0.94789469
28.444138 26.780571 0.94440484
28.394737 26.773186 0.94971347
28.345263 26.765648 0.9454236
28.295851 26.758217 0.94913244
28.246082 26.750099 0.90804827
28.196114 26.741585 0.8413682
28.152082 26.744881 1.5241715
28.102627 26.737373 1.5222812
28.05319 26.729912 1.5227906
28.004229 26.723381 1.5832906
27.955404 26.717155 1.661388
27.905962 26.709679 1.6610975
27.856544 26.702248 1.6640066
27.807043 26.694664 1.6565173
27.757662 26.687309 1.6642255
27.707935 26.679253 1.6279407
27.658384 26.671577 1.6140523
27.608809 26.663826 1.5969644
27.559084 26.6558 1.5614794
27.509375 26.647804 1.5275941
27.459679 26.639824 1.4953088
27.409962 26.631783 1.4606236
27.360334 26.623955 1.4371368
27.310453 26.615608 1.3816549
27.26075 26.607613 1.3485695
27.210985 26.599495 1.3074853
27.161249 26.591438 1.2704006
27.111521 26.583382 1.2341157
27.061806 26.575371 1.1994306
34.545994 27.906929 1.0727271
34.496532 27.899422 1.0700371
34.447208 27.892174 1.0849441
34.397739 27.884636 1.0814543
34.348244 27.877068 1.0747646
34.298988 27.869957 1.0976707
34.245594 27.854622 0.59905791
34.198452 27.851723 0.88912201
34.150467 27.84716 1.072803
34.101067 27.83976 1.0781115
34.051605 27.832237 1.0754216
34.002052 27.824547 1.0615332
33.952766 27.81739 1.0812396
33.903191 27.809654 1.0641518
33.853889 27.802452 1.0814584
33.804405 27.794899 1.0763688
33.754971 27.787437 1.0768782
33.705406 27.779716 1.0613902
33.656105 27.77253 1.0794969
33.606392 27.764519 1.0448117
33.55706 27.757271 1.058919
33.506035 27.746635 0.85865951
33.456825 27.739616 0.88796461
33.408955 27.735268 1.0860432
33.359364 27.727516 1.0673556
33.308464 27.71714 0.88309371
33.259399 27.710411 0.93079579
33.211109 27.705223 1.0760827
33.161667 27.697746 1.0757923
33.111862 27.689552 1.0299089
33.062469 27.682182 1.0360174
33.01326 27.675179 1.0653223
32.962421 27.664925 0.88905931
32.914337 27.660133 1.0599421
32.864975 27.652824 1.07005
32.815208 27.644707 1.0289658
32.764824 27.635368 0.91029382
32.716805 27.630714 1.0891756
32.665932 27.620415 0.90891302
32.616325 27.612587 0.88782573
32.568111 27.607567 1.0427111
32.517662 27.598091 0.9160403
32.468048 27.590279 0.89415336
32.418564 27.582726 0.8882637
32.370232 27.577446 1.0279515
32.320007 27.568413 0.92927623
32.270454 27.560722 0.91538787
32.220901 27.553032 0.90149951
32.171436 27.545509 0.89800954
32.122139 27.538322 0.91611624
32.072815 27.53109 0.93102336
32.023094 27.523048 0.89553845
31.973673 27.515617 0.89844751
31.92411 27.507912 0.88295937
31.874775 27.500648 0.8962667
31.825426 27.49337 0.90797436
31.77581 27.485542 0.88608742
31.726374 27.478065 0.8865968
31.676926 27.470589 0.88550639
31.627653 27.463448 0.90681255
31.578152 27.455864 0.89932311
31.528563 27.448097 0.88063562
31.479063 27.440498 0.8731463
31.429777 27.433342 0.89285266
31.380428 27.426048 0.90456033
31.330847 27.418297 0.8866725
31.281372 27.410759 0.88238275
31.231983 27.403404 0.88929117
31.182838 27.396507 0.92659485
31.133156 27.388557 0.89590907
31.083603 27.380867 0.88202071
31.034229 27.373528 0.89052892
30.985071 27.366631 0.92623281
30.935553 27.359001 0.91634381
30.886229 27.351753 0.93125105
30.836798 27.344307 0.93256021
30.787413 27.336937 0.93946874
30.737955 27.329445 0.93757844
30.688499 27.321938 0.93568826
30.639038 27.31443 0.93299818
30.589563 27.306877 0.92870831
30.540174 27.299522 0.93561673
30.490732 27.292046 0.93532634
30.441263 27.284523 0.93183625
30.391821 27.277046 0.93154573
30.342382 27.269585 0.93205523
30.292965 27.262138 0.9349643
30.243504 27.254631 0.9322741
30.194077 27.2472 0.93438327
30.14464 27.239738 0.93489265
30.095198 27.232262 0.93460226
30.045753 27.224785 0.93431187
29.996317 27.217308 0.93482113
29.946892 27.209877 0.9369303
29.897469 27.202431 0.93903947
29.848026 27.194954 0.93874907
29.79855 27.187416 0.93445921
29.749125 27.179985 0.93656838
29.699707 27.172554 0.93947732
29.650244 27.165031 0.93678725
29.600807 27.15757 0.93729675
29.551384 27.150139 0.93940592
29.501951 27.142693 0.94071507
29.45249 27.13517 0.938025
29.40304 27.127678 0.93693471
29.353527 27.120064 0.9278456
29.304178 27.11277 0.93955326
29.254753 27.105339 0.94166243
29.205273 27.097786 0.93657267
29.155869 27.090385 0.9410814
29.106373 27.082802 0.93439198
29.056999 27.075462 0.94290018
29.00753 27.06794 0.93941021
28.958099 27.060493 0.94071937
28.908655 27.053017 0.94042909
28.859194 27.045509 0.9377389
28.80978 27.038078 0.94144785
28.760357 27.030647 0.94355702
28.710939 27.023216 0.94646597
28.661489 27.015739 0.94537568
28.612047 27.008263 0.94508529
28.562494 27.000557 0.93119681
28.512621 26.992226 0.87651479
28.462936 26.984276 0.84582901
28.41353 26.976875 0.85033786
28.369398 26.979973 1.5203431
28.319942 26.972466 1.5184529
28.270504 26.964989 1.5189623
28.222197 26.95977 1.6618495
28.172665 26.952126 1.6503608
28.123253 26.94471 1.6540697
28.073866 26.937355 1.6609781
28.024378 26.929787 1.6550884
27.974854 26.922142 1.6443996
27.925188 26.914223 1.6161137
27.875463 26.906197 1.5806286
27.825977 26.898628 1.574739
27.776337 26.89077 1.5496523
27.726671 26.882851 1.5213662
27.676975 26.874855 1.4890808
27.627228 26.866768 1.4503963
27.577765 26.859261 1.4477062
27.52784 26.850822 1.3866252
27.478168 26.842903 1.3575392
27.428434 26.834846 1.3204545
27.378592 26.826561 1.2697718
34.515076 28.102608 0.93946636
34.465626 28.095116 0.93837607
34.416176 28.087639 0.93728566
34.366764 28.080208 0.94099462
34.317291 28.07267 0.93670464
34.26786 28.065224 0.93801403
34.218433 28.057793 0.94012332
34.168968 28.05027 0.937433
34.119545 28.042839 0.93954229
34.070095 28.035332 0.93845177
34.020622 28.027794 0.93416202
33.971203 28.020378 0.93707108
33.921738 28.012856 0.93358099
33.872269 28.005333 0.93089104
33.822899 27.998009 0.939399
33.77346 27.990532 0.9399085
33.724014 27.98304 0.93881822
33.674549 27.975533 0.93612802
33.625137 27.968117 0.93983698
33.575657 27.960564 0.93474722
33.526218 27.953102 0.93525672
33.476822 27.945702 0.94056547
33.427357 27.938194 0.93787527
33.377937 27.930763 0.94078434
33.328476 27.923256 0.93809414
33.27906 27.91584 0.9410032
33.229584 27.908302 0.93671334
33.180176 27.900887 0.94122219
33.130695 27.893333 0.93613243
33.081261 27.885872 0.93664181
33.031841 27.878441 0.93955088
32.98241 27.870995 0.94086015
32.932892 27.863365 0.93097126
32.883499 27.85598 0.93707967
32.834091 27.848579 0.94158852
32.784622 27.841057 0.93809843
32.73518 27.83358 0.93780804
32.68573 27.826103 0.93671775
32.636299 27.818657 0.93802702
32.586861 27.81118 0.93853641
32.537437 27.803734 0.94064546
32.487984 27.796242 0.93875527
32.438492 27.788673 0.93286574
32.389099 27.781303 0.93897426
32.339676 27.773872 0.94108343
32.290222 27.76635 0.93919325
32.240715 27.758751 0.93090391
32.191341 27.751411 0.93941212
32.141876 27.743904 0.93672204
32.092407 27.736382 0.93323207
32.042992 27.728951 0.93614101
31.993523 27.721413 0.93265116
31.944132 27.714043 0.93875968
31.894655 27.706505 0.93446982
31.845205 27.699013 0.93337941
31.795826 27.691673 0.94108772
31.746349 27.684135 0.93679798
31.696932 27.676689 0.93970704
31.64747 27.669182 0.93701684
31.598038 27.661736 0.93832612
31.548582 27.654228 0.93643594
31.499233 27.64695 0.9481436
31.449715 27.639305 0.93825459
31.400213 27.631721 0.93076527
31.350821 27.624352 0.93687379
31.301384 27.61689 0.93738317
31.25198 27.609489 0.94189203
31.202503 27.601952 0.93760216
31.153004 27.594353 0.93011284
31.103592 27.586937 0.93382168
31.054102 27.579369 0.92793202
31.004698 27.571968 0.932441
30.955286 27.564568 0.93614984
30.905785 27.556984 0.92866039
30.856373 27.549553 0.93236935
30.8069 27.542015 0.92807949
30.757513 27.534645 0.93498802
30.708071 27.527184 0.93469739
30.658588 27.51963 0.92960775
30.609138 27.512138 0.92851734
30.559727 27.504723 0.93222618
30.510277 27.497231 0.93113601
30.460865 27.489815 0.93484485
30.411415 27.482338 0.93375444
30.361952 27.474815 0.93106437
30.312529 27.467384 0.93317366
30.263092 27.459908 0.93368304
30.213636 27.4524 0.93179274
30.16419 27.444939 0.93150222
30.114729 27.437416 0.92881215
30.065361 27.430092 0.93812025
30.015894 27.422569 0.93463027
29.966469 27.415123 0.93673944
29.917 27.4076 0.93324947
29.867588 27.400185 0.93695831
29.818144 27.392708 0.93666792
29.768663 27.385155 0.93157816
29.719208 27.377663 0.92968798
29.669788 27.370216 0.93259692
29.620365 27.362785 0.93470609
29.570902 27.355278 0.93201613
29.521465 27.347816 0.9325254
29.472023 27.34034 0.932235
29.422565 27.332832 0.9303447
29.373178 27.325462 0.93725312
29.323769 27.318047 0.94096208
29.274298 27.310524 0.93747211
29.224899 27.303139 0.94278073
29.175419 27.295586 0.93769097
29.125954 27.288078 0.9350009
29.076555 27.280678 0.94030964
29.027113 27.273201 0.94001913
28.977682 27.265755 0.94132841
28.928314 27.25843 0.95063639
28.87887 27.250954 0.95034599
28.829174 27.242973 0.91806054
28.779091 27.234215 0.83698261
28.729469 27.226387 0.81429553
28.685591 27.229988 1.5162958
28.636198 27.222618 1.5224044
28.58674 27.215111 1.5205142
28.53816 27.209343 1.6290067
28.488926 27.202278 1.6551123
28.439476 27.194801 1.6540217
28.390041 27.18734 1.6545312
28.34059 27.179848 1.653441
28.291121 27.172325 1.649951
28.241621 27.164726 1.6424615
28.191975 27.156837 1.616575
28.142416 27.149147 1.601887
28.092815 27.14135 1.5815995
28.043156 27.133446 1.5541133
27.993458 27.125465 1.5218277
27.943762 27.117485 1.4895422
27.894135 27.109642 1.4660554
27.844393 27.10157 1.4281708
27.79476 27.093712 1.4038841
27.744982 27.085579 1.3612001
27.695194 27.077415 1.3177164
27.64572 27.069862 1.3134266
27.595953 27.061745 1.2723424
27.546162 27.053581 1.2280588
27.496349 27.045372 1.1813755
27.446533 27.037163 1.1338924
27.396666 27.028847 1.0800104
27.346992 27.020897 1.0509243
34.485207 28.300392 0.93898487
34.435783 28.292946 0.94109416
34.386276 28.285347 0.93280482
34.336834 28.277855 0.93251443
34.287399 28.270393 0.93302369
34.238014 28.263039 0.93993223
34.188568 28.255562 0.93964183
34.139114 28.24807 0.93775153
34.089661 28.240578 0.93666124
34.040245 28.233131 0.93957007
33.990784 28.225624 0.93688011
33.941368 28.218208 0.94058907
33.891895 28.21067 0.93629909
33.842445 28.203194 0.9352088
33.792984 28.195686 0.9325186
33.743576 28.188271 0.93702745
33.694183 28.180885 0.9431361
33.644703 28.173347 0.93804622
33.595245 28.16584 0.93615615
33.545784 28.158333 0.93346596
33.496338 28.150856 0.93317556
33.446899 28.143364 0.93288517
33.397507 28.135994 0.93899345
33.348083 28.128563 0.94110274
33.298637 28.121086 0.94081211
33.249161 28.113548 0.93652248
33.199722 28.106087 0.93703198
33.150299 28.09864 0.93914092
33.100849 28.091148 0.93805075
33.051376 28.083611 0.93376076
33.001991 28.076256 0.94066918
32.952526 28.068733 0.9379791
32.903046 28.06118 0.93288946
32.853634 28.053764 0.9365983
32.804184 28.046272 0.93550801
32.75473 28.03878 0.93441761
32.70533 28.031395 0.93892634
32.655891 28.023933 0.93943584
32.60651 28.016579 0.94714403
32.557003 28.008965 0.93885481
32.507545 28.001457 0.93696463
32.458107 27.993996 0.93667412
32.408691 27.98658 0.94038308
32.359211 27.979027 0.93529344
32.309799 27.971611 0.93900228
32.260323 27.964058 0.93471241
32.210869 27.956566 0.93282211
32.161453 27.949135 0.93573129
32.112 27.941658 0.93464088
32.062508 27.934074 0.92795134
32.013145 27.926765 0.93805933
31.963652 27.919182 0.9313699
31.914221 27.911736 0.93267918
31.864777 27.904259 0.93238866
31.815315 27.896751 0.92969859
31.765884 27.88929 0.93100786
31.716452 27.881844 0.93231714
31.667004 27.874352 0.93122685
31.617579 27.866905 0.9333359
31.568167 27.859505 0.93704486
31.518684 27.851952 0.9319551
31.469261 27.844505 0.93406439
31.419838 27.837059 0.93617344
31.370405 27.829613 0.93748271
31.320982 27.822182 0.93959188
31.271488 27.814598 0.93290234
31.222038 27.807106 0.93181205
31.1726 27.799644 0.93232143
31.123188 27.792229 0.93603039
31.073694 27.784645 0.92934084
31.024288 27.777245 0.93384957
30.974833 27.769753 0.93195951
30.925377 27.762245 0.93006921
30.875982 27.754875 0.93617773
30.826508 27.747322 0.93188787
30.777079 27.739876 0.93319714
30.727604 27.732338 0.92890739
30.678186 27.724922 0.93181634
30.628773 27.717506 0.9355253
30.579298 27.709969 0.93123543
30.529842 27.702461 0.92934513
30.480461 27.695107 0.93705356
30.430948 27.687492 0.92796445
30.381531 27.680077 0.93087339
30.332125 27.672676 0.93538213
30.282669 27.665169 0.93349206
30.233244 27.657722 0.93560123
30.183802 27.650246 0.93531072
30.134333 27.642723 0.93182075
30.084877 27.635216 0.92993045
30.035452 27.627785 0.93203974
29.986004 27.620293 0.93094933
29.936552 27.612801 0.92985892
29.88714 27.605385 0.93356788
29.837673 27.597862 0.93007779
29.788235 27.590401 0.93058729
29.738829 27.583 0.93509614
29.689348 27.575447 0.93000638
29.639961 27.568077 0.9369148
29.590494 27.560555 0.93342471
29.541069 27.553108 0.935534
29.491695 27.545784 0.94404221
29.442177 27.538155 0.93415308
29.392807 27.53083 0.94346118
29.34334 27.523293 0.93997121
29.29389 27.5158 0.93888092
29.244476 27.5084 0.94258976
29.194983 27.500816 0.93590033
29.145248 27.49276 0.89881551
29.095284 27.484261 0.83293521
29.045664 27.476418 0.81024837
29.001785 27.480019 1.5122485
28.952381 27.472618 1.5167574
28.903006 27.465279 1.5252655
28.853765 27.458214 1.5505711
28.805197 27.452477 1.6606635
28.755678 27.444832 1.6507745
28.706264 27.437416 1.6544833
28.656759 27.429817 1.6461941
28.607386 27.422493 1.6547023
28.557877 27.414879 1.6464131
28.508251 27.407036 1.6229262
28.458567 27.399071 1.5922405
28.408964 27.391289 1.5719531
28.359522 27.383812 1.5716627
28.309862 27.375908 1.5441765
28.260178 27.367958 1.5134907
28.210489 27.359978 1.4820051
28.160847 27.352104 1.4569184
28.111309 27.344444 1.4446299
28.061562 27.336372 1.4059453
28.011793 27.328255 1.3648612
27.962091 27.320259 1.3317758
27.912472 27.312416 1.3090888
34.455334 28.498116 0.93690395
34.405846 28.490562 0.93101454
34.3564 28.483086 0.93072391
34.306992 28.475655 0.93443286
34.257572 28.468239 0.93734181
34.208111 28.460716 0.93465173
34.158672 28.453255 0.93516123
34.109249 28.445824 0.93727028
34.059799 28.438332 0.93618
34.010315 28.430779 0.93109012
33.960907 28.423363 0.93479919
33.911423 28.41581 0.92970955
33.862038 28.408455 0.93661785
33.812576 28.400932 0.93392777
33.763123 28.393456 0.93283725
33.713722 28.38604 0.93734622
33.664265 28.378532 0.93545604
33.614777 28.370979 0.92956638
33.565376 28.363594 0.93487501
33.515938 28.356133 0.93538427
33.466499 28.348671 0.93589377
33.417027 28.341118 0.93160415
33.367599 28.333672 0.93291318
33.318172 28.326225 0.93502247
33.268715 28.318733 0.93313217
33.219276 28.311272 0.93364167
33.169823 28.303764 0.93175149
33.120365 28.296257 0.92986107
33.070953 28.288841 0.93357015
33.021568 28.281487 0.94047832
32.972054 28.273872 0.93138933
32.922615 28.266411 0.93189883
32.873154 28.258904 0.92920864
32.82373 28.251442 0.93131781
32.774315 28.244026 0.93422687
32.724884 28.23658 0.93553615
32.675423 28.229057 0.93284607
32.625977 28.221581 0.93255568
32.576546 28.214134 0.93386483
32.527077 28.206596 0.93037486
32.477661 28.199181 0.93328393
32.428196 28.191658 0.93059373
32.378761 28.184196 0.93110323
32.329342 28.176781 0.93401229
32.279884 28.169273 0.93212199
32.230415 28.161736 0.92863202
32.181 28.15432 0.93154109
32.13158 28.146889 0.93445015
32.082123 28.139397 0.93255997
32.032722 28.132011 0.9378686
31.983231 28.124428 0.93117905
31.933783 28.116936 0.93008888
31.884375 28.109535 0.93459761
31.834908 28.102013 0.93110764
31.785471 28.094551 0.93161702
31.736046 28.087105 0.93372607
31.686602 28.079628 0.93343568
31.637127 28.072075 0.92914581
31.587666 28.064568 0.92645574
31.538273 28.057198 0.93256426
31.488829 28.049721 0.93227375
31.43943 28.042336 0.93758249
31.38998 28.034828 0.9364922
31.340504 28.02729 0.93220234
31.291029 28.019753 0.92791235
31.241655 28.012428 0.93642056
31.192257 28.005043 0.94172931
31.142756 27.997444 0.93423986
31.0933 27.989937 0.93234968
31.043793 27.982338 0.92406046
30.994392 27.974953 0.92936909
30.945002 27.967583 0.93547773
30.895508 27.959999 0.92878819
30.846102 27.952599 0.93329692
30.796671 27.945137 0.93460619
30.747234 27.937675 0.93511558
30.697771 27.930168 0.93242562
30.648327 27.922691 0.93213511
30.598942 27.915337 0.93904352
30.549492 27.907845 0.93795311
30.499979 27.900215 0.928864
30.450554 27.892784 0.93097329
30.401136 27.885353 0.93388224
30.351706 27.877907 0.93519151
30.302181 27.870262 0.92450261
30.252724 27.86277 0.92261243
30.203337 27.8554 0.92952085
30.15387 27.847862 0.92603087
30.10445 27.840446 0.92893994
30.055006 27.83297 0.92864943
30.005602 27.825569 0.93315828
29.956182 27.818153 0.93606734
29.906757 27.810692 0.93817639
29.857258 27.803108 0.93068707
29.80784 27.795692 0.93359613
29.758448 27.788307 0.93970466
29.709042 27.780907 0.94421339
29.659554 27.773354 0.93832386
29.609985 27.765602 0.92203581
29.560242 27.757545 0.88415122
29.510134 27.748741 0.79987383
29.460691 27.741264 0.79958344
29.416925 27.745094 1.5159814
29.367544 27.737755 1.5236896
29.318014 27.73008 1.5122008
29.268627 27.722725 1.5191094
29.220051 27.716972 1.6284018
29.170792 27.709862 1.6513077
29.121361 27.702415 1.652617
29.071913 27.694923 1.6515267
29.022469 27.687447 1.6512363
28.973 27.679924 1.6477462
28.923519 27.672371 1.6426566
28.874029 27.664803 1.6367669
28.82444 27.657036 1.6180794
28.774662 27.648903 1.5753955
28.725237 27.641441 1.5775046
28.675539 27.633461 1.5452191
28.626007 27.625816 1.5337303
28.576412 27.618034 1.5142429
28.526787 27.610207 1.490756
28.477133 27.602287 1.4640696
28.427467 27.594383 1.4357835
28.377796 27.586449 1.4066975
34.425407 28.695778 0.92842388
34.375992 28.688362 0.93213284
34.326515 28.680824 0.92784286
34.277119 28.673424 0.9331516
34.227676 28.665947 0.93286097
34.178207 28.658424 0.92937112
34.128769 28.650963 0.92988062
34.079315 28.643456 0.9279902
34.0299 28.636055 0.93169928
33.980438 28.628517 0.92900896
33.931007 28.621071 0.93031836
33.881527 28.613533 0.92522871
33.832096 28.606071 0.92653787
33.782707 28.598717 0.93344641
33.733253 28.591209 0.93155599
33.683815 28.583733 0.93206549
33.634354 28.576225 0.92937553
33.5849 28.568733 0.92748511
33.535473 28.561287 0.9295944
33.486023 28.55381 0.92850387
33.436592 28.546364 0.92981327
33.387142 28.538857 0.9287231
33.337685 28.531349 0.92683268
33.288246 28.523888 0.92654228
33.238831 28.516472 0.93025112
33.189362 28.508949 0.92676115
33.139957 28.501549 0.93127012
33.0905 28.494026 0.9293797
33.041115 28.486671 0.93628812
32.991615 28.479088 0.92879868
32.9422 28.471657 0.93170786
32.892761 28.464195 0.93221736
32.843269 28.456642 0.92632759
32.793831 28.44915 0.92603719
32.744408 28.441719 0.92894626
32.695004 28.434319 0.93345499
32.645531 28.426781 0.92916524
32.596085 28.419319 0.92887461
32.546635 28.411827 0.92778432
32.497215 28.404381 0.93069339
32.447781 28.396919 0.93120277
32.398331 28.389442 0.93011236
32.348877 28.381935 0.92822218
32.299484 28.374565 0.9343307
32.249985 28.366982 0.92684138
32.200562 28.359535 0.92975044
32.151146 28.352119 0.93265939
32.101677 28.344597 0.92916954
32.052254 28.337151 0.93127871
32.002785 28.329628 0.92778862
31.953373 28.322212 0.93149757
31.903929 28.314735 0.93120718
31.854465 28.307213 0.9285171
31.805035 28.299767 0.92982626
31.755587 28.29229 0.92873597
31.706205 28.284935 0.93644416
31.65675 28.277428 0.9345541
31.607267 28.269875 0.92946434
31.557825 28.262398 0.92917383
31.508389 28.254936 0.92968321
31.458937 28.247444 0.9285928
31.409527 28.240044 0.93230188
31.360064 28.232506 0.92961168
31.310625 28.225044 0.93012106
31.261196 28.217598 0.93143034
31.21179 28.210197 0.93593907
31.162329 28.20269 0.93324912
31.112915 28.195274 0.93695796
31.063448 28.187737 0.93346798
31.013985 28.180229 0.93077791
30.964508 28.172691 0.92648804
30.915104 28.165291 0.93099689
30.865654 28.157799 0.92990649
30.816212 28.150322 0.92961597
30.766748 28.142799 0.9269259
30.71735 28.135414 0.93223453
30.667894 28.127922 0.93034446
30.618505 28.120552 0.93725276
30.569038 28.113029 0.93376279
30.519583 28.105537 0.93187261
30.470114 28.097984 0.92838264
30.420689 28.090553 0.93049181
30.37134 28.083275 0.94219947
30.321898 28.075798 0.94190896
30.272461 28.068336 0.94241834
30.22294 28.060707 0.93252945
30.173534 28.053291 0.93703818
30.124086 28.045815 0.9359479
30.074501 28.038063 0.91806006
30.024729 28.02993 0.87617612
29.974716 28.021324 0.8038969
29.925264 28.013832 0.8028065
29.875593 28.005882 0.7737205
29.831982 28.010017 1.5093155
29.782526 28.00251 1.5074253
29.733122 27.995125 1.5119342
29.683695 27.987679 1.5140433
29.635342 27.982384 1.6513313
29.585894 27.974876 1.650241
29.536404 27.967308 1.6443514
29.487019 27.959953 1.6512599
29.437555 27.952446 1.6485698
29.388098 27.944939 1.6466795
29.338675 27.937508 1.6487887
29.289093 27.929741 1.6309009
29.239618 27.922203 1.6266112
29.189856 27.914101 1.5863268
29.140165 27.906136 1.5548413
29.090786 27.898781 1.5625495
29.041349 27.891319 1.5630589
28.991695 27.883415 1.5363727
28.942032 27.875496 1.5080864
28.892443 27.867729 1.4893988
28.842884 27.860039 1.4747106
28.793371 27.852425 1.4656216
28.743593 27.844276 1.4229376
28.693983 27.836464 1.4018505
28.644312 27.828529 1.3727643
28.594635 27.820595 1.3428786
34.395592 28.893639 0.93434167
34.346138 28.886131 0.93245149
34.296684 28.878654 0.93136096
34.247223 28.871117 0.928671
34.197762 28.863609 0.92598081
34.148323 28.856148 0.92649031
34.098862 28.84864 0.92380023
34.049431 28.841179 0.92510939
