# .PCD v0.7 - Point Cloud Data file format
VERSION 0.7
FIELDS x y z
SIZE 4 4 4
TYPE F F F
COUNT 1 1 1
WIDTH 1313
HEIGHT 1
VIEWPOINT 0 0 0 1 0 0 0
POINTS 1313
DATA ascii
136.2 10.5 -1.0048
134.2 11.15 -1.08
136.2 10.45 -0.85439998
134.2 11.1 -0.90640002
136.2 10.4 -0.704
134.2 11.05 -0.71039999
136.2 10.325001 -0.4788
134.2 11 -0.51440001
132.60001 11.25 -0.47440001
132.8 11.25 -0.54400003
136.2 10.25 -0.25279999
134 10.95 -0.2032
134.2 10.924999 -0.2676
132.60001 11.15 -0.20479999
132.8 11.15 -0.2392
133.2 11.1 -0.26640001
133.60001 11.05 -0.29120001
133.8 11 -0.27200001
132.60001 11.2 -0.31760001
132.8 11.2 -0.39199999
139.39999 0.30000001 -0.0055999998
139.2 4.1500001 -0.1288
139.2 4.2249999 -0.12639999
139 4.5250001 -0.087200001
139 4.625 -0.116
138.8 4.8999996 -0.12746666
138.60001 5.125 -0.1364
136.2 10.2 -0.1024
135.60001 10.4 -0.0040000002
134.60001 10.75 -0.079999998
134.8 10.7 -0.104
135 10.625 -0.0748
133.39999 10.95 -0.0096000005
133.60001 10.95 -0.068000004
133.8 10.924999 -0.081599995
134 10.875 -0.0744
134.2 10.85 -0.084799998
134.39999 10.8 -0.095200002
134.60001 10.8 -0.17200001
132.60001 11.1 -0.062399998
132.8 11.075001 -0.082000002
133 11.075001 -0.12799999
133.2 11.025 -0.077599995
133.39999 11.025 -0.15360001
133.60001 11 -0.1728
140.8 1.925 0.1816
140.8 2.0833333 0.17999999
140.8 2.2 0.1744
140.60001 3.1500001 0.18080001
140.60001 3.25 0.17226666
140.39999 3.9250002 0.17839999
140.39999 4 0.148
140.2 4.5250001 0.1672
140.2 4.5999999 0.13680001
140 5.0250001 0.15560001
138.39999 5.3499999 0.1928
138.60001 5.1999998 0.1952
134.60001 5.5250001 0.1312
139.8 5.4749999 0.17
134.60001 5.6750002 0.14999999
134.8 5.6999998 0.1648
134.60001 5.8749995 0.12539999
134.8 5.9000001 0.19679999
135 5.8249998 0.16839999
139.60001 5.8249998 0.16760001
132.60001 6.0749998 0.1664
132.8 6.0500002 0.1384
133 6.0500002 0.1488
133.39999 6.0999999 0.1848
133.8 6.0500002 0.19679999
134 6.0500002 0.1552
134.2 6.0250001 0.13240001
134.39999 6.0500002 0.1312
134.60001 6 0.1096
134.8 6.0250001 0.1928
135 6.0250001 0.16600001
135.2 6.0500002 0.1736
135.39999 6.0500002 0.17039999
135.60001 6.0500002 0.1664
135.8 6.0500002 0.168
136 6.0500002 0.1568
139.39999 6.1500001 0.1816
139.39999 6.1999998 0.1856
139.2 6.4499998 0.17120001
139 6.7249999 0.1788
138.8 7 0.17839999
138.60001 7.1999998 0.184
138.39999 7.4250002 0.1944
137.39999 9.3999996 0.1944
136.8 9.75 0.1776
136.60001 9.8999996 0.1104
136.8 9.8000002 0.1216
136 10.15 0.16320001
136.2 10.1 0.097866677
136.39999 10.025 0.065200001
135.39999 10.35 0.1928
135.60001 10.325001 0.13240001
135.8 10.275 0.080799997
136 10.2 0.067199998
134.8 10.55 0.17200001
135 10.525 0.132
135.2 10.475 0.1028
135.39999 10.424999 0.083200008
134 10.75 0.1768
134.2 10.725 0.1408
134.39999 10.7 0.098400004
134.60001 10.65 0.10639999
134.8 10.625 0.051999997
132.8 10.95 0.1568
133 10.95 0.1232
133.2 10.924999 0.12
133.39999 10.875 0.1476
133.60001 10.875 0.079600006
133.8 10.825001 0.1136
134 10.8 0.089599997
134.2 10.8 0.00079999998
132.60001 11.025 0.071999997
132.8 11 0.079999998
133 11 0.0272
139.60001 0.075000003 0.3396
139.8 0.075000003 0.3398
140 0.075000003 0.3396
140.2 0.075000003 0.3396
140.39999 0.075000003 0.34380001
140.60001 0.075000003 0.3452
140.8 0.075000003 0.34920001
139.39999 0.34999999 0.28400001
139.60001 0.27500001 0.33660001
139.8 0.27500001 0.33900002
140 0.27500001 0.34039998
140.2 0.27500001 0.33719999
140.39999 0.27500001 0.33539999
140.60001 0.27499998 0.34100002
140.8 0.27500001 0.3484
139.60001 0.47499996 0.33379999
139.8 0.47500002 0.3378
140 0.47500002 0.33520001
140.2 0.47499999 0.33419999
140.39999 0.47500002 0.33540002
140.60001 0.47500002 0.33740002
140.8 0.47500002 0.3448
139.60001 0.67500001 0.33040002
139.8 0.67499995 0.3326
140 0.67500001 0.33540002
140.2 0.67499995 0.33399999
140.39999 0.67500001 0.33320001
140.60001 0.67499995 0.33739999
140.8 0.67499995 0.34620002
139.60001 0.87499994 0.32980001
139.8 0.875 0.333
140 0.87499994 0.33200002
140.2 0.875 0.32980001
140.39999 0.875 0.33219999
140.60001 0.875 0.33579999
140.8 0.875 0.34439999
139.39999 1.075 0.2608
139.60001 1.075 0.329
139.8 1.0749999 0.32980001
140 1.075 0.32999998
140.2 1.075 0.32699999
140.39999 1.075 0.32980001
140.60001 1.075 0.3328
140.8 1.075 0.34240001
139.39999 1.275 0.2924
139.60001 1.2750001 0.3276
139.8 1.2750001 0.32960001
140 1.275 0.32620001
140.2 1.275 0.32640001
140.39999 1.275 0.32620001
140.60001 1.2750001 0.33099997
140.8 1.275 0.3364
139.60001 1.4749999 0.32460001
139.8 1.4749999 0.32679999
140 1.475 0.32640001
140.2 1.475 0.3272
140.39999 1.4749999 0.32600001
140.60001 1.475 0.32820001
140.8 1.475 0.322
139.39999 1.6 0.2712
139.60001 1.675 0.32119998
139.8 1.675 0.32200003
140 1.675 0.32260001
140.2 1.675 0.32160002
140.39999 1.675 0.32480001
140.60001 1.675 0.331
140.8 1.675 0.27919999
139.39999 1.8833332 0.2816
139.60001 1.8749999 0.31999999
139.8 1.875 0.32620001
140 1.875 0.3204
140.2 1.875 0.31999999
140.39999 1.875 0.32280001
140.60001 1.8750001 0.32880002
140.8 1.825 0.22240001
139.39999 2.1000001 0.27653334
139.60001 2.075 0.31799999
139.8 2.0749998 0.3204
140 2.0749998 0.31819999
140.2 2.0749998 0.31980002
140.39999 2.0749998 0.32299998
140.60001 2.0749998 0.3276
140.8 2.05 0.2024
139.39999 2.3 0.2904
139.60001 2.2750001 0.31580001
139.8 2.2749999 0.31660002
140 2.2749999 0.31559998
140.2 2.2750001 0.31639999
140.39999 2.2749999 0.32119998
140.60001 2.2750001 0.3242
139.39999 2.4749999 0.2834
139.60001 2.4749999 0.31079999
139.8 2.4749999 0.31200001
140 2.4749999 0.31479999
140.2 2.4750001 0.3152
140.39999 2.4749999 0.31620002
140.60001 2.4749999 0.3224
139.39999 2.675 0.2676
139.60001 2.6750002 0.31099999
139.8 2.6750002 0.30840001
140 2.675 0.31260002
140.2 2.6750002 0.3136
140.39999 2.675 0.31639999
140.60001 2.6749997 0.3256
139.39999 2.875 0.26040003
139.60001 2.875 0.31
139.8 2.875 0.30840001
140 2.8749998 0.3082
140.2 2.875 0.3114
140.39999 2.8749998 0.31659999
140.60001 2.8750002 0.3116
139.39999 3.0749998 0.2536
139.60001 3.075 0.30840001
139.8 3.0749998 0.30779999
140 3.0749998 0.31040001
140.2 3.075 0.30879998
140.39999 3.075 0.31420001
140.60001 3.05 0.23413332
139.39999 3.2749999 0.25580001
139.60001 3.2750001 0.3064
139.8 3.2750001 0.30500001
140 3.2749999 0.30880001
140.2 3.2750001 0.31099999
140.39999 3.2750001 0.31520003
139.39999 3.4749999 0.26179999
139.60001 3.4749999 0.29699999
139.8 3.4750001 0.30159998
140 3.4749999 0.30199999
140.2 3.4750001 0.30500001
140.39999 3.4750001 0.31279999
139.39999 3.6750002 0.28759998
139.60001 3.6750002 0.29520002
139.8 3.675 0.29960001
140 3.6749997 0.3026
140.2 3.675 0.30219999
140.39999 3.6750002 0.30839998
139.39999 3.875 0.29540002
139.60001 3.8750002 0.29380003
139.8 3.8750002 0.29659998
140 3.8750002 0.303
140.2 3.8749998 0.30379999
140.39999 3.8249998 0.25479999
139.39999 4.0749998 0.28979999
139.60001 4.0749998 0.29280001
139.8 4.0749998 0.294
140 4.0749998 0.2978
140.2 4.0749998 0.30419999
139.2 4.3249998 0.22839999
139.39999 4.2749996 0.28759998
139.60001 4.2750001 0.29020002
139.8 4.2750001 0.2956
140 4.2750001 0.28920001
140.2 4.2749996 0.30339998
139.2 4.4749999 0.28580001
139.39999 4.4749999 0.28739998
139.60001 4.4750004 0.28899997
139.8 4.4749999 0.28980002
140 4.4749999 0.29320002
140.2 4.4250002 0.26199999
139 4.7249999 0.22
139.2 4.6750002 0.28820002
139.39999 4.6750002 0.28819999
139.60001 4.6750002 0.28960001
139.8 4.6750002 0.28759998
140 4.6750002 0.29500002
139 4.875 0.28600001
139.2 4.875 0.2872
139.39999 4.875 0.28560001
139.60001 4.875 0.28380001
139.8 4.875 0.28839999
140 4.875 0.27959999
138.8 5.0750003 0.26320001
139 5.0749998 0.2834
139.2 5.0749998 0.28500003
139.39999 5.0749998 0.28559998
139.60001 5.0749998 0.2814
139.8 5.0749998 0.29179999
138.60001 5.2999997 0.25440001
138.8 5.2750001 0.28380001
139 5.2749996 0.28740001
139.2 5.2749996 0.28119999
139.39999 5.2749996 0.28119999
139.60001 5.2749996 0.2872
139.8 5.2749996 0.28980002
138.2 5.5500002 0.2088
138.39999 5.4749999 0.24960002
138.60001 5.4749999 0.2814
138.8 5.4750004 0.28459999
139 5.4749999 0.28
139.2 5.4750004 0.2852
139.39999 5.4749999 0.2814
139.60001 5.4750004 0.28380001
139.8 5.4000001 0.248
134.8 5.75 0.2024
138 5.6999993 0.23546667
138.2 5.6750002 0.27020001
138.39999 5.6749997 0.27680001
138.60001 5.6749997 0.27899998
138.8 5.6750002 0.28200001
139 5.6750002 0.27779999
139.2 5.6750002 0.2798
139.39999 5.6750002 0.2802
139.60001 5.6750002 0.2836
134.8 5.8000002 0.2008
135 5.9250002 0.21079999
137.39999 5.9499998 0.21520001
137.60001 5.9250002 0.2436
137.8 5.875 0.25640002
138 5.875 0.26480001
138.2 5.8749995 0.27320001
138.39999 5.8749995 0.27599999
138.60001 5.8749995 0.27700001
138.8 5.8749995 0.28100002
139 5.875 0.27719998
139.2 5.875 0.278
139.39999 5.875 0.28280002
132.60001 6.1500001 0.27039999
132.8 6.125 0.234
133 6.125 0.23800001
133.2 6.125 0.23480001
133.39999 6.1500001 0.25279999
133.60001 6.125 0.23719999
133.8 6.125 0.2272
134 6.125 0.2332
134.2 6.0999999 0.2
134.39999 6.0999999 0.31920001
134.60001 6.0749998 0.34680003
134.8 6.125 0.27680001
135 6.125 0.2436
135.2 6.125 0.24079999
135.39999 6.125 0.2428
135.60001 6.125 0.23679999
135.8 6.125 0.2392
136 6.125 0.24079999
136.2 6.125 0.2436
136.39999 6.125 0.2392
136.60001 6.125 0.25319999
136.8 6.125 0.2484
137 6.0999999 0.24666667
137.2 6.0749998 0.2476
137.39999 6.0749998 0.25939998
137.60001 6.0750003 0.2604
137.8 6.0749998 0.264
138 6.0749998 0.264
138.2 6.0749998 0.27680001
138.39999 6.0749998 0.27239999
138.60001 6.0749998 0.27639997
138.8 6.0750003 0.27539998
139 6.0749998 0.2748
139.2 6.0750003 0.27920002
139.39999 6.0500007 0.25440001
132.60001 6.2750001 0.2782
132.8 6.2750001 0.30000001
133 6.2749996 0.27900001
133.2 6.2749996 0.27900001
133.39999 6.2750001 0.26019999
133.60001 6.2749996 0.259
133.8 6.1999998 0.30000001
134.8 6.2750001 0.30899999
135 6.2749996 0.2622
135.2 6.2749996 0.2604
135.39999 6.2750001 0.25919998
135.60001 6.2750001 0.25600001
135.8 6.2750001 0.26159999
136 6.2749996 0.2604
136.2 6.2749996 0.26019999
136.39999 6.2749996 0.25799999
136.60001 6.2749996 0.25800002
136.8 6.2749996 0.2586
137 6.2750001 0.25760001
137.2 6.2749996 0.25979999
137.39999 6.2749996 0.25840002
137.60001 6.2749996 0.26239997
137.8 6.2749996 0.26420003
138 6.2749996 0.26360002
138.2 6.2750006 0.27340001
138.39999 6.2749996 0.27320001
138.60001 6.2749996 0.2744
138.8 6.2750001 0.27500001
139 6.2750001 0.27920002
139.2 6.2749996 0.27880001
132.60001 6.4000001 0.37599999
133 6.4000001 0.29519999
133.2 6.4750004 0.27939999
133.39999 6.4750004 0.2572
133.60001 6.4000001 0.24240001
134.8 6.4749999 0.31999999
135 6.4750004 0.26199999
135.2 6.4750004 0.25960001
135.39999 6.4750004 0.2588
135.60001 6.4750004 0.26160002
135.8 6.4750004 0.2622
136 6.4750004 0.25919998
136.2 6.4750004 0.2606
136.39999 6.4750004 0.25940001
136.60001 6.4749999 0.25739998
136.8 6.4749999 0.25620002
137 6.4750004 0.25839999
137.2 6.4750004 0.25999999
137.39999 6.4750004 0.25840002
137.60001 6.4750004 0.2554
137.8 6.4750004 0.2604
138 6.4749999 0.2606
138.2 6.4749999 0.27060002
138.39999 6.4749994 0.27020001
138.60001 6.4749999 0.271
138.8 6.4749999 0.2744
139 6.4750004 0.2784
139.2 6.4000001 0.2384
133.2 6.5999999 0.38640001
134.8 6.6749997 0.32600001
135 6.6749997 0.2554
135.2 6.6749997 0.25419998
135.39999 6.6750002 0.25639999
135.60001 6.6750002 0.257
135.8 6.6750002 0.25600001
136 6.6750002 0.2554
136.2 6.6750002 0.25580001
136.39999 6.6749997 0.25560001
136.60001 6.6750002 0.25580001
136.8 6.6749997 0.25599998
137 6.6749997 0.25620002
137.2 6.6750002 0.259
137.39999 6.6750002 0.2568
137.60001 6.6750002 0.25620002
137.8 6.6750002 0.25980002
138 6.6750002 0.25819999
138.2 6.6749997 0.26620001
138.39999 6.6749997 0.26899999
138.60001 6.6750002 0.27240002
138.8 6.6750002 0.27600002
139 6.625 0.2748
134.2 6.9499998 0.39840001
134.8 6.8749995 0.31019998
135 6.875 0.26320001
135.2 6.875 0.26139998
135.39999 6.8750005 0.25800002
135.60001 6.8750005 0.25279999
135.8 6.875 0.25319999
136 6.875 0.25400001
136.2 6.875 0.25060001
136.39999 6.875 0.24879999
136.60001 6.875 0.25139999
136.8 6.875 0.25260001
137 6.875 0.25659999
137.2 6.8750005 0.25480002
137.39999 6.875 0.2554
137.60001 6.8749995 0.25580001
137.8 6.875 0.25760001
138 6.875 0.2608
138.2 6.875 0.26440001
138.39999 6.875 0.2694
138.60001 6.875 0.27099997
138.8 6.875 0.26120001
134.8 7.0750003 0.30239999
135 7.0749998 0.26440001
135.2 7.0749998 0.2626
135.39999 7.0749998 0.2604
135.60001 7.0750003 0.26159999
135.8 7.0750003 0.25420001
136 7.0749998 0.25060001
136.2 7.0749998 0.25260001
136.39999 7.0750003 0.2518
136.60001 7.0749998 0.25100002
136.8 7.0749998 0.24860001
137 7.0749998 0.25279999
137.2 7.0750003 0.252
137.39999 7.0750003 0.2536
137.60001 7.0750003 0.255
137.8 7.0749998 0.25760001
138 7.0749998 0.25740001
138.2 7.0749998 0.26460001
138.39999 7.0749998 0.2674
138.60001 7.0749998 0.27039999
134.8 7.2749996 0.285
135 7.2749996 0.26180002
135.2 7.2749996 0.2606
135.39999 7.2750001 0.25960001
135.60001 7.2750001 0.25880003
135.8 7.2750001 0.259
136 7.2750001 0.25260001
136.2 7.2750001 0.24620001
136.39999 7.2749996 0.243
136.60001 7.2749996 0.2484
136.8 7.2749996 0.24679999
137 7.2750001 0.25
137.2 7.2749996 0.24999999
137.39999 7.2749996 0.25139999
137.60001 7.2750001 0.2518
137.8 7.2749996 0.25619999
138 7.2749996 0.26120001
138.2 7.2750001 0.2642
138.39999 7.2749996 0.26380002
139.60001 7.25 0.3784
134.60001 7.5250001 0.39200002
134.8 7.4750004 0.278
135 7.4749999 0.2604
135.2 7.4749999 0.25580001
135.39999 7.4749994 0.25960001
135.60001 7.4749999 0.25800002
135.8 7.4749999 0.25980002
136 7.4749999 0.26100001
136.2 7.4750004 0.2406
136.39999 7.4749999 0.24520001
136.60001 7.4750004 0.24579999
136.8 7.4750004 0.245
137 7.4750004 0.24939999
137.2 7.4750004 0.25259998
137.39999 7.4749999 0.25559998
137.60001 7.4750004 0.25819999
137.8 7.4749999 0.2572
138 7.4750004 0.25960001
138.2 7.4750004 0.26520002
134.60001 7.6750002 0.38800001
134.8 7.6750002 0.26359999
135 7.6749997 0.2534
135.2 7.6750002 0.257
135.39999 7.6749997 0.25459999
135.60001 7.6750002 0.257
135.8 7.6750002 0.257
136 7.6750002 0.2606
136.2 7.6750002 0.2374
136.39999 7.6750002 0.24419999
136.60001 7.6750002 0.24739999
136.8 7.6750002 0.24779999
137 7.6749997 0.25080001
137.2 7.6750002 0.25439999
137.39999 7.6749997 0.25560001
137.60001 7.6749997 0.25919998
137.8 7.6750002 0.26340002
138 7.6749997 0.264
138.2 7.5999999 0.22319999
134 7.9499998 0.39840001
134.60001 7.8000002 0.37760001
134.8 7.875 0.2638
135 7.875 0.25620002
135.2 7.875 0.25319999
135.39999 7.875 0.25599998
135.60001 7.875 0.2554
135.8 7.875 0.25400001
136 7.875 0.25840002
136.2 7.875 0.23720001
136.39999 7.8750005 0.24419999
136.60001 7.875 0.24440001
136.8 7.8749995 0.2446
137 7.875 0.2472
137.2 7.8750005 0.2552
137.39999 7.875 0.25580001
137.60001 7.8749995 0.26120001
137.8 7.875 0.25299999
138 7.8000002 0.2112
139 7.9499998 0.37760001
133.8 8.0750008 0.3944
134 8.1000004 0.3928
134.60001 8.1000004 0.37653336
134.8 8.0750008 0.28920001
135 8.0749998 0.25220001
135.2 8.0750008 0.249
135.39999 8.0749998 0.25419998
135.60001 8.0749998 0.25279999
135.8 8.0750008 0.2518
136 8.0749998 0.25799999
136.2 8.0749998 0.2262
136.39999 8.0750008 0.2396
136.60001 8.0749998 0.24520001
136.8 8.0749998 0.245
137 8.0750008 0.25400001
137.2 8.0750008 0.25560001
137.39999 8.0749998 0.25599998
137.60001 8.0750008 0.25800002
137.8 8 0.21520001
132.8 8.3000002 0.39760002
134.60001 8.2749996 0.39139998
134.8 8.2749996 0.26160002
135 8.2749996 0.25400001
135.2 8.2750006 0.2534
135.39999 8.2749996 0.2516
135.60001 8.2750006 0.25260001
135.8 8.2749996 0.25560001
136 8.2749996 0.255
136.2 8.2749996 0.23179999
136.39999 8.2749996 0.23900001
136.60001 8.2749996 0.2454
136.8 8.2749996 0.24919999
137 8.2750006 0.25419998
137.2 8.2749996 0.25619999
137.39999 8.2750006 0.27180001
132.8 8.3999996 0.39039999
134.60001 8.4249992 0.384
134.8 8.4750004 0.25580001
135 8.4749994 0.25040001
135.2 8.4750004 0.25400001
135.39999 8.4750004 0.25120002
135.60001 8.4749994 0.25440001
135.8 8.4749994 0.25460002
136 8.4749994 0.25620002
136.2 8.4749994 0.23379999
136.39999 8.4750004 0.24059999
136.60001 8.4750004 0.25240001
136.8 8.4750004 0.25220001
137 8.4750004 0.24900001
137.2 8.4499998 0.30506667
134.8 8.6750002 0.25839999
135 8.6749992 0.25139999
135.2 8.6750002 0.25
135.39999 8.6749992 0.25139999
135.60001 8.6750002 0.25600001
135.8 8.6749992 0.25979999
136 8.6749992 0.25199997
136.2 8.6749992 0.2428
136.39999 8.6750002 0.24720001
136.60001 8.6749992 0.25119999
136.8 8.6749992 0.26359999
137 8.6000004 0.23199999
132.8 8.9499998 0.3976
133 8.8500004 0.39480001
134.60001 8.8999996 0.36346665
134.8 8.875 0.25139999
135 8.875 0.24839999
135.2 8.875 0.2502
135.39999 8.875 0.25239998
135.60001 8.875 0.2554
135.8 8.875 0.25419998
136 8.875 0.2352
136.2 8.875 0.24259999
136.39999 8.875 0.24379998
136.60001 8.8500004 0.30240002
132.60001 9.083333 0.38800001
132.8 9.0666666 0.39466667
133.2 9.0749998 0.39539999
133.39999 9.0666666 0.39466667
134.60001 9.0749998 0.3116
134.8 9.0750008 0.25939998
135 9.0749998 0.2572
135.2 9.0749998 0.25660002
135.39999 9.0750008 0.25579998
135.60001 9.0749998 0.24679999
135.8 9.0749998 0.2344
136 9.0750008 0.2362
136.2 9.0500002 0.25706667
136.39999 9 0.3272
137.60001 9.1499996 0.3608
132.60001 9.25 0.39146665
132.8 9.3500004 0.37040001
133 9.2749996 0.3786
133.2 9.25 0.39173332
133.60001 9.3000002 0.37400001
133.8 9.3500004 0.37279999
134 9.3250008 0.3592
134.2 9.3000002 0.3432
134.39999 9.3500004 0.26320001
134.60001 9.2750006 0.26200002
134.8 9.2749996 0.25800002
135 9.2749996 0.27740002
135.2 9.2749996 0.24240001
135.39999 9.2749996 0.23480001
135.60001 9.2750006 0.237
135.8 9.25 0.25813332
136 9.1999998 0.308
137.39999 9.3000002 0.32053331
137.60001 9.1999998 0.28560001
132.8 9.4750004 0.39200002
133 9.4749994 0.3506
133.2 9.4750004 0.31960002
133.39999 9.4750004 0.31080002
133.60001 9.4749994 0.30160001
133.8 9.4750004 0.2588
134 9.4750004 0.25440001
134.2 9.4750004 0.25999999
134.39999 9.4749994 0.25299999
134.60001 9.4749994 0.23719999
134.8 9.4749994 0.23300001
135 9.4749994 0.2304
135.2 9.4499998 0.24586666
135.39999 9.4249992 0.24919999
137 9.5249996 0.352
137.2 9.4499998 0.28960001
132.8 9.7250004 0.3348
133 9.6750002 0.24059999
133.2 9.6750002 0.2464
133.39999 9.6749992 0.2446
133.60001 9.6750002 0.23740001
133.8 9.6750002 0.2344
134 9.6749992 0.2318
134.2 9.6750002 0.22619998
134.39999 9.6750002 0.2304
134.60001 9.6499996 0.23120002
134.8 9.625 0.2456
135 9.6000004 0.27599999
136.60001 9.75 0.34240001
136.8 9.6749992 0.31760001
137 9.6000004 0.2472
132.60001 9.875 0.2256
132.8 9.875 0.2324
133 9.875 0.23019999
133.2 9.875 0.228
133.39999 9.875 0.2238
133.60001 9.875 0.2316
133.8 9.8500004 0.23013334
134 9.8250008 0.22999999
134.2 9.8000002 0.25119999
136.2 9.9499998 0.3344
136.39999 9.9000006 0.27706665
136.60001 9.8250008 0.23920001
132.60001 10.05 0.22693335
132.8 10 0.2256
133 10.025 0.2252
133.2 10 0.22480001
133.39999 10 0.2448
135.60001 10.15 0.39840001
135.8 10.125 0.32679999
136 10.05 0.31386667
136.2 10 0.2624
135.2 10.325001 0.34439999
135.39999 10.275 0.32440001
135.60001 10.225 0.294
135.8 10.2 0.2176
134.39999 10.55 0.35600001
134.60001 10.525 0.31760001
134.8 10.475 0.30840001
135 10.424999 0.2888
135.2 10.4 0.2264
133.39999 10.75 0.36160001
133.60001 10.725 0.33840001
133.8 10.7 0.31733334
134 10.674999 0.296
134.2 10.625 0.30479997
134.39999 10.6 0.28240001
132.60001 10.899999 0.29093334
132.8 10.875 0.3012
133 10.849999 0.296
133.2 10.825001 0.28439999
133.39999 10.8 0.27520001
133.60001 10.8 0.2176
139.39999 0.075000003 0.47499999
139.39999 0.22499999 0.4824
139.39999 0.47500002 0.46560001
139.39999 0.67500001 0.46740001
139.39999 0.875 0.45520002
139.39999 1.075 0.45999998
139.39999 1.2750001 0.45719999
139.39999 1.475 0.43520004
139.39999 1.6999999 0.43413332
139.39999 1.85 0.46880001
139.39999 2 0.4208
139.39999 2.2 0.40400001
134.2 6.1500001 0.44639999
134.39999 6.1500001 0.43040001
134.60001 6.1500001 0.44960001
133.8 6.3000007 0.56
134 6.2749996 0.45339999
134.2 6.2749996 0.43200001
134.39999 6.2749996 0.4188
134.60001 6.2749996 0.42579997
132.60001 6.5 0.44159999
132.8 6.4749999 0.44499999
133 6.5 0.44213334
133.60001 6.4499998 0.51520002
133.8 6.5500002 0.57679999
134 6.4750004 0.4386
134.2 6.4750004 0.43700001
134.39999 6.4750004 0.43239999
134.60001 6.4749999 0.4156
132.60001 6.6750002 0.44740003
132.8 6.6750002 0.45539999
133 6.6750002 0.52600002
133.2 6.6750002 0.53799999
133.39999 6.6749997 0.51980001
133.8 6.6499996 0.55093336
134 6.6750002 0.43279999
134.2 6.6749997 0.435
134.39999 6.6750002 0.42659998
134.60001 6.6750002 0.414
132.60001 6.875 0.46520001
132.8 6.8249998 0.52679998
133.39999 6.8000002 0.55519998
133.60001 6.9000001 0.58106667
133.8 6.875 0.4646
134 6.875 0.43159997
134.2 6.8500004 0.44240001
134.39999 6.8749995 0.42460001
134.60001 6.875 0.42360002
132.60001 7.0749998 0.54799998
132.8 7.1500001 0.58880001
133 7.1500001 0.53280002
133.2 7.1500001 0.50480002
133.39999 7.125 0.50999999
133.60001 7.0749998 0.50959998
133.8 7.0749998 0.44959998
134 7.0749998 0.42840001
134.2 7.0749998 0.42820001
134.39999 7.0749998 0.47400001
134.60001 7.0749998 0.43279999
139.60001 7.0999999 0.51013333
132.60001 7.2749996 0.47400001
132.8 7.2750001 0.4716
133 7.2999997 0.45813334
133.2 7.2833328 0.45893335
133.39999 7.2749996 0.45339999
133.60001 7.2750001 0.44340003
133.8 7.2749996 0.44440001
134 7.2750001 0.435
134.2 7.2749996 0.49699998
134.39999 7.2750001 0.44519997
134.60001 7.2750001 0.41820002
138.60001 7.25 0.46160001
139.39999 7.25 0.59439999
139.60001 7.1999998 0.40799999
132.60001 7.4749999 0.45819998
132.8 7.4750004 0.45099998
133 7.4749999 0.44140002
133.2 7.4750004 0.43239999
133.39999 7.4749994 0.43400002
133.60001 7.4750004 0.45280001
133.8 7.4750004 0.45519999
134 7.4750004 0.45520002
134.2 7.4749999 0.45919999
134.39999 7.4499993 0.42133331
134.60001 7.4250002 0.4084
139.2 7.5250001 0.57120001
132.60001 7.6750002 0.4488
132.8 7.6750002 0.44459999
133 7.6750002 0.44119999
133.2 7.6750002 0.43059999
133.39999 7.6749997 0.44319999
133.60001 7.6750002 0.44319999
133.8 7.6750002 0.43420002
134 7.6750002 0.46079999
134.2 7.6750002 0.46039999
134.39999 7.6750002 0.43200001
138.2 7.6500001 0.41119999
139 7.75 0.5776
139.2 7.5999999 0.5176
132.60001 7.8749995 0.43180001
132.8 7.8749995 0.42540002
133 7.8749995 0.41939998
133.2 7.875 0.4454
133.39999 7.875 0.4472
133.60001 7.875 0.41359997
133.8 7.875 0.4086
134 7.8499999 0.43253335
134.2 7.875 0.45140001
134.39999 7.8750005 0.47360003
134.60001 7.9000001 0.43653333
138 7.8499999 0.4136
138.8 7.9499998 0.58160001
139 7.8500004 0.47466668
132.60001 8.0749998 0.44260001
132.8 8.0749998 0.4136
133 8.0750008 0.4154
133.2 8.0750008 0.44999999
133.39999 8.0749998 0.42899999
133.60001 8.0750008 0.42300001
133.8 8 0.40000001
134 8.0666666 0.53013337
134.2 8.0749998 0.48719996
134.39999 8.0750008 0.45259997
134.60001 8 0.4032
138.60001 8.1499996 0.56080002
138.8 8.0500002 0.47519997
132.60001 8.2749996 0.43039998
132.8 8.1999998 0.4032
133 8.2750006 0.43200001
133.2 8.2749996 0.50220001
133.39999 8.2750006 0.55420005
133.60001 8.2749996 0.42920002
133.8 8.3250008 0.51999998
134 8.3000002 0.55680001
134.2 8.2749996 0.47140002
134.39999 8.2749996 0.44059998
138.39999 8.3250008 0.56840003
138.60001 8.2250004 0.49159998
132.60001 8.4749994 0.42019999
132.8 8.5 0.42666665
133 8.4750004 0.495
133.2 8.4750004 0.45680001
133.39999 8.5249996 0.50959998
133.60001 8.3999996 0.428
133.8 8.4749994 0.4698
134 8.4750004 0.53579998
134.2 8.4750004 0.44720003
134.39999 8.4749994 0.41940001
134.60001 8.5249996 0.41280001
138.2 8.5249996 0.54079998
138.39999 8.3999996 0.5072
132.60001 8.6749992 0.42820001
132.8 8.6749992 0.42000002
133 8.6999998 0.52079999
133.2 8.6749992 0.42300001
133.39999 8.6750002 0.47399998
133.60001 8.6999998 0.58986664
133.8 8.6750002 0.53200001
134 8.6833334 0.46239999
134.2 8.6749992 0.46520001
134.39999 8.6749992 0.45179999
134.60001 8.6749992 0.44
138 8.6999998 0.53386664
138.2 8.625 0.43879998
132.60001 8.875 0.419
132.8 8.8499994 0.40613332
133 8.8999996 0.40719998
133.2 8.875 0.42199999
133.39999 8.875 0.41420001
133.60001 8.9499998 0.41839999
133.8 8.875 0.56160003
134 8.875 0.48899999
134.2 8.875 0.41800001
134.39999 8.875 0.46319997
134.60001 8.8000002 0.4016
137.60001 8.9499998 0.57359999
137.8 8.875 0.5108
132.60001 9.0500002 0.4048
132.8 9.1000004 0.4032
133 9.0749998 0.4982
133.39999 9.1000004 0.42640001
133.60001 9.0749998 0.4296
133.8 9.0750008 0.53859997
134 9.0749998 0.45560002
134.2 9.0750008 0.43939999
134.39999 9.0749998 0.4824
137.39999 9.125 0.5424
137.60001 9.0500002 0.46879998
132.60001 9.3500004 0.53200001
132.8 9.3000002 0.51200002
133.2 9.3500004 0.40880001
133.39999 9.2749996 0.4102
133.60001 9.25 0.44319999
133.8 9.25 0.46879998
134 9.2250004 0.428
134.2 9.1999998 0.4152
134.39999 9.25 0.42879999
137 9.3500004 0.57359999
137.2 9.3000002 0.4810667
137.39999 9.1999998 0.45519999
132.60001 9.4750004 0.44679999
132.8 9.4750004 0.4188
133.39999 9.4750004 0.42480001
136.60001 9.5500002 0.59280002
136.8 9.5 0.52746665
137 9.4249992 0.47440001
132.60001 9.6749992 0.54120004
132.8 9.625 0.43919998
136.2 9.75 0.59359998
136.39999 9.6999998 0.53413337
136.60001 9.6499996 0.47546664
136.8 9.6000004 0.41119999
134 9.8999996 0.4984
134.2 9.8500004 0.40000001
135.8 9.9499998 0.56
136 9.8999996 0.51146668
136.2 9.8500004 0.46906671
136.39999 9.8000002 0.41280001
135.2 10.15 0.5848
135.39999 10.125 0.53960001
135.60001 10.05 0.5333333
135.8 10.025 0.46880001
134.60001 10.35 0.56239998
134.8 10.325001 0.51960003
135 10.3 0.47786665
135.2 10.225 0.49360001
135.39999 10.2 0.428
133.60001 10.55 0.59200001
133.8 10.55 0.5352
134 10.525 0.50800002
134.2 10.5 0.49253336
134.39999 10.45 0.49893332
134.60001 10.424999 0.46200001
134.8 10.4 0.42480001
132.60001 10.725 0.55239999
132.8 10.725 0.514
133 10.7 0.51733333
133.2 10.7 0.46959999
133.39999 10.65 0.49733338
133.60001 10.625 0.48680001
133.8 10.6 0.46160001
134 10.6 0.40560001
132.60001 10.8 0.44479999
132.8 10.8 0.41679999
141.2 3.2249999 0.68400002
140.8 4.3249998 0.78600001
140.60001 4.875 0.78479999
140.39999 5.3249998 0.79400003
140.39999 5.4500003 0.73706669
140.2 5.75 0.7744
140.2 5.8500004 0.72293335
140 6.125 0.76600003
133.60001 6.5250001 0.61440003
133.8 6.4500003 0.6218667
139.8 6.4750004 0.75639999
133.2 6.75 0.62879997
133.60001 6.6750002 0.62
139.60001 6.7249999 0.77999997
139.8 6.625 0.65719998
132.8 6.9250002 0.62120003
133 6.875 0.67000002
133.2 6.875 0.69359994
133.39999 6.9000001 0.67973334
133.60001 6.8000002 0.61040002
139.60001 6.875 0.68040001
132.8 7.0499997 0.62773335
133 7.0499997 0.67626667
133.2 7.0500007 0.69919997
133.39999 7.0250001 0.66999996
139.39999 7.0749998 0.73700005
139.60001 7 0.6024
133.2 7.25 0.77600002
139.2 7.3000007 0.74773335
139.39999 7.1999998 0.64560002
134.39999 7.5500002 0.63840002
139 7.5250001 0.74880004
139.2 7.4250002 0.648
138.8 7.7249999 0.76199996
139 7.6500001 0.65733337
138.60001 7.9250002 0.76320004
138.8 7.8499999 0.65813333
133.8 8.1499996 0.64719999
138.39999 8.125 0.7604
138.60001 8.0500002 0.66000003
133.8 8.2250004 0.62880003
134 8.1999998 0.60159999
137.60001 8.1999998 0.68239999
138.2 8.3000002 0.75466663
138.39999 8.2250004 0.6652
133.39999 8.4249992 0.60839999
133.60001 8.5 0.65973336
138 8.5 0.7256
138.2 8.4249992 0.6372
133 8.6000004 0.60640001
133.60001 8.6000004 0.60720003
134 8.6499996 0.65359998
137.60001 8.75 0.7816
137.8 8.6750002 0.7094
138 8.6000004 0.63919997
133.60001 8.8500004 0.62879997
137.39999 8.9249992 0.74559999
137.60001 8.8500004 0.68613333
137.8 8.8000002 0.60000002
137 9.1499996 0.78079998
137.2 9.0999994 0.704
137.39999 9.0249996 0.64560002
132.8 9.2250004 0.60679996
136.8 9.3000002 0.74773335
137 9.25 0.67759997
137.2 9.1999998 0.60000002
135.2 9.5500002 0.77200001
135.60001 9.3999996 0.60399997
136.39999 9.5249996 0.73519999
136.60001 9.4499998 0.70320004
136.8 9.3999996 0.64160001
134.60001 9.75 0.796
135.8 9.75 0.78079998
136 9.7250004 0.73199999
136.2 9.6499996 0.69653338
136.39999 9.6000004 0.6584
133.8 9.9499998 0.79759997
135.39999 9.9249992 0.7676
135.60001 9.9000006 0.70906669
135.8 9.8499994 0.66960001
136 9.8000002 0.63679999
132.60001 10.15 0.79519999
132.8 10.075001 0.62800002
133.2 10.05 0.79119998
133.60001 10 0.79680002
134.60001 10.15 0.79040003
134.8 10.125 0.75960004
135 10.1 0.71866661
135.2 10.05 0.70613337
135.39999 10.025 0.65320003
133.8 10.35 0.77280003
134 10.325001 0.75760001
134.2 10.3 0.73760003
134.39999 10.275001 0.71220005
134.60001 10.25 0.68160003
134.8 10.225 0.6476
135 10.2 0.60159999
132.60001 10.55 0.7608
132.8 10.525 0.75760001
133 10.525 0.7288
133.2 10.5 0.72613335
133.39999 10.5 0.68799996
133.60001 10.45 0.70293331
133.8 10.45 0.66160005
134 10.424999 0.64200002
134.2 10.4 0.61040002
132.60001 10.625 0.67359996
132.8 10.625 0.64160001
133 10.6 0.64880002
133.2 10.6 0.60000002
141 0.075000003 0.93580002
141 0.27500001 0.9296
141.39999 0.29999998 0.85759997
141 0.47500002 0.92939997
141.39999 0.47500002 0.8538
141 0.67500001 0.92720002
141.2 0.72500002 0.98519999
141.39999 0.625 0.85079998
141 0.85000002 0.92400002
141.2 0.875 0.96559995
141.2 1.0749999 0.94459999
141.2 1.275 0.93959999
141.2 1.475 0.92460001
141.2 1.675 0.91600001
141.2 1.875 0.91820002
141.2 2.075 0.89120001
140.8 2.3 0.90373331
141.2 2.2750001 0.87100005
140.8 2.4749999 0.9034
141 2.55 0.98879999
141.2 2.4749999 0.83659995
140.8 2.625 0.9048
141 2.6749997 0.95899999
141.2 2.5999999 0.8096
141 2.875 0.92460001
141 3.0749998 0.89159995
140.60001 3.3499999 0.88959998
141 3.2749999 0.8768
140.60001 3.4750001 0.89479995
140.8 3.5250001 0.98520005
140.60001 3.5999999 0.8872
140.8 3.675 0.93879998
140.8 3.875 0.91199994
140.39999 4.0999999 0.88266665
140.8 4.0750003 0.88339996
140.39999 4.25 0.87573338
140.60001 4.2749996 0.96599996
140.8 4.2249999 0.82239997
140.60001 4.4750004 0.90380001
140.2 4.7000003 0.87173337
140.39999 4.75 0.99519998
140.60001 4.6750002 0.86399996
140.2 4.8000002 0.87519997
140.39999 4.875 0.94959998
140.60001 4.8000002 0.81279999
140 5.125 0.87480003
140.39999 5.0749998 0.89560002
140 5.25 0.90693331
140.2 5.2750001 0.95599997
140.39999 5.2249999 0.84239995
139.8 5.5500002 0.86000001
140 5.5500002 0.99839997
140.2 5.4750004 0.89679998
139.8 5.6500001 0.87760001
140 5.6749997 0.96759999
140.2 5.6500001 0.82906669
139.60001 5.9250002 0.86039996
139.8 5.875 0.99599999
140 5.8749995 0.88999999
139.60001 6.0749998 0.95420003
139.8 6.0750003 0.9508
140 6.0250001 0.82319999
139.39999 6.2999997 0.85360003
139.60001 6.2750001 0.98759997
139.8 6.2750001 0.8682
139.2 6.5250001 0.8524
139.39999 6.4749994 0.98940003
139.60001 6.4750004 0.92400002
133.8 6.75 0.85680002
139.2 6.6750002 0.93479997
139.39999 6.6749997 0.95459998
139.60001 6.625 0.83959997
139 6.875 0.88420004
139.2 6.875 0.9788
139.39999 6.875 0.86220002
138.8 7.0999999 0.84746665
139 7.0750003 0.98460001
139.2 7.0749998 0.89859998
133 7.1999998 0.88800001
138.60001 7.3249998 0.84080005
138.8 7.2750001 0.98159999
139 7.2749996 0.91759998
139.2 7.1999998 0.81760001
138.39999 7.5250001 0.83640003
138.60001 7.4749999 0.98000002
138.8 7.4750004 0.92860001
139 7.4250002 0.81879997
138.2 7.7249999 0.83519995
138.39999 7.6750002 0.97299999
138.60001 7.6750002 0.9364
138.8 7.625 0.84280002
138 7.9250002 0.83360004
138.2 7.875 0.94800001
138.39999 7.875 0.92840004
138.60001 7.8249998 0.84200001
137.8 8.1000004 0.82773334
138 8.0750008 0.96859998
138.2 8.0749998 0.92459995
138.39999 8.0249996 0.84280002
137.60001 8.3000002 0.87546664
137.8 8.2750006 0.96780002
138 8.2749996 0.90339994
138.2 8.1999998 0.8448
137.2 8.5500002 0.82239997
137.39999 8.4749994 0.89839995
137.60001 8.4749994 0.95779997
137.8 8.4750004 0.87900001
138 8.3999996 0.81599998
137 8.6999998 0.8397333
137.2 8.6749992 0.93219995
137.39999 8.6749992 0.9404
137.60001 8.6499996 0.86293334
136.60001 8.9499998 0.81199998
136.8 8.875 0.88919997
137 8.875 0.9558
137.2 8.875 0.89940006
137.39999 8.8250008 0.83959997
136.2 9.1499996 0.81919998
136.39999 9.0999994 0.86426663
136.60001 9.0749998 0.95199996
136.8 9.0749998 0.92540002
137 9.0500002 0.87039995
137.2 9 0.81040001
135.8 9.3500004 0.8136
136 9.3000002 0.86586666
136.2 9.2749996 0.92460001
136.39999 9.2749996 0.94200003
136.60001 9.2750006 0.8678
136.8 9.1999998 0.8416
135.39999 9.5249996 0.81879997
135.60001 9.5 0.90639997
135.8 9.4750004 0.94399995
136 9.4750004 0.93779999
136.2 9.4750004 0.87959999
136.39999 9.4249992 0.8276
134.8 9.7250004 0.81599998
135 9.6999998 0.87546664
135.2 9.6750002 0.91679996
135.39999 9.6749992 0.94300002
135.60001 9.6750002 0.91439998
135.8 9.6499996 0.87813336
136 9.625 0.82360005
134 9.9499998 0.81199998
134.2 9.9249992 0.87800002
134.39999 9.875 0.87800002
134.60001 9.875 0.91580003
134.8 9.875 0.94519997
135 9.875 0.92219996
135.2 9.875 0.88099998
135.39999 9.8250008 0.8592
135.60001 9.8000002 0.81040001
132.8 10.15 0.80879998
133 10.125 0.81040001
133.2 10.125 0.87599999
133.39999 10.1 0.88746667
133.60001 10.1 0.90319997
133.8 10.075 0.91100001
134 10.075 0.94279993
134.2 10.075001 0.93000001
134.39999 10.075 0.90380001
134.60001 10.05 0.88986665
134.8 10.025 0.86400002
135 10 0.8272
132.60001 10.275 0.91079998
132.8 10.275 0.94059998
133 10.275 0.93239999
133.2 10.275 0.92540002
133.39999 10.275001 0.9066
133.60001 10.275001 0.889
133.8 10.25 0.87893337
134 10.225 0.85960001
134.2 10.2 0.84320003
132.60001 10.45 0.86986667
132.8 10.424999 0.86440003
133 10.424999 0.838
133.2 10.4 0.83520001
133.39999 10.4 0.80800003
141.2 0.075000003 1.044
141.2 0.27500001 1.0346
141.2 0.47499999 1.0148
141.2 0.625 1.002
141 0.88333338 1.0589334
141 1.0749999 1.0546
141 1.275 1.059
141 1.475 1.0518
141 1.675 1.0477999
141 1.875 1.043
141 2.0749998 1.0434
141 2.2750001 1.0339999
141 2.45 1.0133333
140.8 2.7249999 1.0319999
140.8 2.875 1.0364
140.8 3.075 1.033
140.8 3.2749999 1.0342
140.8 3.4250002 1.0164
140.60001 3.7 1.0242666
140.60001 3.875 1.0226001
140.60001 4.0749998 1.0126001
140.39999 4.3499999 1.0136
140.39999 4.4749999 1.0134
140.39999 4.6500001 1.0056
140.2 4.9000001 1.0087999
140.2 5.0749998 1.0072
140 5.3499999 1.0039999
140 5.4500003 1.0034666
139.8 5.75 1.0064
