# .PCD v0.7 - Point Cloud Data file format
VERSION 0.7
FIELDS x y z
SIZE 4 4 4
TYPE F F F
COUNT 1 1 1
WIDTH 1313
HEIGHT 1
VIEWPOINT 0 0 0 1 0 0 0
POINTS 1313
DATA ascii
24.625107 23.154388 -0.21867108
24.276842 21.079208 -0.24006104
24.675661 23.165482 -0.068865299
24.327562 21.090866 -0.067062855
24.726212 23.176559 0.080940962
24.378448 21.103073 0.12832808
24.802034 23.193176 0.30525017
24.429335 21.11528 0.32371902
24.418491 19.497406 0.40379572
24.388468 19.69342 0.32954764
24.877865 23.209808 0.53035903
24.51058 20.932587 0.63894272
24.505318 21.132446 0.56962109
24.519365 19.518799 0.67221832
24.489599 19.715698 0.63315845
24.479824 20.117905 0.59608102
24.47006 20.520172 0.56140256
24.490139 20.725769 0.57538104
24.46909 19.508652 0.5599997
24.43903 19.704544 0.48095345
34.248215 27.846191 0.59448051
30.469086 27.078064 0.51788068
30.394926 27.067078 0.52109599
30.128023 26.82608 0.56821799
30.02891 26.810638 0.54051542
29.78636 26.572098 0.53671622
29.593279 26.340958 0.53490496
24.928415 23.220886 0.68016529
24.819876 22.600616 0.79472232
24.620737 21.558365 0.74591184
24.640497 21.762894 0.71670485
24.685373 21.972427 0.74040771
24.600538 20.344086 0.84649253
24.570597 20.540421 0.78344035
24.56571 20.741531 0.76490164
24.585699 20.946823 0.76688409
24.580832 21.14801 0.75154448
24.600691 21.352859 0.73593259
24.570614 21.548737 0.65448642
24.56986 19.529694 0.81402683
24.564924 19.730621 0.78949046
24.535074 19.927246 0.73883438
24.555382 20.133606 0.78400254
24.525311 20.329483 0.7033565
24.520378 20.530457 0.67921925
32.435814 28.995651 0.76659918
32.279205 28.972275 0.76672244
32.16378 28.954941 0.76239371
31.253767 28.617371 0.78379846
31.154802 28.602417 0.77635598
30.516773 28.305359 0.79450274
30.442375 28.293549 0.76492906
29.952791 28.018906 0.79450607
29.878393 28.007095 0.76493192
29.487711 27.747192 0.79302096
29.402672 26.118164 0.87111521
29.521528 26.338104 0.86721087
29.78993 22.333511 0.90019393
29.072269 27.483475 0.81698346
29.641714 22.31189 0.92061973
29.587582 22.506317 0.93101573
29.443731 22.281799 0.89820385
29.390011 22.477646 0.96518111
29.434465 22.685745 0.93130302
28.75561 27.234085 0.82306337
29.541376 20.275803 0.98807931
29.536383 20.476532 0.95514536
29.506945 20.674545 0.9608705
29.398726 21.063568 0.98806
29.389235 21.466766 0.99016953
29.359415 21.663483 0.94391203
29.354458 21.864365 0.91617656
29.300209 22.05838 0.91057754
29.319986 22.262985 0.88376904
29.266354 22.459122 0.9625423
29.236643 22.656219 0.93107986
29.182459 22.850464 0.93427825
29.152922 23.048141 0.92640805
29.123373 23.245804 0.91773772
29.09387 23.443588 0.91466594
29.064274 23.641068 0.8987987
28.463797 26.988785 0.84526634
28.414373 26.981522 0.84980893
28.196527 26.746552 0.84280515
27.954117 26.508469 0.85806584
27.711647 26.270203 0.86532903
27.543398 26.043121 0.87777472
27.35046 25.812454 0.89529061
25.544716 24.532639 0.94013524
25.286978 23.887405 0.94116211
25.167646 23.665878 0.88028789
25.237118 23.878647 0.88572478
25.009327 23.037064 0.94980431
25.028784 23.24057 0.87927723
25.073206 23.448578 0.84113455
24.900284 22.415054 0.99558449
24.89505 22.615021 0.93026114
24.914608 22.818863 0.87346268
24.959171 23.027328 0.85438037
24.790871 21.791809 0.99098134
24.785789 21.992264 0.94605112
24.805511 22.196655 0.91164541
24.825306 22.401306 0.88683677
24.711163 20.971451 1.0166407
24.706108 21.171997 0.97570968
24.70101 21.37236 0.92838049
24.721004 21.577698 0.93116212
24.715815 21.777802 0.8718369
24.690302 19.754944 1.0268512
24.660543 19.951859 0.98859096
24.655731 20.153229 0.98044872
24.675865 20.359024 1.0028245
24.645853 20.555115 0.93017554
24.666039 20.761078 0.95894909
24.661076 20.961929 0.93001366
24.630907 21.157486 0.83657193
24.64502 19.544067 0.94756651
24.640289 19.745682 0.95062065
24.610388 19.942123 0.89316678
34.443756 28.085648 0.93244648
34.414238 28.283401 0.92797518
34.384724 28.481155 0.92310405
34.355209 28.678909 0.91843295
34.325726 28.87677 0.91796017
34.296219 29.074554 0.91468811
34.266731 29.2724 0.91401577
34.200882 27.845978 0.8845284
34.245926 28.056091 0.93162322
34.216427 28.253906 0.92935133
34.186924 28.451691 0.92607951
34.157387 28.649368 0.91820955
34.127861 28.847076 0.91173863
34.098381 29.044968 0.91266537
34.06892 29.242905 0.91539168
34.048103 28.02655 0.93100023
34.018616 28.224411 0.93032789
33.989082 28.422104 0.92305732
33.95956 28.619827 0.91738653
33.930054 28.817612 0.91391492
33.900551 29.015411 0.91124272
33.871094 29.213348 0.91396904
33.850273 27.996994 0.92977738
33.82077 28.194809 0.92730546
33.791279 28.392624 0.9254334
33.761753 28.590347 0.91936278
33.732231 28.788071 0.91389155
33.702744 28.985931 0.91341853
33.673294 29.183914 0.9175446
33.652466 27.967514 0.93135357
33.622971 28.165344 0.92988157
33.593445 28.363083 0.92421055
33.563919 28.560776 0.91734004
33.53442 28.758591 0.91506791
33.504929 28.956436 0.91399527
33.475479 29.154404 0.9179213
33.483669 27.738571 0.86922407
33.454651 27.938034 0.93272996
33.42514 28.135803 0.92885852
33.39563 28.333557 0.92438722
33.366093 28.531235 0.91671705
33.336601 28.729065 0.91484475
33.307106 28.926895 0.91317225
33.277657 29.124878 0.91809797
33.286095 27.709869 0.90298939
33.256836 27.908508 0.93350625
33.227333 28.106323 0.93083453
33.197796 28.303986 0.9227643
33.168282 28.50174 0.91829324
33.138767 28.699493 0.91342187
33.109283 28.897369 0.91354871
33.079811 29.095261 0.91427588
33.059013 27.878983 0.93268323
33.02951 28.076782 0.93021131
32.999992 28.274521 0.92514014
32.970486 28.472305 0.92126894
32.940964 28.670029 0.91539788
32.911461 28.867828 0.91292572
32.881901 29.06543 0.90205669
32.964508 27.661469 0.88533258
32.861183 27.849411 0.93146038
32.831673 28.04718 0.92758918
32.802162 28.244949 0.92351747
32.77264 28.442688 0.91784692
32.743149 28.640518 0.91637444
32.713676 28.838425 0.9179008
32.683784 29.034897 0.86144686
32.684361 27.619965 0.89881182
32.663368 27.819916 0.93243694
32.633896 28.017822 0.93396378
32.60434 28.215439 0.92349434
32.574821 28.413177 0.91842341
32.545326 28.611008 0.91655111
32.515854 28.808899 0.91787744
32.535011 29.011398 0.80629778
32.470036 27.587921 0.8961041
32.465549 27.79039 0.93261361
32.43605 27.988205 0.93034172
32.406521 28.185898 0.92347121
32.377018 28.383698 0.92039943
32.347527 28.581528 0.91892695
32.318043 28.779388 0.918854
32.312336 28.977753 0.78875232
32.272331 27.558792 0.91214228
32.267727 27.760864 0.93259025
32.238216 27.958649 0.92871881
32.208694 28.156372 0.92304778
32.179188 28.354141 0.91917634
32.149708 28.552017 0.91930342
32.120213 28.749847 0.91763091
32.099201 27.532837 0.90704846
32.069885 27.731277 0.92976785
32.040379 27.929062 0.92629647
32.010883 28.126892 0.92442417
31.981373 28.324646 0.9201529
31.951866 28.52243 0.91648126
31.922394 28.720337 0.91800761
31.901281 27.50296 0.89342976
31.872084 27.701813 0.93214393
31.842548 27.89949 0.92487359
31.813065 28.097351 0.92440081
31.783558 28.295135 0.9207294
31.754065 28.49295 0.9188571
31.724613 28.690933 0.92338252
31.703424 27.473328 0.88840818
31.674271 27.672318 0.93332028
31.644743 27.870026 0.92704964
31.615227 28.06778 0.92217827
31.585735 28.26561 0.92070627
31.556259 28.463501 0.92123318
31.526705 28.661133 0.91156316
31.505571 27.44368 0.88378644
31.476454 27.642792 0.93389678
31.446936 27.84053 0.92862582
31.41744 28.038361 0.92655373
31.387911 28.236069 0.92028308
31.358437 28.43396 0.92101002
31.35306 28.633423 0.83602619
31.307781 27.414261 0.88816166
31.278635 27.613281 0.93407321
31.249109 27.811005 0.9280026
31.219622 28.00885 0.92712998
31.190125 28.206665 0.92465806
31.160641 28.40451 0.92418551
31.11002 27.384933 0.8963356
31.080761 27.583572 0.92685246
31.051279 27.781433 0.92677975
31.021767 27.979202 0.92250824
30.992275 28.177032 0.92083621
30.962818 28.374969 0.92396235
30.912403 27.35611 0.92430305
30.882942 27.554062 0.92722917
30.85346 27.751923 0.92695642
30.823969 27.949753 0.92528415
30.794451 28.147491 0.92021322
30.76498 28.345398 0.92173982
30.714657 27.326828 0.93427658
30.685129 27.524567 0.9280057
30.655634 27.722382 0.92613339
30.626165 27.920303 0.92786002
30.596657 28.118073 0.92398858
30.616236 28.321976 0.8697896
30.516811 27.297211 0.93085456
30.487316 27.495056 0.92918205
30.457809 27.692841 0.92571044
30.428322 27.890686 0.92483783
30.398855 28.088608 0.92656469
30.29862 27.061111 0.8768661
30.318991 27.2677 0.93083096
30.289492 27.46553 0.92875862
30.260017 27.663422 0.9294858
30.230455 27.861008 0.9184165
30.201046 28.059113 0.92794061
30.150686 27.040421 0.93587899
30.121183 27.238205 0.93280721
30.091681 27.43602 0.92973495
30.06217 27.633789 0.92586374
30.032681 27.831635 0.9245913
30.052389 28.03598 0.88818645
29.932467 26.804199 0.87749219
29.952898 27.011017 0.94045424
29.923384 27.208771 0.93578291
29.893879 27.40657 0.93251085
29.864347 27.604279 0.92584038
29.834888 27.802216 0.92856669
29.784595 26.783722 0.94510221
29.755089 26.981506 0.9416306
29.725561 27.179214 0.93535995
29.696033 27.376953 0.9288888
29.66655 27.574814 0.92881632
29.636971 27.772354 0.91534781
29.616138 26.555954 0.92915702
29.586771 26.754196 0.94467902
29.557266 26.951981 0.94160748
29.527756 27.14975 0.937536
29.498209 27.347427 0.92866564
29.468769 27.545425 0.93439126
29.423058 26.324829 0.92747927
29.418486 26.527008 0.95192599
29.388996 26.724823 0.95085359
29.359436 26.922424 0.93998456
29.329922 27.120178 0.93531322
29.300449 27.3181 0.93663955
29.270952 27.515915 0.93456769
29.234501 25.891342 0.89395714
29.279459 26.101151 0.92925644
29.250175 26.299713 0.95637417
29.220684 26.497543 0.95490193
29.191137 26.69516 0.94563198
29.161659 26.893051 0.94615912
29.132116 27.090714 0.93768907
29.102617 27.288544 0.9354167
29.147017 27.49646 0.89414167
29.538404 22.499878 0.96914697
29.115856 25.672134 0.92691827
29.11132 25.874435 0.95669675
29.081854 26.072357 0.95862341
29.052353 26.270187 0.95615101
29.022861 26.468018 0.95447874
28.993317 26.665649 0.94560885
28.963814 26.863449 0.94293714
28.934303 27.061218 0.93866563
28.904812 27.259064 0.93739295
29.488941 22.492477 0.96809173
29.335875 22.672043 0.97477698
28.956999 25.041519 0.9233923
28.952414 25.243668 0.94683909
28.972445 25.449112 0.95441985
28.942993 25.647079 0.95814586
28.91354 25.845032 0.96187186
28.884045 26.042862 0.9599998
28.854536 26.240646 0.95632792
28.82505 26.438507 0.9556551
28.795507 26.636154 0.94718504
28.765995 26.833923 0.94331384
28.736517 27.031799 0.94344068
29.46796 20.267334 1.0928605
29.462906 20.46785 1.0515294
29.43342 20.665695 1.0508568
29.403883 20.863373 1.0429869
29.349773 21.057892 1.0565815
29.344868 21.258957 1.0360432
29.315279 21.456467 1.0213754
29.285809 21.654373 1.022702
29.280775 21.85498 0.98456979
29.252132 22.055664 1.0990589
29.247545 22.257813 1.1217065
29.168066 22.446457 1.0476024
29.138308 22.643387 1.009742
29.108774 22.84108 1.0022717
29.079273 23.038879 0.99959993
29.049711 23.236496 0.98893023
29.020216 23.434296 0.98665833
28.990713 23.632095 0.98358655
28.961218 23.82991 0.98171425
28.931671 24.027557 0.97264457
28.902256 24.225677 0.9819684
28.872707 24.423309 0.97249866
28.867905 24.624695 0.96582294
28.863123 24.826172 0.96181273
28.833694 25.0242 0.96893764
28.804184 25.222 0.96526575
28.774696 25.41983 0.96419334
28.745182 25.617584 0.95952225
28.715761 25.815659 0.9676466
28.686213 26.013306 0.95857692
28.656725 26.211182 0.9579041
28.627203 26.408905 0.95223308
28.597685 26.606628 0.94696188
28.568201 26.804489 0.94668937
28.563231 27.00531 0.91695428
29.344389 20.249084 1.1020179
29.315035 20.447372 1.1191397
29.285366 20.644608 1.0934751
29.255852 20.842361 1.088804
29.226198 21.039642 1.0653391
29.196672 21.237381 1.0594678
29.241636 21.44722 1.0949674
29.019947 22.42514 1.0814238
28.990093 22.62175 1.029968
28.960566 22.819458 1.0234971
28.93104 23.017181 1.0176265
28.901499 23.214859 1.0097558
28.872025 23.41275 1.0106828
28.842505 23.610474 1.004812
28.812988 23.808212 0.99994087
28.783455 24.00592 0.99307036
28.753941 24.20369 0.98839879
28.72443 24.401459 0.98432732
28.694904 24.599182 0.97865653
28.665407 24.796997 0.97618437
28.635881 24.99469 0.97011399
28.606394 25.192566 0.96944094
28.576891 25.390366 0.96656895
28.547373 25.588104 0.96129823
28.517931 25.786102 0.96642351
28.488415 25.983841 0.96155238
28.458906 26.181641 0.95808053
28.429396 26.37941 0.95400906
28.399912 26.577255 0.95353627
28.370394 26.774994 0.94846535
29.221478 20.233093 1.2011456
29.161858 20.626587 1.1110299
29.058052 20.812897 1.0913799
29.028372 21.010101 1.0645161
29.072926 21.218552 1.0442336
28.822224 22.39595 1.0945961
28.792284 22.59227 1.031944
28.762753 22.789963 1.0248735
28.733232 22.987701 1.0194027
28.703733 23.185547 1.0175302
28.674225 23.383301 1.0134585
28.644688 23.580978 1.0057886
28.615185 23.778763 1.0025167
28.585661 23.976486 0.99664593
28.556129 24.17421 0.98997498
28.526608 24.371933 0.98410416
28.497107 24.569733 0.98163223
28.467604 24.767532 0.97856045
28.438078 24.965225 0.9722898
28.408539 25.162933 0.9646194
28.379061 25.360809 0.96494627
28.349548 25.558563 0.96047521
28.320107 25.756561 0.96580052
28.290586 25.9543 0.9607296
28.261076 26.1521 0.95685768
28.231588 26.34993 0.95558524
28.202103 26.547775 0.95491266
28.246468 26.755585 0.90943885
28.935205 20.797134 1.1997044
28.624462 22.366638 1.1027701
28.594433 22.562653 1.0275223
28.564909 22.760376 1.0216513
28.53541 22.958176 1.0191796
28.505898 23.15596 1.0151076
28.476376 23.353668 1.0094368
28.446857 23.551422 1.0041659
28.417345 23.749176 0.99989438
28.387827 23.94693 0.99502325
28.358313 24.144699 0.99055171
28.3288 24.342453 0.98608017
28.299286 24.540222 0.98160911
28.269791 24.738037 0.9797368
28.240261 24.93573 0.97286654
28.210739 25.133484 0.9675951
28.181252 25.331329 0.96652246
28.151724 25.529037 0.96025205
28.122269 25.72699 0.96357799
28.092773 25.92482 0.96170592
28.063282 26.122665 0.96043324
28.033794 26.320511 0.95936084
28.053722 26.525574 0.95294571
28.441559 21.734634 1.192152
28.426544 22.336761 1.0891514
28.396685 22.533356 1.0374956
28.367157 22.731064 1.0310249
28.337618 22.928741 1.0229549
28.308062 23.126373 1.0130851
28.278549 23.324127 1.0088136
28.249041 23.521896 1.0049424
28.219501 23.719574 0.99687219
28.189972 23.917282 0.99040151
28.160475 24.115112 0.98832917
28.13097 24.312897 0.98485756
28.101482 24.510742 0.98418498
28.071955 24.708466 0.9777143
28.042446 24.906219 0.97364306
28.01293 25.103989 0.96937132
27.983429 25.301788 0.96649933
27.953938 25.499619 0.96502709
27.92445 25.697464 0.96395469
27.89497 25.89534 0.9642818
27.865465 26.093155 0.96120977
27.83588 26.290665 0.94674182
28.22868 22.307114 1.0835302
28.198889 22.503922 1.0408714
28.169361 22.70163 1.0344005
28.139832 22.899338 1.02753
28.110319 23.097137 1.0240583
28.080751 23.294693 1.0119894
28.051212 23.492355 1.0037196
28.021713 23.690155 1.0010474
27.992191 23.887894 0.99557662
27.962669 24.085632 0.99010515
27.933138 24.28334 0.98303485
27.903652 24.481186 0.9825623
27.874132 24.678925 0.97709131
27.844629 24.876709 0.97401953
27.815121 25.074509 0.97074771
27.785625 25.272324 0.96867537
27.756109 25.470078 0.96380448
27.726648 25.667999 0.96633029
27.697153 25.865829 0.96445847
27.667658 26.063675 0.96278572
28.030748 22.277191 1.0683117
28.001064 22.47438 1.040448
27.971542 22.672104 1.0345771
27.94202 22.869827 1.0289063
27.912497 23.067581 1.0234351
27.882982 23.26532 1.0189636
27.853422 23.462921 1.0078948
27.82386 23.660522 0.99682546
27.794321 23.858185 0.9889555
27.764845 24.056091 0.98968196
27.735319 24.253815 0.98341131
27.705826 24.451645 0.98193908
27.676311 24.649399 0.97726774
27.646807 24.847168 0.97399616
27.617292 25.044952 0.96972442
27.587811 25.242813 0.96945167
27.558332 25.440689 0.96977901
27.528839 25.638519 0.96810651
27.499321 25.836258 0.96303558
27.347792 27.029327 1.0492973
27.813793 22.045258 1.1826675
27.832891 22.247559 1.0634902
27.803251 22.444885 1.0412245
27.773703 22.642517 1.0319548
27.744217 22.840363 1.0310824
27.714687 23.038101 1.0248113
27.685186 23.235886 1.0219395
27.65568 23.43367 1.0184679
27.626015 23.63092 0.99340343
27.596533 23.828781 0.99333072
27.56702 24.026566 0.989259
27.5375 24.224304 0.98378778
27.508017 24.422165 0.98351526
27.478525 24.619995 0.98204303
27.449032 24.81781 0.98037076
27.419533 25.01564 0.97829843
27.390013 25.213364 0.9726274
27.360516 25.411179 0.97035551
27.331041 25.60907 0.97128224
27.665409 22.023041 1.1803007
27.634983 22.217728 1.0512707
27.605394 22.415222 1.0364029
27.575907 22.613068 1.0353303
27.546375 22.81076 1.02826
27.516874 23.008591 1.0259876
27.48736 23.206329 1.0213163
27.457872 23.404175 1.0202441
27.428188 23.601349 0.99238038
27.398722 23.799271 0.99450707
27.369228 23.997131 0.99303436
27.339718 24.194885 0.98876309
27.310223 24.392715 0.98709083
27.280735 24.590561 0.98601842
27.251228 24.78833 0.98254681
27.221737 24.986191 0.98147416
27.192253 25.184036 0.98100138
27.162745 25.381805 0.97693014
27.207108 25.589615 0.93065619
27.48205 21.389526 1.2077031
27.541704 22.004364 1.1712639
27.43718 22.188263 1.0536468
27.40761 22.385834 1.041378
27.378073 22.583511 1.0337076
27.348579 22.781326 1.0318356
27.319057 22.979095 1.0265644
27.289532 23.176788 1.0204935
27.26005 23.374649 1.020221
27.230381 23.571884 0.99435663
27.200916 23.769806 0.99668312
27.1714 23.96759 0.99221158
27.141888 24.165344 0.98774004
27.112391 24.363159 0.98566818
27.082935 24.561111 0.98899412
27.053425 24.758865 0.98492289
27.023949 24.956772 0.98564959
26.994371 25.154327 0.97278094
27.038729 25.362091 0.92550755
26.744017 26.33287 1.0701277
27.387907 21.173248 1.2097359
27.333656 21.367279 1.203737
27.244989 21.960144 1.1734617
27.239559 22.159409 1.0812144
27.209776 22.356262 1.0395553
27.180237 22.553925 1.0316851
27.150763 22.751831 1.032212
27.121235 22.949554 1.0261409
27.091711 23.147263 1.0204701
27.062244 23.345184 1.021997
27.032497 23.542145 0.9855361
27.003077 23.740219 0.99426079
26.973604 23.938141 0.99518704
26.944088 24.135895 0.99031591
26.914635 24.333862 0.99464202
26.885132 24.531662 0.99157
26.855621 24.729401 0.98729849
26.826118 24.927231 0.98462653
26.870466 25.134964 0.93635345
27.312975 20.151398 1.2387393
27.07202 21.934723 1.1902275
27.041553 22.129272 1.0557995
27.011984 22.326828 1.0435307
26.982464 22.524567 1.0382595
26.952938 22.722275 1.0317891
26.923426 22.920074 1.0281172
26.893934 23.117889 1.0264447
26.864416 23.315628 1.0211737
26.834732 23.512802 0.99331021
26.805269 23.710739 0.99583673
26.775799 23.908661 0.99756312
26.746313 24.106506 0.99669051
26.716833 24.304398 0.99701762
26.687334 24.502197 0.99434566
26.657934 24.700317 1.0052693
27.214022 20.136475 1.2326298
26.923613 21.912445 1.1844618
26.843706 22.099655 1.0521774
26.814152 22.297272 1.0421078
26.784664 22.495117 1.0410354
26.755131 22.69281 1.0335653
26.725636 22.890656 1.0320926
26.696123 23.088394 1.027621
26.66662 23.286194 1.0245495
26.636942 23.483398 0.99748564
26.607475 23.68132 0.99961209
26.578045 23.879379 1.0067368
26.548529 24.077118 1.0018654
26.51899 24.274796 0.99399543
26.51461 24.477615 1.0451002
26.645922 22.070236 1.0569525
26.616356 22.267822 1.0452836
26.586832 22.465546 1.0392127
26.557327 22.66333 1.0359411
26.527843 22.861206 1.0358679
26.498358 23.059052 1.0349953
26.468786 23.256607 1.022527
26.439203 23.454132 1.0086586
26.409718 23.651993 1.0083861
26.380234 23.849869 1.0077131
26.350809 24.047928 1.0154378
26.395237 24.255966 0.97836089
26.670111 20.055618 1.2458112
26.739477 20.268021 1.237253
26.453676 21.841919 1.1691036
26.448065 22.040604 1.0521309
26.41853 22.238281 1.0444605
26.389029 22.436081 1.0415885
26.359529 22.633896 1.0391169
26.330034 22.831741 1.0374444
26.30051 23.029449 1.0315733
26.270857 23.22673 1.0079086
26.241398 23.424667 1.0106347
26.211889 23.622452 1.0071633
26.207527 23.825348 1.0608003
26.567684 19.837982 1.2423363
26.554703 20.038345 1.244148
26.48744 20.432632 1.2356296
26.46616 20.631607 1.2301342
26.280218 21.814865 1.1191578
26.250319 22.011322 1.0623043
26.220789 22.209015 1.0554338
26.191269 22.406754 1.0501623
26.161749 22.604492 1.0446918
26.132166 22.802048 1.031023
26.10256 22.999481 1.0139561
26.073059 23.197266 1.0110843
26.068424 23.399231 1.0270007
26.088873 23.606094 1.0918956
25.763672 24.771347 1.0990884
26.402874 19.813507 1.2476149
26.274302 19.996002 1.2229722
26.319025 20.205002 1.225682
26.314333 20.406754 1.2338679
26.205721 20.794479 1.2073417
26.126743 20.984848 1.2020152
26.121857 21.185944 1.1834762
26.116947 21.386978 1.1625383
26.037399 21.575378 1.0784376
26.082048 21.784164 1.0717504
26.052505 21.981827 1.0630805
26.023132 22.180054 1.0778029
25.993362 22.376938 1.0381432
25.963793 22.574509 1.0258746
25.93429 22.772339 1.0234022
25.929655 22.974274 1.0395851
25.949957 23.180634 1.0842204
25.644541 24.550476 1.0651386
25.713669 24.762115 1.0244575
26.150833 19.978119 1.2459252
26.121016 20.17485 1.1998675
26.091274 20.371826 1.1642067
26.061693 20.569366 1.1507382
26.03211 20.766907 1.1368697
26.002283 20.963593 1.0894129
25.972736 21.16124 1.080343
25.94326 21.359131 1.08127
25.913696 21.556717 1.0696011
25.884064 21.754089 1.0491347
25.854519 21.951736 1.0402648
25.824986 22.149429 1.0329945
25.820307 22.351242 1.0435126
25.815544 22.55275 1.0419018
25.48127 24.12262 1.1083853
25.525476 24.32988 1.0405185
25.903156 19.93985 1.1914642
25.922407 20.142654 1.0920799
25.892935 20.340546 1.0932069
25.863405 20.538254 1.0867362
25.833838 20.73584 1.074867
25.8043 20.933533 1.0671971
25.774767 21.13121 1.0599265
25.745209 21.328827 1.0496573
25.715725 21.526672 1.0491846
25.710941 21.728134 1.0450406
25.706255 21.929947 1.0544927
25.701689 22.132126 1.0799394
25.317698 23.69371 1.1105788
25.362181 23.901901 1.0802999
25.406324 24.108963 1.004436
25.78352 19.717316 1.0886035
25.754055 19.915222 1.0907302
25.724525 20.11293 1.0838594
25.694996 20.310623 1.0769892
25.665447 20.50827 1.0681193
25.635988 20.706238 1.071245
25.631189 20.907639 1.0648358
25.626398 21.109055 1.0597591
25.621765 21.311035 1.0760088
25.178869 23.268509 1.1141002
25.198383 23.472229 1.0515709
25.242767 23.680099 1.0082293
25.610451 19.691559 1.0918405
25.630377 19.896637 1.0852923
25.576136 20.090698 1.0804932
25.571342 20.29213 1.0751503
25.541973 20.490372 1.0904722
25.070076 22.647385 1.1942687
25.064762 22.847031 1.117749
25.109329 23.055527 1.099333
25.128891 23.259369 1.0426681
24.955633 22.224747 1.1515334
24.975422 22.429367 1.1263249
24.995134 22.633759 1.0907195
24.989786 22.833282 1.0094016
24.85125 21.400833 1.184263
24.846176 21.601334 1.1409321
24.866045 21.806229 1.1265199
24.885839 22.01088 1.101711
24.880592 22.210785 1.0343885
24.80106 20.382736 1.2153933
24.796101 20.583618 1.1872575
24.791157 20.784531 1.1612549
24.786211 20.985443 1.1349852
24.806211 21.190796 1.138567
24.801258 21.391647 1.1112311
24.77025 19.567886 1.165067
24.765535 19.769562 1.1703873
24.760708 19.970871 1.1602457
24.755835 20.172012 1.1437063
24.750977 20.373245 1.129566
24.721041 20.56958 1.0673137
34.474258 27.89122 1.072473
34.325958 27.869293 1.0815027
34.078583 27.832047 1.0674281
33.880791 27.802612 1.0714035
33.682896 27.772842 1.0613835
33.485126 27.7435 1.0683579
33.2873 27.713943 1.0677347
33.089336 27.683945 1.0479181
32.866798 27.650757 1.0493
32.718697 27.629501 1.085587
32.569992 27.606216 1.0392349
32.372066 27.576324 1.0246165
29.233128 21.853714 1.2314322
29.203497 22.051056 1.2107661
29.174122 22.249298 1.2252882
29.144634 21.438904 1.3559687
29.139067 21.637695 1.2444608
29.109396 21.834915 1.2183969
29.079784 22.032333 1.2005298
29.050318 22.23027 1.2028561
29.123055 20.219986 1.2678118
29.118292 20.421494 1.2662675
29.06403 20.615494 1.2590024
29.025469 21.217926 1.3174868
28.897503 21.402481 1.3754833
28.941154 21.607864 1.2318418
28.911625 21.805588 1.2255714
28.882078 22.003204 1.2163014
28.85244 22.200562 1.1948354
28.950018 20.194336 1.2755139
28.920563 20.392273 1.2788401
28.891565 20.591782 1.3447454
28.862139 20.789825 1.3520701
28.832489 20.987137 1.3292048
28.79841 21.3871 1.3507133
28.743307 21.578262 1.2282197
28.713808 21.776062 1.2257481
28.684231 21.973602 1.2126794
28.654623 22.171051 1.1954119
28.752342 20.165298 1.2954841
28.772732 20.371933 1.3518484
28.70912 20.969574 1.3659532
28.580891 21.153259 1.3882277
28.575249 21.351807 1.2668567
28.545494 21.548752 1.2291963
28.540781 21.750458 1.2350495
28.486414 21.944061 1.2128561
28.456888 22.141815 1.207185
28.555145 20.137878 1.3804324
28.451752 20.325562 1.4173639
28.421829 20.521942 1.3567111
28.392109 20.718994 1.3240492
28.387356 20.920578 1.3243041
28.40729 21.125702 1.3186886
28.377337 21.321976 1.2540374
28.347666 21.519211 1.2281733
28.318148 21.716949 1.2233024
28.288969 21.915817 1.2644155
28.259151 22.112579 1.2185576
27.49711 27.054672 1.1793549
28.356798 20.106567 1.3086329
28.327267 20.30426 1.3015625
28.272928 20.498001 1.2837012
28.259903 20.698227 1.2796485
28.238588 20.897064 1.2693548
28.209 21.094589 1.2546866
28.179493 21.292374 1.2510152
28.14991 21.489883 1.2369471
28.120846 21.689178 1.2942553
28.090954 21.885635 1.2378011
28.061239 22.082733 1.2061386
27.495977 26.042603 1.1558263
27.378891 26.836884 1.2698972
27.397461 27.03743 1.0783436
28.158878 20.076721 1.2950141
28.129311 20.274277 1.2831454
28.099726 20.471802 1.2688773
28.070147 20.669327 1.2552092
28.040644 20.867126 1.2521374
28.011263 21.065353 1.2662594
27.981766 21.263168 1.2639875
27.952251 21.460922 1.2593162
27.922766 21.658768 1.2586439
27.9177 21.859253 1.2158463
27.912815 22.060394 1.1979737
27.136253 26.598038 1.2543683
27.961004 20.047012 1.2877934
27.931459 20.244644 1.2789237
27.90192 20.442307 1.2708535
27.87233 20.639801 1.2555859
27.842905 20.837875 1.2635105
27.813389 21.035645 1.2588389
27.783808 21.23317 1.2451706
27.75449 21.43158 1.2670906
27.72497 21.629318 1.2620194
27.695248 21.826355 1.2289577
27.159031 25.586899 1.1191378
26.943287 26.367279 1.2678852
27.061684 26.585663 1.201602
27.763077 20.01712 1.272975
27.733517 20.214706 1.2619061
27.703959 20.412308 1.2512367
27.674631 20.610703 1.272557
27.645128 20.808502 1.269685
27.615366 21.005447 1.2314246
27.585815 21.203079 1.2217553
27.581202 21.40509 1.2407372
27.527098 21.59964 1.2551985
27.497747 21.797928 1.2727199
27.443233 21.991104 1.231266
26.990757 25.359726 1.1283844
26.775024 26.140182 1.2787311
26.84363 26.350006 1.166074
27.56535 19.98793 1.2859473
27.535622 20.184952 1.2522857
27.506121 20.382751 1.2494142
27.47686 20.58136 1.2793314
27.447193 20.778595 1.2536669
27.417631 20.976196 1.2429976
27.462124 21.184448 1.2145181
27.367628 21.37558 1.3406622
27.329557 21.57106 1.2931626
27.299788 21.767944 1.2539029
27.344088 21.97554 1.1990316
26.606581 25.91243 1.2647855
26.675344 26.122803 1.1734545
27.367456 19.958145 1.2759273
27.411921 20.16626 1.2432494
27.308439 20.353668 1.2681844
27.279438 20.553162 1.3336899
27.250301 20.752197 1.3810015
27.219872 20.946884 1.2513714
27.141571 21.139511 1.3380141
27.137051 21.341873 1.3698585
27.131636 21.541183 1.2795439
27.101896 21.738159 1.2440827
26.463074 25.689056 1.2789586
26.531898 25.899673 1.1964245
27.169579 19.928421 1.2679069
27.115385 20.122635 1.2699723
27.111095 20.32576 1.3333395
27.081301 20.522583 1.2904811
27.002722 20.714264 1.3391364
27.096237 20.928436 1.2515318
26.992851 21.11618 1.2894628
26.963818 21.315567 1.3507695
26.933653 21.511124 1.2575278
26.903936 21.708176 1.2250657
26.824921 21.898407 1.2143404
26.294584 25.461166 1.2582147
26.388449 25.676498 1.218595
26.97183 19.899139 1.2780802
26.942257 20.09668 1.2652118
26.888756 20.293243 1.3615792
26.883251 20.492264 1.2588685
26.854107 20.691269 1.3051801
26.800714 20.888229 1.4166088
26.7955 21.088226 1.3538182
26.757236 21.283051 1.2796605
26.735981 21.482086 1.277698
26.706369 21.679504 1.2596309
26.676767 21.876968 1.2431633
26.15097 25.237442 1.2578592
26.194937 25.443893 1.1573367
26.773958 19.869446 1.2710593
26.769077 20.070557 1.2532537
26.690119 20.260956 1.2501929
26.685438 20.462769 1.2600448
26.655865 20.660339 1.247576
26.552202 20.847153 1.2479188
26.597912 21.059494 1.3855844
26.567867 21.255463 1.3083372
26.53783 21.451462 1.2326896
26.508648 21.650314 1.2732034
26.552856 21.857605 1.206136
25.963032 24.806091 1.3096416
26.007235 25.013336 1.2413752
26.600775 19.843307 1.2587681
26.521799 20.033646 1.2530413
26.517706 20.237427 1.3430667
26.433424 20.627472 1.2622199
26.428658 20.82901 1.2604752
26.399939 21.029449 1.364768
26.36982 21.225159 1.2771244
26.340181 21.422501 1.2562585
26.310982 21.621307 1.2945728
25.819242 24.581741 1.2850275
25.863361 24.788757 1.2059646
26.304998 19.802246 1.3891897
26.324791 20.006866 1.3639812
26.215553 20.392456 1.252017
26.260225 20.601288 1.2479291
26.255676 20.803558 1.2759745
26.226349 21.001938 1.296895
26.221262 21.202377 1.2511654
26.216379 21.403488 1.2334266
26.137512 21.594193 1.2428944
25.655968 24.153885 1.3280077
25.67523 24.35672 1.2302897
25.744429 24.568542 1.1986725
26.180748 19.781708 1.305378
26.151028 19.978775 1.272716
26.062527 20.572189 1.2647004
25.517336 23.72937 1.3587198
25.536795 23.932877 1.2881927
25.581068 24.140366 1.2296565
25.983635 19.754578 1.4019227
26.002825 19.957169 1.2947414
25.378569 23.304398 1.371038
25.398069 23.508057 1.3063762
25.417576 23.711746 1.2425134
25.43704 23.915268 1.1730525
25.554188 21.104645 1.328886
25.5734 21.307343 1.2253036
25.239548 22.878586 1.3489678
25.259129 23.082504 1.2952356
25.278755 23.286575 1.2476342
25.298277 23.490311 1.1861711
25.130472 22.25647 1.3899496
25.125351 22.456787 1.3398213
25.169964 22.665466 1.3280694
25.164703 22.86528 1.2586141
25.021048 21.633179 1.3837469
25.015944 21.833557 1.3360178
25.010849 22.033966 1.289355
25.055626 22.243164 1.2995958
25.050358 22.442978 1.2290745
24.971035 20.615677 1.4388695
24.941105 20.812027 1.3774171
24.936117 21.012787 1.3452828
24.931211 21.213837 1.3248782
24.951199 21.419113 1.3260605
24.946136 21.619644 1.2841959
24.941072 21.820175 1.2420654
24.945242 19.600128 1.4245431
24.915447 19.796921 1.3814847
24.910681 19.998444 1.3798735
24.880817 20.195007 1.3274848
24.900957 20.400818 1.3499937
24.896088 20.60202 1.3345201
24.891115 20.802826 1.3043854
24.861191 20.999207 1.2437327
24.870277 19.586426 1.3177946
24.840559 19.783478 1.2851329
31.094727 29.212006 1.2736342
30.066578 28.656937 1.3969107
29.55212 28.378098 1.4063661
29.136646 28.114273 1.4251306
29.0126 28.094437 1.3695762
28.74568 27.853394 1.4148324
28.646402 27.837402 1.364471
28.404249 27.600174 1.4151862
28.952019 21.209335 1.41747
28.996735 21.41832 1.4194469
28.087534 27.350616 1.4140689
28.788626 20.781006 1.443656
28.803705 21.187378 1.4247
27.869968 27.116608 1.4450521
27.938457 27.32605 1.3165338
28.67452 20.359528 1.447305
28.694813 20.565857 1.4908736
28.66547 20.764191 1.5097945
28.611128 20.957932 1.4915333
28.680006 21.168701 1.4164631
27.720886 27.092041 1.3471172
28.55094 20.341263 1.4551961
28.52178 20.540222 1.4990423
28.492434 20.738541 1.5172968
28.487429 20.93927 1.4831631
27.553013 26.866196 1.4105461
27.596689 27.071686 1.270503
28.295191 20.710968 1.596247
27.360073 26.635559 1.428395
27.428715 26.84552 1.3205364
27.820385 21.849899 1.4339292
27.167068 26.404663 1.4365804
27.235718 26.61467 1.3300548
26.998875 26.177795 1.4566233
27.04277 26.383987 1.3465042
26.830591 25.950592 1.4646704
26.874485 26.156799 1.3541512
27.31558 21.168442 1.463268
26.662285 25.723282 1.4687188
26.706211 25.929626 1.3628647
27.241268 21.156937 1.4456902
27.236282 21.357697 1.4135559
26.705597 24.919281 1.4102457
26.518679 25.499603 1.4695623
26.562687 25.706192 1.3746386
27.102348 20.731445 1.4368155
26.999029 20.919418 1.4842763
26.350176 25.271652 1.4473529
26.394192 25.478287 1.3534946
26.988281 20.310104 1.4460626
26.89974 20.903381 1.4328482
26.791601 21.292679 1.4704344
26.162357 24.840698 1.5153966
26.206491 25.047714 1.4377334
26.250641 25.254791 1.3620694
26.652643 20.867081 1.4571612
26.018536 24.616241 1.4859841
26.062757 24.823593 1.4210498
26.082064 25.026581 1.3297296
25.855291 24.188461 1.532963
25.874664 24.391693 1.450973
25.9189 24.59903 1.3871055
26.39966 20.020248 1.4579339
25.73621 23.967804 1.5062103
25.755632 24.171173 1.4308851
25.775002 24.374374 1.3480957
25.725254 22.349503 1.5705595
25.813347 22.762985 1.3916404
25.57262 23.538803 1.5054722
25.617044 23.746841 1.4679952
25.636532 23.950439 1.4012003
25.616171 21.727371 1.6107411
25.438967 22.913513 1.5675185
25.433823 23.113739 1.5137916
25.478226 23.321671 1.4728494
25.497879 23.525848 1.4295135
25.536438 20.906906 1.6332018
25.324825 22.491898 1.5655696
25.319603 22.691895 1.5021124
25.339252 22.896027 1.4574435
25.35895 23.100342 1.4194391
25.515705 19.690872 1.6610062
25.559145 19.895523 1.4883749
25.526037 20.298752 1.6419063
25.516495 20.701767 1.6376173
25.22052 21.668289 1.6094949
25.215504 21.868958 1.5737622
25.210417 22.069397 1.527899
25.230261 22.2742 1.5101547
25.225086 22.474335 1.4522958
25.140648 20.847351 1.6127622
25.135746 21.048431 1.5926239
25.13081 21.249359 1.5676875
25.125835 21.450165 1.5373526
25.120821 21.650864 1.5018191
25.115782 21.851471 1.4628875
25.110657 22.051758 1.4119594
25.119844 19.631073 1.6309698
25.115032 19.832413 1.6228278
25.085308 20.029449 1.589366
25.0805 20.230835 1.5817571
25.050703 20.427643 1.538965
25.070747 20.633148 1.5486777
25.040932 20.82988 1.5026872
25.036001 21.030823 1.4781501
25.030977 21.231491 1.4416177
25.045031 19.617874 1.5446146
25.015282 19.814819 1.5079541
25.010546 20.016418 1.5102084
24.980673 20.212967 1.4567535
34.241508 29.48465 1.4957497
34.043659 29.455017 1.4917276
33.959377 29.845078 1.410681
33.845856 29.425552 1.4937036
33.78627 29.819183 1.4087863
33.648033 29.396011 1.4936805
33.569489 29.587845 1.5475342
33.637894 29.797012 1.4074192
33.47493 29.370148 1.4923856
33.42099 29.565247 1.5295727
33.223034 29.535263 1.5107558
33.025192 29.505661 1.5079331
32.827278 29.47583 1.4951141
32.62941 29.446136 1.488693
32.431622 29.416733 1.4930685
32.23362 29.386581 1.4682534
32.070213 28.958237 1.4925728
32.035667 29.356613 1.4502358
31.897129 28.932449 1.4941437
31.794064 29.121246 1.57566
31.83761 29.326309 1.4180233
31.748787 28.91037 1.497175
31.670218 29.102097 1.5472298
31.713785 29.307205 1.3923922
31.472162 29.071777 1.5150173
31.274117 29.041489 1.4842043
31.061148 28.605408 1.4945393
31.076202 29.011658 1.471585
30.937557 28.587112 1.5010974
30.859255 28.779739 1.5873406
30.813875 28.568497 1.4948599
30.710562 28.756485 1.542588
30.51256 28.726364 1.5179727
30.348848 28.296967 1.5004396
30.314547 28.696167 1.4915583
30.200443 28.274689 1.4951408
30.14686 28.470993 1.5809777
30.165747 28.672577 1.4322107
29.948601 28.439972 1.5209746
29.784868 28.010513 1.5007095
29.706804 28.203964 1.6200078
29.750504 28.409531 1.4833639
29.685991 27.99588 1.5052629
29.582844 28.184418 1.575783
29.626503 28.389847 1.4335408
29.39407 27.750214 1.5130701
29.384644 28.15361 1.523977
29.270678 27.73259 1.5465527
29.216795 27.927887 1.5912039
29.235901 28.130188 1.4724267
29.003141 27.489471 1.5075705
28.97464 27.690659 1.6412532
29.018559 27.896942 1.5341997
28.904366 27.475174 1.5262525
28.850784 27.671478 1.6118233
28.844982 27.869476 1.4683931
28.661776 27.236465 1.5167212
28.682701 27.444946 1.6470613
28.652414 27.640076 1.5364254
28.514109 27.21669 1.6121223
28.484568 27.414352 1.6040523
28.503571 27.616333 1.4712794
28.320358 26.983276 1.5186751
28.316547 27.188034 1.6476872
28.286158 27.382843 1.5236557
28.127335 26.752335 1.524595
28.148273 26.960846 1.6563342
28.118279 27.156998 1.5862844
28.701746 21.379913 1.6575663
27.979584 26.732285 1.6085997
27.950214 26.930527 1.6237218
27.969309 27.132797 1.5035441
27.810925 26.503799 1.5648637
27.782099 26.703888 1.6547611
27.751732 26.898758 1.5335286
27.61764 26.271988 1.5352616
27.613855 26.476807 1.6674063
27.58371 26.67244 1.5767634
28.374975 20.523361 1.7123373
27.424574 26.040909 1.5357168
27.445541 26.249512 1.6712544
27.41556 26.445679 1.6026044
27.459488 26.652023 1.4971507
27.256254 25.813568 1.5381658
27.277239 26.022263 1.6765025
27.247349 26.21875 1.6204481
27.266483 26.421143 1.5054691
27.087957 25.586319 1.5438132
27.1089 25.79483 1.6763523
27.079117 25.991699 1.635093
27.098368 26.194519 1.5363085
26.919653 25.359055 1.5490611
26.940428 25.567001 1.6582077
26.910769 25.764267 1.6339433
26.930073 25.96727 1.5423563
26.776047 25.135361 1.5497713
26.772287 25.340286 1.6856482
26.742453 25.536957 1.6369913
26.761789 25.740051 1.5500035
26.608105 24.909317 1.604336
26.603992 25.113037 1.6916955
26.574007 25.309204 1.6226456
26.61824 25.516556 1.558578
26.419495 24.475662 1.56335
26.464714 24.68634 1.6338375
26.435631 24.885574 1.6885462
26.405539 25.081375 1.6051009
26.449741 25.28862 1.5366349
26.300783 24.256241 1.5869808
26.296671 24.459946 1.6744733
26.267216 24.657898 1.6779995
26.261856 24.857437 1.5956149
26.112354 23.823212 1.5713189
26.157581 24.03392 1.6430061
26.128551 24.233322 1.7049129
26.098625 24.429672 1.6438603
26.118124 24.633301 1.5788648
25.973633 23.398376 1.5900352
25.993898 23.604614 1.6298718
25.98975 23.808228 1.7126324
25.960041 24.005325 1.68137
25.954847 24.205414 1.6214452
25.974348 24.409058 1.5562499
25.834818 22.973267 1.5959556
25.855135 23.179672 1.6429899
25.850779 23.382568 1.6967602
25.821388 23.58075 1.7094834
25.79133 23.776688 1.6306365
25.8358 23.984848 1.5989578
25.720808 22.552109 1.6124008
25.716658 22.755722 1.6950281
25.712143 22.958054 1.7276723
25.682583 23.155655 1.7168033
25.652643 23.351974 1.6539512
25.672197 23.555817 1.5967534
25.611526 21.929291 1.6257915
25.607172 22.132202 1.6802952
25.602686 22.334656 1.7166712
25.573364 22.533066 1.7381916
25.543634 22.730133 1.7049296
25.538582 22.930649 1.6637316
25.533394 23.130753 1.6042731
25.50703 21.105026 1.6429257
25.502724 21.308105 1.7039607
25.522659 21.513214 1.6987455
25.49342 21.711914 1.7318616
25.464119 21.910385 1.7565806
25.434435 22.107574 1.7289169
25.404619 22.304306 1.6830592
25.424397 22.508881 1.6560514
25.419249 22.709137 1.602324
25.48629 19.888947 1.6699307
25.481516 20.090408 1.6665869
25.45248 20.28978 1.727494
25.447773 20.491516 1.7340133
25.418369 20.689667 1.74507
25.413639 20.891296 1.7479243
25.384357 21.089844 1.7750425
25.354746 21.287277 1.7575758
25.325043 21.48436 1.7267129
25.32015 21.685486 1.7078407
25.31517 21.886276 1.6770396
25.310112 22.086792 1.6353085
25.392925 19.675308 1.7779279
25.363628 19.873779 1.8030469
25.334053 20.071335 1.7901783
25.304489 20.268906 1.7785094
25.274834 20.466202 1.7550445
25.245188 20.663528 1.7327788
25.240326 20.864716 1.7177722
25.235395 21.065689 1.6935022
25.230484 21.266708 1.6721644
25.219545 19.648499 1.7389121
25.214718 19.849792 1.7285042
25.185009 20.04689 1.6974416
25.180201 20.24826 1.6896996
25.150484 20.445343 1.6578374
34.212784 29.685074 1.5992427
34.014908 29.655365 1.5920217
33.816963 29.625412 1.574404
33.668514 29.602982 1.5632403
33.442947 29.368591 1.6276367
33.253357 29.34024 1.6253903
33.05558 29.310867 1.6319644
32.857727 29.281219 1.6269429
32.659889 29.251648 1.6251204
32.462051 29.222061 1.622498
32.264252 29.192581 1.6250741
32.066376 29.162888 1.6178529
31.893147 29.136597 1.599097
31.650816 28.898773 1.6254208
31.502493 28.876785 1.6314514
31.304663 28.847229 1.6302288
31.106869 28.81778 1.633604
30.958385 28.795242 1.6174419
30.715975 28.557159 1.6329691
30.542883 28.531342 1.6332073
30.345005 28.501617 1.6253865
30.102551 28.263351 1.6340497
29.97892 28.244934 1.6352098
29.805784 28.218948 1.6293163
29.588066 27.984436 1.6399066
29.414974 27.958618 1.6402113
29.172483 27.720261 1.6446753
29.073578 27.705521 1.6452301
28.806406 27.463608 1.6560977
