# .PCD v0.7 - Point Cloud Data file format
VERSION 0.7
FIELDS x y z
SIZE 4 4 4
TYPE F F F
COUNT 1 1 1
WIDTH 1886
HEIGHT 1
VIEWPOINT 0 0 0 1 0 0 0
POINTS 1886
DATA ascii
25 21.950001 -0.6408
25 22.025 -0.7112
27.6 27.35 -0.78960001
28 27.75 -0.67439997
28.200001 27.950001 -0.75520003
28.4 28.1 -0.75199997
25 21.674999 -0.50239998
25 21.85 -0.53520006
25.200001 22.9 -0.41839999
26.200001 25.5 -0.45680001
27.799999 27.549999 -0.44240001
28.200001 27.9 -0.46799999
31 29.549999 -0.55199999
31.200001 29.6 -0.47839999
34.400002 30.25 -0.4736
25 21.5 -0.2396
25 21.674999 -0.34119999
25.200003 22.699999 -0.22026666
25.200001 22.825001 -0.30720001
25.4 23.483332 -0.24720001
25.6 24.125 -0.32800001
25.799999 24.549999 -0.2432
25.799999 24.625 -0.2816
26 25.025 -0.27320001
26.200001 25.450001 -0.3224
26.4 25.75 -0.2624
27 26.6 -0.2472
27.200001 26.875 -0.28760001
27.6 27.299999 -0.25440001
27.799999 27.5 -0.26719999
28 27.700001 -0.36160001
28.200001 27.85 -0.208
28.4 28.049999 -0.252
28.6 28.200001 -0.27360001
28.799999 28.35 -0.35519999
29.6 28.85 -0.2728
30.4 29.25 -0.29280001
30.6 29.35 -0.29280001
30.799999 29.450001 -0.352
31 29.5 -0.2208
31.4 29.65 -0.32159999
33.400002 30.1 -0.27200001
34.400002 30.200001 -0.2024
30.200001 20 -0.1496
25 21.099998 -0.016799999
25 21.275002 -0.1126
25 21.450001 -0.13240001
25.200003 22.5 -0.044800002
25.200001 22.6 -0.1384
25.4 23.325001 -0.075600006
25.4 23.450001 -0.17919999
25.6 23.950001 -0.048799999
25.6 24.025 -0.1124
25.799999 24.475 -0.077200003
26 24.924999 -0.068000004
26.200001 25.325001 -0.065200001
26.200001 25.4 -0.16240001
26.4 25.674999 -0.068000004
26.6 25.950001 -0.0176
26.6 26.025 -0.12799999
26.799999 26.325001 -0.16760001
27 26.549999 -0.1232
27.200001 26.799999 -0.116
27.4 27.049999 -0.152
27.6 27.25 -0.057599999
27.799999 27.450001 -0.112
28 27.65 -0.1256
28.4 28 -0.078400001
28.6 28.15 -0.1224
28.799999 28.299999 -0.1096
29 28.450001 -0.094400004
29.200001 28.549999 -0.034400001
29.200001 28.6 -0.1568
29.4 28.700001 -0.087200001
29.6 28.799999 -0.052000001
29.799999 28.950001 -0.1608
30 29.025 -0.082800001
30.6 29.299999 -0.043200001
30.799999 29.4 -0.13680001
31 29.450001 -0.031199999
31.200001 29.549999 -0.1664
31.4 29.6 -0.028000001
31.6 29.65 -0.028000001
32 29.799999 -0.17200001
32.200001 29.85 -0.17120001
32.799999 29.950001 -0.0128
33.400002 30.049999 -0.0055999998
34.599998 30.200001 -0.1432
34.799999 30.200001 -0.075999998
35.799999 30.25 -0.091200002
30.200001 20.049999 0.0264
25 20.5 0.1904
25 20.674999 0.13600001
25 20.875 0.055599999
25 21.049999 0.0080000004
25.200001 22.275002 0.1096
25.200001 22.4 0.037599999
25.4 23.1 0.156
25.4 23.225 0.077199996
25.6 23.75 0.17919999
25.6 23.85 0.091199994
25.799999 24.35 0.1
25.799999 24.4 0.0704
26 24.825001 0.1292
26.200001 25.225 0.102
26.4 25.549999 0.1864
26.4 25.6 0.073600002
26.6 25.9 0.108
26.799999 26.225 0.062799998
27 26.475 0.1116
27.200001 26.725 0.080000006
27.4 26.950001 0.092
27.4 27 0.0063999998
27.6 27.15 0.16159999
27.6 27.200001 0.055199999
27.799999 27.35 0.1648
27.799999 27.4 0.064800002
28 27.6 0.078400001
28.200001 27.75 0.096799999
28.200001 27.799999 0.0208
28.4 27.924999 0.098800004
28.6 28.1 0.068000004
28.799999 28.25 0.083999999
29 28.35 0.18719999
29 28.4 0.048
29.200001 28.5 0.12720001
29.4 28.65 0.048799999
29.6 28.75 0.1024
29.799999 28.875 0.1004
30 28.950001 0.1656
30.200001 29.075001 0.091600001
30.4 29.15 0.1552
30.4 29.200001 0.0176
30.6 29.25 0.099200003
30.799999 29.35 0.1
31 29.4 0.1384
31.200001 29.5 0.0832
31.4 29.549999 0.087200001
31.799999 29.700001 0.0416
32 29.725 0.1184
32.200001 29.799999 0.040800001
32.400002 29.85 0.047200002
32.599998 29.85 0.184
32.799999 29.9 0.1736
33 29.950001 0.1216
33.400002 30 0.1768
33.799999 30.049999 0.13600001
34 30.1 0.078400001
34.400002 30.125 0.122
34.599998 30.15 0.080799997
34.799999 30.15 0.13519999
35.599998 30.200001 0.1128
35.799999 30.200001 0.088
25 20.075001 0.25639999
30.200001 20.125 0.29159999
25 20.275 0.22600001
25 20.450001 0.21880001
25.200001 21.725 0.38120002
25.200001 21.875 0.31239998
25.200001 22.075001 0.22660001
25.4 22.875 0.329
25.4 23 0.208
25.6 23.65 0.29173335
25.799999 24.15 0.37040001
25.799997 24.25 0.24799998
26 24.699999 0.27146664
26.200003 25.1 0.28773335
26.4 25.475 0.26640001
26.6 25.75 0.3712
26.6 25.825001 0.26480001
26.799997 26.099998 0.29146668
27 26.35 0.35600001
27 26.4 0.25600001
27.200001 26.625 0.32960001
27.4 26.875 0.30039999
27.6 27.075001 0.33039999
27.799999 27.275 0.33759999
28 27.525 0.24559999
28.200001 27.674999 0.3136
28.4 27.85 0.31760001
28.6 28.025 0.2872
28.799999 28.15 0.324
28.799999 28.200001 0.2352
29 28.299999 0.32319999
29.200001 28.424999 0.32999998
29.4 28.549999 0.3048
29.4 28.6 0.21439999
29.6 28.674999 0.31080002
29.799999 28.75 0.39039999
29.799999 28.799999 0.2744
30 28.9 0.2976
30.200001 29 0.29840001
30.4 29.1 0.27520001
30.6 29.15 0.3976
30.6 29.200001 0.2784
30.799999 29.275 0.27680001
31 29.325001 0.3416
31.200001 29.424999 0.27920002
31.4 29.475 0.3272
31.6 29.549999 0.29679999
31.6 29.6 0.20720001
31.799999 29.625 0.26680002
32 29.65 0.35440001
32.200001 29.725 0.30359998
32.400002 29.75 0.352
32.400002 29.799999 0.21439999
32.599998 29.799999 0.3328
32.799999 29.85 0.30880001
33 29.9 0.26480001
33.200001 29.924999 0.2872
33.400002 29.950001 0.29840001
33.599998 29.950001 0.38960001
33.599998 30 0.25279999
33.799999 30 0.31600001
34 30.025 0.30840001
34.200001 30.049999 0.29519999
34.400002 30.049999 0.35679999
34.599998 30.075001 0.32560003
34.799999 30.1 0.28080001
35 30.1 0.3184
35.200001 30.1 0.35600001
35.400002 30.1 0.37760001
35.599998 30.125 0.31040001
35.799999 30.15 0.25040001
36 30.125 0.33520001
30.200001 20.200001 0.55599999
25.200001 21.075001 0.57799995
25.200001 21.275 0.54960001
25.200001 21.475 0.4842
25.200001 21.625 0.43120003
25.4 22.5 0.54853326
25.4 22.674999 0.46139997
25.6 23.275002 0.57620001
25.6 23.474998 0.44980001
25.799999 23.924999 0.55359995
25.799997 24.049997 0.45866668
26 24.474998 0.51340002
26 24.6 0.40400001
26.200003 24.900002 0.53466672
26.200001 25 0.43920001
26.4 25.300001 0.49839997
26.4 25.4 0.40560001
26.6 25.65 0.50746661
26.799999 25.924999 0.56599998
26.799999 26 0.44080001
27 26.25 0.49439999
27.200001 26.525 0.48480001
27.4 26.725 0.5388
27.4 26.799999 0.40799999
27.6 26.950001 0.56720001
27.6 27 0.4456
27.799999 27.15 0.588
27.799999 27.200001 0.50080001
28 27.35 0.59039998
28 27.424999 0.44800001
28.200001 27.549999 0.55599999
28.200001 27.6 0.46079999
28.4 27.725 0.55239999
28.4 27.799999 0.4032
28.6 27.924999 0.46079999
28.799999 28.075001 0.47280002
29 28.225 0.48199999
29.200001 28.35 0.50239998
29.4 28.475 0.52240002
29.6 28.6 0.46720001
29.799999 28.700001 0.5352
30 28.825001 0.47279999
30.200001 28.924999 0.47999999
30.4 29.025 0.4824
30.6 29.1 0.51279998
30.799999 29.15 0.59359998
30.799999 29.200001 0.47279999
31 29.25 0.58719999
31.200001 29.325001 0.53439999
31.4 29.4 0.52880001
31.6 29.475 0.4984
31.799999 29.525 0.51880002
32 29.6 0.4752
32.200001 29.65 0.4928
32.400002 29.674999 0.53680003
32.599998 29.725 0.5248
32.799999 29.75 0.55760002
32.799999 29.799999 0.44319999
33 29.825001 0.48159999
33.200001 29.85 0.4984
33.400002 29.875 0.51359999
33.599998 29.9 0.4896
33.799999 29.924999 0.51279998
34 29.950001 0.50559998
34.200001 29.950001 0.56
34.400002 29.950001 0.58560002
34.200001 30 0.4224
34.400002 30 0.49520001
34.599998 30 0.51599997
34.799999 30.025 0.50279999
35 30.025 0.52200001
35.200001 30.049999 0.4928
35.400002 30.049999 0.50400001
35.599998 30.049999 0.52079999
35.799999 30.075001 0.4648
36 30.049999 0.53600001
25.200001 20.075001 0.77340001
25.200001 20.275002 0.745
30.200001 20.25 0.73280001
25.200001 20.475 0.70640004
25.200001 20.675001 0.67919993
25.200001 20.875 0.65320003
25.200001 21.075001 0.60839999
25.4 21.924999 0.78119999
25.4 22.074999 0.71640003
25.4 22.275002 0.65380001
25.4 22.4 0.6128
30.799999 22.75 0.77600002
31 22.65 0.70160002
25.6 22.924999 0.77560002
25.6 23.074999 0.70779997
25.799999 23.674999 0.74220002
30.200001 23.75 0.79759997
25.799999 23.825001 0.65120006
30.200001 23.900002 0.78799999
30.200001 24.075001 0.79219997
26 24.275002 0.69560003
30.200003 24.300001 0.78213334
30.200001 24.474998 0.78420001
26.200003 24.699999 0.72613335
30.200001 24.6 0.79119998
26.200001 24.799999 0.63520002
26.4 25.075001 0.74120003
30.200001 25.15 0.77359998
26.4 25.200001 0.62639999
30.200001 25.200001 0.77600002
26.6 25.474998 0.70060003
26.799999 25.75 0.75919998
26.799999 25.825001 0.67760003
27 26.1 0.70853335
27.200001 26.325001 0.76199996
30.6 26.25 0.7888
27.200001 26.424999 0.62800002
27.4 26.549999 0.78079998
27.4 26.625 0.68599999
27.6 26.85 0.70880002
27.799997 27.049997 0.70239997
28 27.275 0.67919999
28.200003 27.449999 0.70346665
28.4 27.625 0.71319997
28.6 27.75 0.79839998
28.6 27.825001 0.67439997
28.799999 27.924999 0.75319999
28.799999 28 0.62239999
29 28.125 0.66280001
29.200003 28.25 0.67840004
29.4 28.35 0.75199997
29.4 28.4 0.6512
29.6 28.5 0.69253331
29.799999 28.549999 0.79280001
29.799999 28.625 0.69280005
30 28.725 0.69480002
30.200001 28.825001 0.69120002
30.4 28.924999 0.68040001
30.6 28.950001 0.78640002
30.6 29.025 0.68840003
30.799999 29.075001 0.72240001
31 29.15 0.73119998
31 29.200001 0.63840002
31.200001 29.225 0.73119998
31.4 29.325001 0.67840004
31.6 29.35 0.76880002
31.6 29.4 0.66799998
31.799999 29.424999 0.73360002
32 29.5 0.69306666
32.200001 29.525 0.74839997
32.400002 29.549999 0.79280001
32.200001 29.6 0.60960001
32.400002 29.6 0.67439997
32.599998 29.625 0.74520004
32.799999 29.674999 0.72399998
33 29.725 0.69239998
33.200001 29.75 0.7184
33.400002 29.75 0.76719999
33.200001 29.799999 0.61839998
33.400002 29.799999 0.6688
33.599998 29.825001 0.68559998
33.799999 29.825001 0.72800004
34 29.875 0.67560005
34.200001 29.875 0.71759999
34.400002 29.9 0.71520001
34.599998 29.924999 0.69079995
34.799999 29.924999 0.70959997
35 29.924999 0.7252
35.200001 29.950001 0.71679997
35.400002 29.950001 0.72079998
35.599998 29.950001 0.73439997
35.799999 29.950001 0.74000001
35.200001 30 0.60079998
35.400002 30 0.6128
35.599998 30 0.63200003
35.799999 30 0.64560002
26.6 20.049999 0.98479998
28 20 0.99040002
28.200001 20.025 0.9436
28.4 20.025 0.93400002
28.6 20.049999 0.9629333
28.799997 20.049999 0.97040004
29 20.050001 0.97679996
29.200003 20.050001 0.93946671
29.4 20.075001 0.94620001
29.6 20.074999 0.95099998
29.799999 20.075001 0.95539999
30 20.1 0.96053332
29.4 20.200001 0.97439998
29.6 20.25 0.96773338
29.799999 20.275002 0.96439999
30 20.275 0.96539998
30.200001 20.325001 0.91960001
29.799999 20.475 0.97099996
30 20.474998 0.96399999
30.200001 20.475 0.93040001
30 20.674999 0.97239995
30.200001 20.674999 0.93140006
30 20.825001 0.98759997
30.200001 20.875 0.92540002
25.4 21.074999 0.98360002
26.6 21.1 0.99413329
26.799999 21.125 0.95920002
30 21.125 0.98080003
30.200001 21.075001 0.90500003
25.4 21.275002 0.95279998
26.799997 21.25 0.97786665
30 21.275002 0.97139996
30.200001 21.275 0.8976
25.4 21.475 0.90560001
26.799997 21.5 0.99493331
29.799999 21.424999 0.9932
30 21.474998 0.954
30.200001 21.474998 0.86959994
25.4 21.674999 0.85360003
30 21.675001 0.9558
30.200001 21.674999 0.83859998
25.4 21.825001 0.81159997
26.799999 21.875 0.99059999
30.200001 21.825001 0.90960002
26.799999 22 0.98479998
25.6 22.299999 0.99360001
26.799997 22.25 0.99359995
25.6 22.474998 0.96200001
25.6 22.675001 0.88080001
27 22.725 0.97959995
25.6 22.825001 0.82239997
27 22.9 0.98720002
27.200001 22.924999 0.972
27.4 22.9 0.97093338
27.6 22.924999 0.97440004
27.799999 22.950001 0.98159999
28 22.950001 0.97839999
28.200001 22.950001 0.98400003
28.4 22.950001 0.99040002
28.6 22.950001 0.9648
29.799999 22.950001 0.98159999
30 22.950001 0.9752
30.200003 22.9 0.95759994
30.6 22.950001 0.8312
27 23.075001 0.99220002
27.200001 23.074999 0.97640002
27.4 23.075001 0.96680003
27.6 23.075001 0.96499991
27.799999 23.074999 0.96600002
28 23.075001 0.96799999
28.200003 23.083334 0.96906668
28.4 23.075001 0.95920002
28.6 23.074999 0.96139997
28.799999 23.075001 0.95220006
29 23.075001 0.96279997
29.200001 23.074999 0.96759999
29.4 23.075001 0.95879996
29.6 23.075001 0.94499999
29.799999 23.074999 0.94340003
30 23.075001 0.94659996
30.200001 23.075001 0.87720001
25.799997 23.300001 0.96079999
27.200001 23.275002 0.97439998
27.4 23.275 0.96380007
27.6 23.275002 0.96380007
27.799999 23.274998 0.96140003
28 23.275002 0.95960003
28.200001 23.275002 0.95780003
28.4 23.275002 0.95340002
28.6 23.275002 0.95319998
28.799999 23.275002 0.95560002
29 23.275 0.95419997
29.200001 23.275002 0.95700002
29.4 23.275 0.96000004
29.6 23.275 0.94500005
29.799999 23.275002 0.94620001
30 23.275002 0.94679999
30.200001 23.275 0.82220006
30.4 23.25 0.82080001
25.799999 23.474998 0.86580002
27.200001 23.474998 0.977
27.4 23.475 0.96520001
27.6 23.474998 0.96420002
27.799999 23.475 0.96140003
28 23.475 0.95520008
28.200001 23.474998 0.954
28.4 23.475 0.95300001
28.6 23.475 0.9558
28.799999 23.475 0.95579994
29 23.474998 0.95239997
29.200001 23.474998 0.95379996
29.4 23.474998 0.95959997
29.6 23.474998 0.94499999
29.799999 23.474998 0.9382
30 23.475002 0.94620001
30.200001 23.475 0.82080001
27.200001 23.675001 0.9842
27.4 23.674999 0.96579993
27.6 23.675001 0.96319997
27.799999 23.674999 0.958
28 23.674999 0.95919997
28.200001 23.674999 0.95819998
28.4 23.674999 0.95459998
28.6 23.675001 0.95599997
28.799999 23.674999 0.954
29 23.675001 0.95280004
29.200001 23.675001 0.95419997
29.4 23.674999 0.94459999
29.6 23.674999 0.94620001
29.799999 23.674999 0.94339997
30 23.674999 0.94440001
30.200003 23.65 0.83866668
26 23.924999 0.93919998
27.4 23.875 0.96939999
27.6 23.874998 0.96719992
27.799999 23.875 0.96060002
28 23.875 0.95840001
28.200001 23.875 0.95679998
28.4 23.874998 0.95599997
28.6 23.875002 0.95060003
28.799999 23.875 0.95300007
29 23.875 0.95239997
29.200001 23.875002 0.95379996
29.4 23.874998 0.93919998
29.6 23.875 0.94459999
29.799999 23.875 0.94440001
30 23.874998 0.94100004
30.200001 23.849998 0.80599999
26 24.074999 0.85540003
27.4 24.075001 0.97220004
27.6 24.075001 0.96639997
27.799999 24.075001 0.96319997
28 24.075001 0.96000004
28.200001 24.074999 0.95520002
28.4 24.075001 0.94999999
28.6 24.075001 0.9526
28.799999 24.074999 0.95420003
29 24.075001 0.9522
29.200001 24.075001 0.93760002
29.4 24.074999 0.93839997
29.6 24.074999 0.93920004
29.799999 24.074999 0.93779999
30 24.075001 0.93959999
27.4 24.25 0.98079997
27.6 24.275002 0.94620001
27.799999 24.275002 0.95300001
28 24.275 0.94959998
28.200001 24.275002 0.95159996
28.4 24.275 0.95359999
28.6 24.275 0.95220006
28.799999 24.275002 0.94419992
29 24.275002 0.9368
29.200001 24.275002 0.93900001
29.4 24.275002 0.94
29.6 24.274998 0.93840003
29.799999 24.275002 0.93900001
30 24.275002 0.9382
30.200001 24.200001 0.80400002
26.200001 24.475 0.917
27.6 24.474998 0.95420003
27.799999 24.474998 0.94040006
28 24.475 0.93599999
28.200001 24.475002 0.93360001
28.4 24.474998 0.9346
28.6 24.475002 0.93979996
28.799999 24.475 0.93720001
29 24.474998 0.93580002
29.200001 24.474998 0.93720001
29.4 24.475 0.93660003
29.6 24.475 0.94059998
29.799999 24.475 0.93940002
30 24.474998 0.93519998
26.200001 24.6 0.81840003
27.6 24.65 0.98346663
27.799999 24.675001 0.94580001
28 24.674999 0.93780005
28.200001 24.674999 0.94139999
28.4 24.674999 0.94020003
28.6 24.674999 0.93920004
28.799999 24.675001 0.9386
29 24.674999 0.93560004
29.200001 24.674999 0.9382
29.4 24.675001 0.93340003
29.6 24.674999 0.9418
29.799999 24.675001 0.94060004
30 24.674999 0.935
26.4 24.875 0.92560005
27.799999 24.875 0.95719999
28 24.875 0.94239998
28.200001 24.875 0.94220001
28.4 24.875 0.94299996
28.6 24.875 0.93779999
28.799999 24.875 0.93779999
29 24.875 0.93479997
29.200001 24.875 0.93519998
29.4 24.875 0.93559998
29.6 24.875 0.93739998
29.799999 24.875 0.9368
30 24.875002 0.9346
26.6 25.15 0.99199998
27.799999 25.025 0.98879999
28 25.075001 0.94980001
28.200001 25.075001 0.94520003
28.4 25.075001 0.94139999
28.6 25.074999 0.94299996
28.799999 25.074999 0.9404
29 25.075001 0.93640006
29.200001 25.075001 0.93560004
29.4 25.075001 0.93839997
29.6 25.074999 0.93879998
29.799999 25.075001 0.93480003
30 25.075001 0.9332
26.6 25.275002 0.89380002
28 25.274998 0.96680003
28.200001 25.275 0.95020002
28.4 25.275002 0.94120002
28.6 25.275 0.94299996
28.799999 25.275002 0.93879998
29 25.275002 0.94020003
29.200001 25.275002 0.94139999
29.4 25.275002 0.93840003
29.6 25.275 0.9368
29.799999 25.275 0.93159997
30 25.274998 0.93279999
30.200003 25.299997 0.82240003
26.799999 25.549999 0.96319997
28.200001 25.474998 0.958
28.4 25.475 0.95060003
28.6 25.474998 0.9454
28.799999 25.475 0.9436
29 25.475 0.9386
29.200001 25.474998 0.93900001
29.4 25.475 0.93940002
29.6 25.475002 0.9364
29.799999 25.474998 0.9368
30 25.474998 0.93079996
30.200001 25.475 0.89020002
26.799997 25.65 0.86453336
28.200001 25.625 0.9824
28.4 25.674999 0.95560002
28.6 25.675001 0.94580001
28.799999 25.674999 0.94299996
29 25.674999 0.93879998
29.200001 25.674999 0.93919998
29.4 25.674999 0.93760002
29.6 25.674999 0.9404
29.799999 25.674999 0.93479997
30 25.674999 0.93579996
30.200001 25.675001 0.92859995
27 25.875 0.93239999
28.4 25.85 0.9770667
28.6 25.875 0.95100003
28.799999 25.875 0.94239998
29 25.875 0.94299996
29.200001 25.875 0.93980002
29.4 25.875 0.9332
29.6 25.875 0.93719995
29.799999 25.874998 0.93619996
30 25.875 0.93279999
30.200001 25.874998 0.92600006
30.4 25.924999 0.8592
27 26 0.81840003
27.200001 26.15 0.96719998
28.6 26.075001 0.96920002
28.799999 26.075001 0.94800001
29 26.075001 0.94220006
29.200001 26.074999 0.94400001
29.4 26.075001 0.93839997
29.6 26.075001 0.94059998
29.799999 26.074999 0.93559998
30 26.074999 0.93760002
30.200001 26.075001 0.92579997
30.4 26.075001 0.91140002
27.200001 26.225 0.87440002
28.799999 26.275 0.96200001
29 26.275 0.94699997
29.200001 26.275002 0.94459999
29.4 26.275002 0.94020003
29.6 26.275 0.94
29.799999 26.275 0.94300008
30 26.275 0.93900001
30.200001 26.275 0.92720002
30.4 26.275 0.92519999
30.6 26.325001 0.8348
27.4 26.450003 0.91093332
29 26.474998 0.96039999
29.200001 26.474998 0.95060003
29.4 26.474998 0.94739997
29.6 26.475 0.95120001
29.799999 26.474998 0.94819999
30 26.474998 0.94659996
30.200001 26.474998 0.93940002
30.4 26.475002 0.93620002
30.6 26.475002 0.92640001
27.6 26.675001 0.92040002
29 26.6 0.99919999
29.200001 26.674999 0.96079999
29.4 26.674999 0.95059997
29.6 26.675001 0.94919997
29.799999 26.674999 0.95060003
30 26.674999 0.95079994
30.200001 26.674999 0.94599998
30.4 26.674999 0.94300002
30.6 26.675001 0.94060004
30.799999 26.674999 0.89719999
27.799997 26.900002 0.91706663
29.4 26.875 0.96580005
29.6 26.875 0.94940001
29.799999 26.875 0.94700003
30 26.875 0.94600004
30.200001 26.875 0.94220001
30.4 26.875002 0.94360006
30.6 26.875002 0.93999994
30.799999 26.875 0.94059998
31 26.875 0.89919996
31.200001 26.950001 0.83520001
28 27.125 0.89479995
29.6 27.049997 0.96373338
29.799999 27.075001 0.94960004
30 27.075001 0.94500005
30.200001 27.075001 0.9436
30.4 27.075001 0.94120002
30.6 27.075001 0.9386
30.799999 27.074999 0.94200003
31 27.075001 0.93799996
31.200001 27.074999 0.91499996
31.4 27.125 0.8732
28 27.200001 0.8096
28.200003 27.300001 0.92160004
29.799997 27.25 0.97679996
30 27.275 0.95099998
30.200001 27.275 0.94000006
30.4 27.275 0.94059998
30.6 27.275002 0.93840003
30.799999 27.275 0.93480003
31 27.275 0.94080001
31.200001 27.275 0.93779999
31.4 27.275 0.93239999
31.6 27.275 0.87919998
31.799999 27.325001 0.85879999
28.4 27.5 0.89599997
30 27.4 0.96399999
30.200001 27.474998 0.95220006
30.4 27.475 0.94019997
30.6 27.474998 0.9404
30.799999 27.474998 0.94279999
31 27.475 0.94099998
31.200001 27.474998 0.93919998
31.4 27.474998 0.93940002
31.6 27.474998 0.93419999
31.799999 27.474998 0.92920005
32 27.475 0.90219998
32.200001 27.5 0.88933331
32.400002 27.525 0.87959999
32.599998 27.549999 0.88800001
32.799999 27.549999 0.85680002
33 27.549999 0.8696
33.200001 27.549999 0.87120003
33.400002 27.549999 0.86559999
33.599998 27.549999 0.86400002
33.799999 27.549999 0.86479998
34 27.549999 0.8664
34.200001 27.549999 0.8592
34.400002 27.549999 0.88160002
34.599998 27.549999 0.87279999
34.799999 27.549999 0.8664
35 27.549999 0.884
35.200001 27.549999 0.87840003
35.400002 27.549999 0.88
35.599998 27.549999 0.88480002
35.799999 27.549999 0.87279999
28.6 27.65 0.92133331
30.4 27.625 0.954
30.6 27.674999 0.94639999
30.799999 27.674999 0.9386
31 27.674999 0.93940002
31.200001 27.674999 0.93560004
31.4 27.674999 0.93480003
31.6 27.674999 0.93440002
31.799999 27.674999 0.93019998
32 27.674999 0.93260002
32.200001 27.675001 0.93379998
32.400002 27.674999 0.93080002
32.599998 27.674999 0.93299997
32.799999 27.675001 0.92980003
33 27.674999 0.92919999
33.200001 27.675001 0.92820001
33.400002 27.674999 0.92619997
33.599998 27.675001 0.93420005
33.799999 27.674999 0.9314
34 27.674999 0.93220001
34.200001 27.674999 0.93220007
34.400002 27.674999 0.93299997
34.599998 27.675001 0.93239999
34.799999 27.674999 0.9314
35 27.675001 0.93159997
35.200001 27.674999 0.93019998
35.400002 27.674999 0.92679995
35.599998 27.674999 0.92839998
35.799999 27.674999 0.93259996
28.799999 27.825001 0.91919994
29 27.924999 0.972
30.6 27.799999 0.97359997
30.799997 27.85 0.94666666
31 27.875 0.94239998
31.200001 27.875 0.93799996
31.4 27.875 0.93340003
31.6 27.875 0.93620002
31.799999 27.875 0.9368
32 27.875002 0.93419999
32.200001 27.875 0.93400002
32.400002 27.875 0.9332
32.599998 27.875 0.9314
32.799999 27.875 0.9332
33 27.875 0.9346
33.200001 27.875 0.93360001
33.400002 27.875 0.9346
33.599998 27.875 0.93559998
33.799999 27.875002 0.9404
34 27.875 0.93699998
34.200001 27.875 0.93699998
34.400002 27.875002 0.93940002
34.599998 27.875002 0.93479997
34.799999 27.875 0.93260002
35 27.875 0.93239999
35.200001 27.875 0.93239999
35.400002 27.875 0.93160003
35.599998 27.875 0.93120003
35.799999 27.875 0.93400002
29 28.025 0.83440006
29.200003 28.1 0.92720002
31 28 0.9544
31.200003 28.050001 0.94906664
31.4 28.074999 0.94200003
31.6 28.075001 0.93839997
31.799999 28.075001 0.93679994
32 28.075001 0.93520004
32.200001 28.074999 0.93559998
32.400002 28.075001 0.93439996
32.599998 28.075001 0.93239999
32.799999 28.075001 0.93300003
33 28.075001 0.93219995
33.200001 28.075001 0.93300003
33.400002 28.075001 0.9368
33.599998 28.074999 0.93499994
33.799999 28.075001 0.93419999
34 28.074999 0.93099999
34.200001 28.075001 0.93279999
34.400002 28.075001 0.93479997
34.599998 28.074999 0.9364
34.799999 28.075001 0.93379998
35 28.075001 0.93400002
35.200001 28.075001 0.93079996
35.400002 28.075001 0.93220007
35.599998 28.075001 0.93419993
35.799999 28.075001 0.93280005
29.4 28.25 0.88693333
29.6 28.325001 0.9612
31.4 28.200001 0.95520002
31.6 28.25 0.96106672
31.799999 28.275002 0.94459999
32 28.275002 0.93839997
32.200001 28.275 0.93739998
32.400002 28.275002 0.93879998
32.599998 28.275 0.93779999
32.799999 28.275002 0.93659997
33 28.275002 0.93820006
33.200001 28.275 0.93579996
33.400002 28.275002 0.93540001
33.599998 28.274998 0.9332
33.799999 28.275 0.93520004
34 28.274998 0.935
34.200001 28.275002 0.93419999
34.400002 28.275 0.93280005
34.599998 28.275 0.93500006
34.799999 28.275002 0.93199998
35 28.275 0.93299997
35.200001 28.275 0.93119997
35.400002 28.275002 0.92979997
35.599998 28.275002 0.93099999
35.799999 28.275 0.93220001
29.6 28.4 0.8768
29.799999 28.475 0.91479999
30 28.549999 0.98400003
32 28.4 0.95279998
32.200001 28.449999 0.94933337
32.400002 28.475 0.94419998
32.599998 28.474998 0.93800002
32.799999 28.474998 0.93899995
33 28.475002 0.93760002
33.200001 28.475 0.93880004
33.400002 28.475 0.93480003
33.599998 28.475 0.93360001
33.799999 28.475002 0.93480003
34 28.474998 0.93260002
34.200001 28.475 0.93259996
34.400002 28.475 0.935
34.599998 28.474998 0.93599999
34.799999 28.475 0.93080002
35 28.474998 0.93479997
35.200001 28.474998 0.93180001
35.400002 28.474998 0.92939997
35.599998 28.475 0.93439996
35.799999 28.474998 0.92839998
30 28.625 0.85799998
30.200003 28.699999 0.90373331
30.4 28.75 0.97759998
32.599998 28.6 0.94880003
32.799999 28.625 0.94200003
33 28.65 0.94160002
33.200001 28.674999 0.93620002
33.400002 28.674999 0.94020003
33.599998 28.675001 0.93599999
33.799999 28.674999 0.93620002
34 28.674999 0.93900001
34.200001 28.674999 0.9368
34.400002 28.674999 0.93780005
34.599998 28.675001 0.9346
34.799999 28.675001 0.9346
35 28.674999 0.93060005
35.200001 28.674999 0.9278
35.400002 28.674999 0.93079996
35.599998 28.674999 0.93059999
35.799999 28.674999 0.93280005
30.4 28.825001 0.86080003
30.6 28.875 0.91400003
30.799999 28.950001 0.94160002
33.400002 28.799999 0.9152
33.599998 28.825001 0.92279994
33.799999 28.825001 0.92920005
34 28.85 0.9309333
34.200001 28.849998 0.92933339
34.400002 28.874998 0.9296
34.599998 28.875 0.93000001
34.799999 28.875 0.93080002
35 28.875 0.93299997
35.200001 28.875 0.93159997
35.400002 28.875 0.93220001
35.599998 28.875 0.93360007
35.799999 28.875 0.93340003
30.799999 29 0.8488
31 29.049997 0.90640002
31.200001 29.125 0.90960002
31.4 29.15 0.9824
35 29 0.90640002
35.200001 29 0.90799999
35.400002 29 0.90880001
35.599998 29 0.92159998
35.799999 29 0.93360001
31.4 29.225 0.86720002
31.6 29.275 0.89199996
31.799999 29.325001 0.91439998
32 29.35 0.96399999
32 29.4 0.87360001
32.200001 29.424999 0.9332
32.400002 29.475 0.9224
32.599998 29.525 0.91839999
32.799999 29.549999 0.94639999
32.799999 29.6 0.8592
33 29.625 0.8872
33.200001 29.65 0.89359999
33.400002 29.674999 0.92320001
33.599998 29.699999 0.91306669
33.799999 29.725 0.92079997
34 29.75 0.92400002
34.200001 29.75 0.94880003
34.400002 29.75 0.98400003
34 29.799999 0.82560003
34.200001 29.799999 0.86400002
34.400002 29.825001 0.84920001
34.599998 29.825001 0.87
34.799999 29.825001 0.90359998
35 29.825001 0.92200005
35.200001 29.85 0.89200002
35.400002 29.85 0.90746671
35.599998 29.85 0.91759998
35.799999 29.875 0.89240003
25.4 20.075001 1.1058
26.6 20.083334 1.0488
26.799999 20.075001 1.1418
27 20.075001 1.1503999
27.200001 20.075001 1.1714
27.4 20.075001 1.156
27.6 20.074999 1.1605999
27.799999 20.075001 1.1538
28 20.1 1.1325334
28.200001 20.125 1.1308
28.4 20.125 1.0764
28.6 20.15 1.1032
28.799999 20.15 1.1088001
29 20.15 1.0664001
29.200001 20.15 1.0152
25.4 20.275002 1.0956
26.6 20.275002 1.0402
26.799999 20.275002 1.1556001
27 20.275002 1.1617999
27.200001 20.275 1.1608
27.4 20.275002 1.1528
27.6 20.275 1.1452
27.799999 20.275002 1.1576
28 20.275002 1.1592
28.200001 20.275002 1.1502
28.4 20.275002 1.1592
28.6 20.275 1.169
28.799999 20.275 1.1476001
29 20.275002 1.1372
29.200001 20.275 1.1142
29.4 20.300001 1.0877333
29.6 20.35 1
25.4 20.474998 1.0726
26.6 20.449999 1.0258666
27 20.475 1.1536
27.200001 20.475 1.1572
27.4 20.474998 1.1496
27.6 20.475 1.1424
27.799999 20.475 1.1384
28 20.475 1.141
28.200001 20.475 1.1375999
28.4 20.475 1.1466
28.6 20.475 1.1524
28.799999 20.474998 1.1763999
29 20.475 1.1608
29.200001 20.474998 1.1494
29.4 20.474998 1.1278
29.6 20.474998 1.0934
25.4 20.675001 1.0512
27 20.674999 1.1558
27.200001 20.674999 1.156
27.4 20.674999 1.1352
27.6 20.675001 1.1274
27.799999 20.675001 1.1386
28 20.674999 1.1602
28.200001 20.674999 1.1545999
28.4 20.675001 1.1534001
28.6 20.674999 1.1514
28.799999 20.675001 1.1714
29 20.674999 1.1717999
29.200003 20.65 1.1805333
29.4 20.674999 1.1331999
29.6 20.675001 1.1502001
29.799999 20.674999 1.0869999
25.4 20.875 1.0172
27 20.825001 1.1531999
27.200001 20.875 1.1382
27.4 20.875 1.1338
27.6 20.875 1.1389999
27.799999 20.875 1.1398001
28 20.875 1.1425999
28.200001 20.875 1.1464
28.4 20.875 1.1426001
28.6 20.875 1.149
28.799999 20.875 1.1592
29 20.875 1.1756001
29.4 20.799999 1.1896
29.6 20.875 1.1334
29.799999 20.875 1.1457999
30 20.924999 1.0404
26.6 21 1.1712
26.799999 21.049999 1.124
27 21.125 1.1516
27.200001 21.049999 1.1888
27.4 21.074999 1.1312001
27.6 21.075001 1.1386
27.799999 21.075001 1.1438
28 21.075001 1.1159999
28.200001 21.074999 1.1212001
28.4 21.075001 1.135
28.6 21.075001 1.1474
28.799999 21.074999 1.1608
29 21.075001 1.1636
29.6 21.075001 1.174
29.799999 21.075001 1.1262
30 21.025 1.0295999
26.6 21.275002 1.0086
26.799999 21.35 1.0232
27 21.275 1.128
27.200001 21.325001 1.1340001
27.4 21.25 1.1626667
27.6 21.275002 1.1528
27.799999 21.275002 1.1524
28 21.275 1.148
28.200001 21.275002 1.1468
28.4 21.275 1.133
28.6 21.275002 1.1528001
28.799999 21.275002 1.146
29 21.275 1.1682
29.799999 21.275002 1.0743999
26.6 21.474998 1.0234001
26.799999 21.4 1.0416
27 21.475 1.1198
27.200001 21.475 1.1238
27.4 21.474998 1.142
27.6 21.475 1.1494
27.799997 21.450003 1.1453333
28 21.5 1.1824
28.200001 21.475 1.1566
28.4 21.475 1.1533999
28.6 21.475 1.1426001
28.799997 21.466667 1.1432
29 21.475 1.1554
29.799999 21.525 1.0604
25.6 21.674999 1.1782
26.6 21.674999 1.048
26.799999 21.674999 1.0288
27 21.674999 1.1276
27.200001 21.675001 1.1508
27.4 21.674999 1.1299999
27.6 21.65 1.1498666
27.799999 21.65 1.1576
28.200001 21.675001 1.1434
28.4 21.674999 1.1464
28.6 21.674999 1.1398001
28.799999 21.674999 1.1436
29 21.674999 1.1488
29.799997 21.65 1.1525334
25.6 21.875 1.1362001
27 21.875 1.1245999
27.200003 21.85 1.1501333
27.4 21.799999 1.1312
27.799999 21.950001 1.0936
28 21.875 1.169
28.200001 21.875 1.1286
28.4 21.874998 1.1222
28.6 21.9 1.1509334
28.799999 21.875 1.1567999
29 21.874998 1.1406
29.200003 21.900002 1.1898667
29.4 21.924999 1.1708
30 21.825001 1.1124001
30.200001 21.9 1.1528
25.6 22.074999 1.0828
26.799997 22.1 1.0005335
27 22.075001 1.1661999
27.6 22.075001 1.1647999
27.799997 22.083334 1.1234666
28.200001 22.025 1.1224
28.4 22.075001 1.1174001
28.6 22.075001 1.1632
28.799999 22.075001 1.1582
29 22.074999 1.1450001
29.200003 22.049997 1.1447999
29.4 22.075001 1.1498001
29.6 22.1 1.1656001
29.799997 22.1 1.1450666
30 22.125 1.1736
25.6 22.266668 1.0394666
26.799999 22.35 1.0016
27 22.275 1.1288
27.200003 22.283335 1.1762666
27.4 22.35 1.1328
27.6 22.35 1.1952
28.4 22.275002 1.156
28.6 22.325001 1.174
28.799999 22.275002 1.1403999
29 22.275002 1.1364
29.200001 22.275002 1.1253999
29.4 22.275 1.1168001
29.6 22.275 1.1186
29.799999 22.275002 1.1208
30 22.275 1.1274
26.799999 22.475 1.011
27 22.474998 1.1168001
27.200001 22.474998 1.1724
27.4 22.475 1.1253999
27.6 22.449999 1.1648
27.799997 22.5 1.1501334
28 22.5 1.1682667
28.200003 22.5 1.1853333
28.4 22.475 1.1641999
28.6 22.474998 1.1512001
28.799999 22.474998 1.1574
29 22.483332 1.1538668
29.200001 22.475002 1.1296
29.4 22.474998 1.1165999
29.6 22.475 1.1184
29.799999 22.475 1.1262
30 22.474998 1.1128001
25.799997 22.699999 1.1792001
26.799997 22.65 1.0394667
27 22.625 1.146
27.200001 22.6 1.1464
27.4 22.666666 1.1733333
27.6 22.699999 1.1861334
27.799999 22.674999 1.123
28 22.675001 1.1394
28.200001 22.675001 1.1633999
28.4 22.675001 1.1668
28.6 22.699999 1.1197333
28.799999 22.674999 1.1128
29 22.674999 1.1372
29.200001 22.674999 1.1317999
29.4 22.675001 1.1209999
29.6 22.674999 1.1062
29.799999 22.674999 1.1144
30 22.675001 1.0985999
30.200001 22.725 1.046
25.799999 22.875 1.1334
27 22.866667 1.0031999
27.200001 22.85 1.0456001
27.4 22.799999 1.1496
27.6 22.825001 1.1772
27.799997 22.85 1.1042666
28 22.849998 1.0941334
28.200003 22.85 1.1133333
28.4 22.849998 1.1320001
28.6 22.85 1.0824
28.799999 22.874998 1.0852
29 22.875 1.0968001
29.200001 22.875 1.0946
29.4 22.875002 1.1062
29.6 22.875 1.092
29.799997 22.85 1.0944
30 22.85 1.1037333
30.200001 22.799999 1.016
25.799999 23.075001 1.0494
28.200001 23.049999 1.0368
25.799999 23.200001 1.0152
27 23.275 1.0242
26 23.5 1.1578666
27 23.4 1.0496
26 23.674999 1.0719999
26 23.825001 1.0148001
27.200003 23.85 1.0120001
26.200003 24.1 1.1511999
26.200001 24.275 1.0448
27.4 24.35 1.0128
26.4 24.525 1.1672001
26.4 24.674999 1.0650001
27.6 24.75 1.0247999
26.6 24.950001 1.1616
26.6 25.049997 1.084
27.799999 25.125 1.0467999
26.799999 25.325001 1.1472001
27.799999 25.225 1.1552
26.799997 25.449999 1.0552001
28 25.474998 1.0898
27 25.674999 1.1184
28.200001 25.725 1.0508001
27.200001 25.924999 1.166
28.200001 25.799999 1.1447999
28.4 25.950001 1.0368
27.200003 26.050001 1.0450667
27.4 26.15 1.1896
28.4 26.025 1.148
27.4 26.275 1.0780001
28.6 26.225 1.1096001
27.6 26.5 1.1208
28.799997 26.449999 1.0941334
27.799997 26.700003 1.1290666
29 26.674999 1.1556001
27.799999 26.799999 1.0264
28 26.900002 1.1504
29.200003 26.85 1.0957333
28 27.025 1.0264
28.200001 27.125 1.1268001
29.4 27 1.1408
29.6 27.15 1.036
28.200001 27.200001 1.0584
28.4 27.299997 1.1405333
29.799999 27.35 1.1912
28.4 27.4 1.0328
28.6 27.5 1.1042666
30 27.475 1.0956
28.799999 27.674999 1.096
29 27.75 1.1848
30.200001 27.6 1.0599999
30.4 27.725 1.0943999
29 27.825001 1.1043999
29.200001 27.924999 1.1512001
30.6 27.85 1.0976
30.799999 27.950001 1.0496
29.200001 28 1.0608
29.4 28.1 1.1064
29.6 28.15 1.1904
31 28.049999 1.0488
31.200001 28.15 1.0824
29.6 28.225 1.1131999
29.799999 28.325001 1.13
31.4 28.25 1.14
29.799999 28.4 1.0264
30 28.449999 1.1176001
30.200001 28.525 1.154
31.799999 28.4 1.1384
32 28.450001 1.0048
30.200001 28.6 1.0496
30.4 28.65 1.1184
30.6 28.725 1.1415999
32.799999 28.700001 1.1504
30.6 28.799999 1.0184
30.799997 28.85 1.0976
31 28.924999 1.0915999
31.200001 28.950001 1.168
31.200001 29.025 1.0636001
31.4 29.050001 1.1229333
31.6 29.125 1.1192
31.799999 29.15 1.1616
35.799999 29.049999 1.0039999
31.6 29.200001 1.012
31.799999 29.225 1.072
32 29.25 1.1072
32.200001 29.299997 1.1178666
32.400002 29.325001 1.1524
32.599998 29.35 1.1824
32.400002 29.4 1.0416
32.599998 29.424999 1.0708001
32.799999 29.450003 1.1010666
33 29.5 1.0861334
33.200001 29.525 1.1015999
33.400002 29.525 1.1452
33.599998 29.549999 1.1472
33.799999 29.549999 1.1808
33.400002 29.6 1.0328
33.599998 29.6 1.0784
33.799999 29.625 1.0771999
34 29.65 1.0749334
34.200001 29.65 1.1034666
34.400002 29.674999 1.0896
34.599998 29.700003 1.08
34.799999 29.699999 1.0984
35 29.699999 1.1176001
35.200001 29.725 1.0984
35.400002 29.725 1.1096001
35.599998 29.725 1.1164
35.799999 29.725 1.1252
35.799999 29.799999 1.008
25.6 20.074999 1.3840001
25.6 20.275002 1.374
25.6 20.475 1.3618
26.6 20.549999 1.3112
26.799999 20.475 1.2498
25.6 20.674999 1.3316
26.4 20.725 1.3380001
26.6 20.674999 1.3416001
26.799999 20.674999 1.2923999
29.200001 20.75 1.2144001
25.6 20.875 1.316
26.4 20.875 1.349
26.6 20.875 1.2651999
26.799999 20.875 1.3178
27 20.924999 1.2644
29.200001 20.875 1.2656
29.4 20.9 1.2554667
25.6 21.075001 1.2948
26.4 21 1.3816
26.799999 21 1.3736
27 21.025 1.2484
27.200003 21.083334 1.2408
29.200001 21.075001 1.3202
29.4 21.074999 1.3422
25.6 21.275 1.2548001
27.200001 21.225 1.288
27.4 21.35 1.2072001
27.6 21.275 1.2732
27.799999 21.275 1.242
29.200001 21.275 1.3476
29.4 21.25 1.3911999
29.6 21.275 1.2658001
29.799999 21.275 1.2436
25.6 21.475 1.2191999
27.799999 21.549999 1.2151999
28 21.466665 1.2221333
28.799999 21.5 1.2096
29.200001 21.474998 1.3318
29.4 21.475 1.398
29.6 21.475 1.2628
27.6 21.75 1.296
27.799997 21.683334 1.3256
28 21.675001 1.281
29.200001 21.674999 1.2373999
29.4 21.675001 1.3493999
29.6 21.674999 1.251
29.799999 21.75 1.2256
25.799999 21.875 1.3931999
27.200001 21.950001 1.28
27.4 21.900002 1.34
27.6 21.875 1.3106
27.799999 21.85 1.3696001
28.6 21.799999 1.24
29.200001 21.799999 1.204
29.4 21.825001 1.2544
29.6 21.874998 1.3052
29.799999 21.875002 1.3307999
30 21.924999 1.2576001
25.799999 22.075001 1.3528
27.200001 22.075001 1.2672
27.4 22.075001 1.2936001
27.6 22.075001 1.2736
27.799999 22.049999 1.3528
28 22.075001 1.3058
28.200001 22.125 1.3083999
29.6 22 1.2151999
29.799999 22 1.2352
30 22.025 1.2344
25.799999 22.275002 1.3064001
27.200001 22.25 1.2064
27.4 22.25 1.2381333
27.6 22.25 1.2927999
27.799999 22.275002 1.2708001
28 22.275002 1.3054
28.200001 22.275 1.2328
28.6 22.225 1.2135999
25.799999 22.474998 1.2584
27.6 22.549999 1.2616
27.799999 22.4 1.2208
28 22.4 1.2344
28.200001 22.4 1.2336
29 22.450001 1.2136
25.799999 22.6 1.212
27.200003 22.699999 1.224
27.4 22.700001 1.2136
27.6 22.6 1.2232
28.6 22.6 1.34
26 22.9 1.376
27.200001 22.799999 1.2192
26 23.075001 1.3276
26 23.275002 1.2484
26 23.4 1.216
26.200001 23.549999 1.3888
26.200001 23.674999 1.3402001
26.200001 23.875002 1.2603999
26.200001 24 1.2024
26.4 24.125 1.3724
26.4 24.275 1.3013999
26.4 24.424999 1.2304
26.6 24.549999 1.3911999
26.6 24.674999 1.3224
26.6 24.85 1.2223998
26.799999 24.950001 1.3808
26.799999 25.074999 1.3106
26.799999 25.225 1.2268
27 25.325001 1.3796
27.799999 25.325001 1.2639999
27 25.474998 1.2816
27.799999 25.424999 1.372
27.200001 25.674999 1.3478
28 25.650002 1.2997333
27.200001 25.825001 1.248
27.4 25.924999 1.3688
28.200003 25.900002 1.2776
27.4 26.050001 1.2765332
27.6 26.15 1.376
28.4 26.125 1.276
27.6 26.275 1.3052
28.4 26.200001 1.372
28.6 26.325001 1.2728
27.6 26.4 1.2
27.799999 26.475 1.3332
28.6 26.4 1.3616
28.799999 26.549999 1.2584
27.799999 26.6 1.22
28 26.699999 1.3296
28.799999 26.6 1.3392
29 26.75 1.28
28 26.799999 1.2304
28.200003 26.9 1.3453335
29 26.799999 1.3624001
29.200001 26.950001 1.2936
28.200001 27.025 1.2244
28.4 27.1 1.3394667
29.200001 27 1.3968
29.4 27.1 1.3074666
28.4 27.200001 1.2488
28.6 27.300001 1.3197333
29.6 27.25 1.2936001
28.6 27.4 1.2232
28.799999 27.475002 1.3194001
29.799999 27.4 1.3008
30 27.549999 1.3096
29 27.65 1.3
29.200001 27.725 1.3796
30.200001 27.674999 1.2764
29.200001 27.825001 1.2656
29.4 27.9 1.3373333
30.4 27.799999 1.3152
30.6 27.9 1.2808
29.4 28 1.2192
29.6 28.049997 1.3058666
29.799999 28.125 1.3592
30.799999 28 1.252
31 28.1 1.2711999
29.799999 28.225 1.2448
30 28.275002 1.3202
30.200001 28.325001 1.3676
31.200001 28.200001 1.3328
31.6 28.35 1.3032
30.200001 28.424999 1.2648001
30.4 28.5 1.2984
30.6 28.549999 1.34
32.200001 28.549999 1.3
30.6 28.625 1.26
30.799997 28.700003 1.2775999
31 28.725 1.3415999
32.400002 28.6 1.2656
32.599998 28.65 1.2088
33 28.75 1.2232
31 28.825001 1.2323999
31.200003 28.849998 1.2930666
31.4 28.9 1.3194666
31.6 28.924999 1.3704
31.6 29.025 1.2520001
31.799997 29.049997 1.2938666
32 29.1 1.3048
32.200001 29.125 1.3432
32.400002 29.15 1.3808
32.200001 29.200001 1.2656
32.400002 29.225 1.2952
32.599998 29.25 1.3093333
32.799999 29.300001 1.3010668
33 29.325001 1.3264
33.200001 29.325001 1.3559999
33.400002 29.35 1.3648
33 29.4 1.2176
33.200001 29.424999 1.2368
33.400002 29.424999 1.2852
33.599998 29.449999 1.2861334
33.799999 29.449999 1.3157333
34 29.474998 1.3096
34.200001 29.5 1.3021334
34.400002 29.5 1.3304
34.599998 29.525 1.3207999
34.799999 29.525 1.3384
35 29.525 1.352
35.200001 29.525 1.362
35.400002 29.549999 1.3496
35.599998 29.549999 1.3608
35.799999 29.549999 1.3504
34.400002 29.6 1.2088
34.599998 29.6 1.2144001
34.799999 29.6 1.2416
35 29.6 1.2616
35.200001 29.625 1.2392
35.400002 29.625 1.2448
35.599998 29.625 1.2544
35.799999 29.625 1.2711999
25.799999 20.125 1.5956
26.200001 20 1.5976
25.799999 20.275 1.5888
25.799997 20.483334 1.5858666
26.200001 20.525 1.5003999
25.799999 20.674999 1.5638001
26.200001 20.625 1.4836
26.4 20.65 1.404
25.799999 20.875 1.5504
26.200001 20.924999 1.528
25.799999 21.075001 1.5288
26.200001 21.075001 1.5053999
25.799999 21.275002 1.494
26.200001 21.275 1.505
29.4 21.35 1.404
25.799999 21.474998 1.4680001
26.200001 21.424999 1.5372
29.4 21.474998 1.4136
25.799999 21.674999 1.4319999
25.799999 21.875 1.4124
26 21.950001 1.5992
27.799999 21.849998 1.446
26 22.074999 1.5812
26.4 22.125 1.4816
29.200001 22.15 1.5856
26 22.275002 1.5432
26.4 22.275002 1.5358
26 22.475 1.4938
26.4 22.449999 1.5696001
26 22.674999 1.4398
26.4 22.6 1.5824
26 22.799999 1.4119999
26.200003 22.9 1.5906667
26.6 22.950001 1.5888
26.200001 23.075001 1.5443999
26.6 23.075001 1.5558
26.200001 23.275 1.4892
26.6 23.25 1.5549332
26.200003 23.449999 1.4207999
26.4 23.549999 1.5968
26.4 23.674999 1.5558
26.4 23.875 1.4822
26.799997 23.85 1.5773333
26.4 24.025 1.4200001
26.6 24.15 1.5712
26.6 24.275 1.5242
27 24.275 1.5472
26.6 24.449999 1.4402666
26.799999 24.549999 1.584
26.799999 24.674999 1.5253999
27.200001 24.700001 1.5616
26.799997 24.849998 1.4434667
27 24.950001 1.5832
27 25.075001 1.5182
27.4 25.1 1.5928
27 25.225 1.444
27.200003 25.300001 1.5696
27.6 25.35 1.5416
27.200001 25.474998 1.473
27.6 25.4 1.5704
27.799999 25.525 1.4808
27.4 25.674999 1.5342
27.799997 25.650002 1.5589333
28 25.75 1.4224
27.4 25.825001 1.4335999
27.6 25.924999 1.5504
28 25.849998 1.52
27.6 26.050001 1.4736
27.799999 26.125 1.5799999
28.200001 26.075001 1.4842
27.799999 26.275002 1.4842
28 26.35 1.596
28.4 26.300001 1.4890666
28 26.474998 1.5078
28.4 26.4 1.5088
28.6 26.5 1.4778666
28 26.6 1.428
28.200001 26.674999 1.5220001
28.6 26.6 1.5296
28.799997 26.699999 1.4834666
28.200001 26.799999 1.4288
28.4 26.875002 1.5238001
28.799999 26.799999 1.5312001
29 26.9 1.4933333
28.4 27 1.4232
28.6 27.075001 1.5198001
28.799999 27.15 1.5912
29.200003 27.1 1.5336
28.6 27.200001 1.4104
28.799999 27.275002 1.4947999
29 27.325001 1.5836
29.4 27.25 1.5210667
29.6 27.35 1.472
29 27.475 1.4624
29.200001 27.525 1.5524001
29.6 27.4 1.5352
29.799997 27.5 1.4810667
29.200001 27.625 1.4704
29.4 27.674999 1.5423999
29.6 27.75 1.5951999
30 27.650002 1.5040001
30.200001 27.75 1.4864
29.4 27.799999 1.436
29.6 27.874998 1.4835999
29.799999 27.924999 1.5564001
30.200001 27.799999 1.5272
30.4 27.875 1.494
30.6 27.950001 1.464
29.799999 28.025 1.4579999
30 28.074999 1.5179999
30.200001 28.125 1.5732
30.6 28 1.5024
30.799999 28.075001 1.484
31 28.15 1.4904
30.200001 28.225 1.4844
30.4 28.300001 1.508
30.6 28.325001 1.5664001
31 28.200001 1.5247999
31.200001 28.275 1.512
31.4 28.325001 1.4684
30.4 28.4 1.4112
30.6 28.449999 1.4570667
30.799997 28.5 1.5008
31 28.525 1.5467999
31.6 28.424999 1.5128
31.799999 28.475 1.492
32 28.525 1.4812
30.799999 28.6 1.4048001
31 28.625 1.4591999
31.200001 28.674999 1.4878
31.4 28.700003 1.5352001
31.6 28.75 1.5568
32 28.6 1.572
32.200001 28.625 1.5248001
32.400002 28.674999 1.5239999
32.599998 28.725 1.5236
32.799999 28.75 1.4967999
31.4 28.799999 1.4344
31.6 28.825001 1.4812
31.799999 28.875 1.4898
32 28.9 1.5349334
32.200001 28.924999 1.5644
32.400002 28.950001 1.5808001
32.799999 28.799999 1.5528001
33 28.825001 1.5412
33.200001 28.825001 1.4912
33.400002 28.875 1.5092
33.599998 28.924999 1.5439999
33.799999 28.924999 1.5128
34 28.950001 1.5064
34.200001 28.950001 1.4944
32 29 1.4263999
32.200001 29.025 1.4552
32.400002 29.050001 1.4874667
32.599998 29.074999 1.5106001
32.799999 29.1 1.5261334
33 29.125 1.5452001
33.200001 29.15 1.5648
33.400002 29.15 1.5856
34 29 1.5792
34.200001 29 1.528
34.400002 29 1.5056
34.599998 29.025 1.5139999
34.799999 29.025 1.5036
35 29.049999 1.5072
35.200001 29.049999 1.5056
35.400002 29.075001 1.5192
35.599998 29.075001 1.516
35.799999 29.1 1.524
32.799999 29.200001 1.42
33 29.225 1.4412
33.200001 29.225 1.4748001
33.400002 29.25 1.4823999
33.599998 29.275002 1.4898
33.799999 29.275002 1.5136
34 29.300001 1.5183998
34.200001 29.300001 1.5365334
34.400002 29.325001 1.5316
34.599998 29.325001 1.544
34.799999 29.325001 1.564
35 29.35 1.5472
35.200001 29.35 1.5624
35.400002 29.35 1.564
35.599998 29.35 1.5768
35.799999 29.35 1.5784
34.200001 29.4 1.4416
34.400002 29.4 1.444
34.599998 29.424999 1.446
34.799999 29.424999 1.4579999
35 29.424999 1.4648
35.200001 29.424999 1.4876
35.400002 29.450003 1.4615999
35.599998 29.450003 1.4650668
35.799999 29.450003 1.4805332
25.799999 20.025 1.6131999
26 20.075001 1.684
26.200003 20.1 1.636
26 20.275002 1.6835999
26.200001 20.275 1.6974
25.799999 20.450001 1.6088001
26 20.475 1.6824
26.200001 20.424999 1.7523999
26 20.675001 1.6788
26.200001 20.725 1.628
26 20.875 1.6833999
26.200001 20.825001 1.6012001
26 21.075001 1.6824001
26 21.275 1.681
26 21.475 1.6724
26.200001 21.525 1.628
26 21.674999 1.6472
26.200001 21.674999 1.6359999
26 21.85 1.6218667
26.200001 21.875 1.6696
26.4 21.924999 1.7372
26.200001 22.075001 1.6798
26.4 22.025 1.7616
26.200001 22.275002 1.6814001
26.200001 22.475 1.679
26.4 22.549999 1.6184
26.200001 22.674999 1.6626
26.4 22.699999 1.6386666
26.6 22.75 1.628
26.200001 22.799999 1.6136
26.4 22.874998 1.6716
26.6 22.85 1.6178666
26.4 23.074999 1.6794
26.4 23.275 1.6714001
26.6 23.35 1.6128
26.4 23.449999 1.6328001
26.6 23.475 1.6561999
26.6 23.674999 1.6708
26.6 23.875 1.669
26.799999 23.950001 1.6392
26.6 24.049997 1.6136001
26.799999 24.074999 1.6670001
26.799999 24.275002 1.675
27 24.35 1.6008
26.799997 24.449999 1.6402665
27 24.474998 1.6558
27 24.674999 1.6724001
27.200001 24.75 1.6272
27 24.85 1.6402668
27.200001 24.875 1.6558001
27.200001 25.075001 1.6698
27.4 25.15 1.6416
27.200001 25.200001 1.6288
27.4 25.275002 1.6642001
27.4 25.475 1.6494
27.6 25.5 1.6557335
27.6 25.675001 1.6677999
27.799999 25.75 1.6432
27.6 25.825001 1.6176
27.799999 25.875 1.6661999
28 25.950001 1.6432
27.799999 26.025 1.6568
28 26.075001 1.6611999
28 26.25 1.6599998
28.200001 26.275 1.6474
28.200001 26.474998 1.6524
28.4 26.5 1.6477333
28.4 26.674999 1.6528001
28.6 26.699999 1.6538666
28.6 26.875002 1.6496
28.799997 26.9 1.6528
28.799997 27.050001 1.6570667
29 27.074999 1.6494
29 27.225 1.6656001
29.200001 27.275002 1.6606001
29.4 27.35 1.6392
29.200001 27.424999 1.6336
29.4 27.474998 1.6602
29.6 27.5 1.6423999
29.6 27.65 1.6629333
29.799999 27.674999 1.6514
30 27.75 1.6464
29.799999 27.825001 1.636
30 27.875 1.6582
30.200003 27.9 1.6402668
30.4 27.950001 1.6176
30.200001 28.025 1.6512001
30.4 28.075001 1.6538
30.6 28.099998 1.6416
30.799999 28.15 1.6184
30.4 28.200001 1.6072
30.6 28.225 1.6604
30.799999 28.275002 1.6536
31 28.300001 1.6440001
31.200001 28.35 1.6408
30.799999 28.4 1.6088001
31 28.424999 1.6484001
31.200001 28.475 1.646
31.4 28.475 1.6400001
31.6 28.525 1.6484001
31.799999 28.549999 1.6344
31.4 28.6 1.6472
31.6 28.65 1.6405334
31.799999 28.674999 1.6474
32 28.699999 1.6490668
32.200001 28.725 1.6496
32.400002 28.75 1.6392
32 28.799999 1.6336
32.200001 28.825001 1.6440001
32.400002 28.85 1.652
32.599998 28.875 1.6474
32.799999 28.9 1.6493334
33 28.924999 1.6531999
33.200001 28.924999 1.6428001
33.400002 28.950001 1.6447999
32.799999 29 1.652
33 29.025 1.6431999
33.200001 29.049997 1.6402668
33.400002 29.050001 1.6506667
33.599998 29.074999 1.6442001
33.799999 29.075001 1.6484001
34 29.1 1.6511999
34.200001 29.1 1.6477333
34.400002 29.1 1.6418667
34.599998 29.125 1.6503999
34.799999 29.125 1.6484001
35 29.125 1.6484001
35.200001 29.125 1.6396
35.400002 29.15 1.6504
35.599998 29.15 1.6472
35.799999 29.15 1.6464
34 29.200001 1.6328
34.200001 29.200001 1.652
34.400002 29.225 1.6271999
34.599998 29.225 1.6496
34.799999 29.225 1.6512001
35 29.25 1.6354666
35.200001 29.25 1.6423999
35.400002 29.25 1.6440001
35.599998 29.25 1.6485333
35.799999 29.25 1.6498667
