# .PCD v0.7 - Point Cloud Data file format
VERSION 0.7
FIELDS x y z
SIZE 4 4 4
TYPE F F F
COUNT 1 1 1
WIDTH 1276
HEIGHT 1
VIEWPOINT 0 0 0 1 0 0 0
POINTS 1276
DATA ascii
-0.066391736 0.12964968 -0.0088747591
-0.062166229 0.10684 -0.016254738
-0.065226704 0.11234786 -0.012169726
-0.060496494 0.13546832 -0.0066495091
-0.071244285 0.11639602 -0.0077983737
-0.048149079 0.10859344 -0.018958658
-0.047153175 0.1086202 -0.018764079
-0.053189009 0.11135442 -0.017585851
-0.062470943 0.17141864 -0.060911298
-0.07233566 0.1266609 -0.0086221322
0.028170452 0.069547012 -0.022549637
0.027178138 0.069582142 -0.023058809
0.026133668 0.069667011 -0.023899734
0.025189269 0.069725022 -0.02485881
0.024186239 0.069797166 -0.025740884
0.023182694 0.069868103 -0.026621476
0.022204541 0.069928363 -0.027417779
0.021216422 0.069976717 -0.028072439
0.020234451 0.07000348 -0.02849374
0.01921428 0.070027053 -0.028833911
0.018217586 0.070050083 -0.029223487
0.017225571 0.070086129 -0.029745236
0.016220391 0.070133701 -0.03036575
0.015238822 0.070158571 -0.030799061
0.014248066 0.070172474 -0.031074308
0.013219059 0.070186645 -0.031237423
0.012226522 0.070189215 -0.031255305
0.011237144 0.070158258 -0.031324513
0.010223262 0.070203766 -0.031640053
0.0092392042 0.070203647 -0.031944461
0.0082433075 0.070237964 -0.032466151
0.0072426945 0.070277244 -0.032964364
0.0062377676 0.070312828 -0.033318207
0.0052516311 0.070286155 -0.033384353
0.0042420328 0.070298716 -0.033461362
0.0032451674 0.070285559 -0.033489719
0.002257362 0.070291325 -0.033794284
0.0012619644 0.070304357 -0.034062579
0.00026913732 0.070300967 -0.03421855
-0.00073942542 0.070337467 -0.034541525
-0.0017577559 0.070372015 -0.035021126
-0.0027329326 0.070397921 -0.035453677
-0.0037224144 0.070409007 -0.035750121
-0.0047255158 0.070423774 -0.035981283
-0.0057136714 0.070402279 -0.03604681
-0.0067278892 0.070429005 -0.036230385
-0.0077226683 0.070428453 -0.036379844
-0.0086953864 0.070410743 -0.03657905
-0.0097096562 0.070463337 -0.037038773
-0.010710604 0.070525087 -0.037797868
-0.011705503 0.070518889 -0.037966073
-0.012695596 0.070511788 -0.037985407
-0.01370734 0.070530586 -0.038200811
-0.01471173 0.070529051 -0.038358949
-0.01571098 0.07050091 -0.038268305
-0.016708687 0.070496053 -0.038247004
-0.01772818 0.07047303 -0.038175955
-0.018712208 0.070483655 -0.038240865
-0.019716308 0.070460111 -0.03813152
-0.020724453 0.070423827 -0.037883975
-0.021731019 0.07036534 -0.037381135
-0.022760354 0.070273377 -0.036655158
-0.023715913 0.070243672 -0.036082871
-0.024729222 0.070149906 -0.035211146
-0.081283107 0.11902225 -0.0039203689
-0.061505258 0.13546145 -0.0069627762
-0.066473246 0.13840832 -0.0077119321
-0.079577178 0.1087271 0.034139432
-0.035797 0.16980129 -0.013063237
-0.064412862 0.16277386 -0.058072641
-0.070552155 0.11259302 0.049227204
-0.068261176 0.1179173 -0.0085071996
-0.033814214 0.068406381 -0.01699283
-0.03481476 0.068325751 -0.01623863
-0.035812974 0.068285897 -0.0158678
-0.036813132 0.06824892 -0.015618294
-0.037821516 0.068287008 -0.015673868
-0.038817681 0.068258919 -0.015720531
-0.039824247 0.068312399 -0.016052738
-0.040814526 0.068296939 -0.016220987
-0.041806161 0.06829837 -0.016354308
-0.042803347 0.068258435 -0.016275421
-0.043799087 0.068235926 -0.016152605
-0.044787586 0.06821467 -0.015871093
-0.045790195 0.068152823 -0.015383929
-0.046801031 0.068093844 -0.014896713
-0.047810808 0.068032615 -0.014414802
-0.048793182 0.067997932 -0.013862573
-0.049803033 0.067947008 -0.013514221
-0.050809473 0.067909822 -0.013279647
-0.051793754 0.067949831 -0.013226166
-0.0528014 0.067938253 -0.013247393
-0.053803325 0.06793347 -0.01312077
-0.05480969 0.06783656 -0.012658529
-0.055810899 0.067814782 -0.012409009
-0.056810826 0.067781076 -0.012167774
-0.057815686 0.067785338 -0.012170032
-0.058832258 0.067591771 -0.011485532
-0.059802175 0.067708202 -0.011672452
-0.060810566 0.067667432 -0.011305302
-0.061789215 0.067644238 -0.010774523
-0.062780097 0.067535169 -0.0096319616
-0.063769057 0.06747216 -0.0088632256
-0.064826906 0.067303941 -0.0079138577
-0.065817595 0.067195304 -0.0068971366
-0.066748887 0.067198791 -0.0061905161
0.0027877092 0.11202183 -0.019713752
-0.039156847 0.10870565 -0.019389972
-0.063383639 0.12673107 -0.0085913464
-0.036757 0.16531973 -0.0129949
-0.066491395 0.17568535 -0.058328137
-0.057172194 0.10982945 -0.017205089
-0.068215132 0.10800066 -0.012392268
-0.064512968 0.13840806 -0.0074874237
-0.065733671 0.071972422 0.037090648
-0.068665773 0.075959846 0.038323976
-0.052587628 0.14567348 -0.00077916682
-0.069322795 0.12523715 -0.0087718219
-0.074480921 0.13974786 -0.0063351989
-0.031771407 0.17281246 -0.014854237
-0.032760471 0.17279276 -0.014209174
-0.063176215 0.10678536 -0.01550778
-0.064158857 0.10671057 -0.014721602
-0.065190256 0.10669328 -0.014274269
-0.066164136 0.10664559 -0.013980165
-0.06719102 0.10662825 -0.013521008
-0.068197876 0.10658874 -0.013029896
-0.069202587 0.10654815 -0.01252947
-0.070200786 0.10649955 -0.012016475
-0.058505684 0.1325351 -0.0065966398
-0.066203073 0.1080727 -0.013379082
-0.033727124 0.16685532 -0.01455763
-0.018689312 0.16557239 -0.017086752
-0.026697442 0.16545412 -0.015768349
-0.077093959 0.068688758 0.014635585
-0.065214813 0.10811424 -0.013767764
-0.053579479 0.14418767 -0.00064072013
-0.076451495 0.13676217 -0.0055516437
-0.071172908 0.1064398 -0.011594206
-0.083477959 0.13072287 -0.0026257336
-0.054196462 0.11271554 -0.016651385
-0.067216679 0.11084579 -0.011685029
-0.050145924 0.10855743 -0.018932886
-0.056216672 0.11269294 -0.016206771
-0.065366939 0.12672964 -0.0087466836
-0.069227889 0.10796614 -0.011903659
-0.045683697 0.15767351 -0.007727176
0.028158642 0.070996895 -0.022918582
0.0271849 0.071029216 -0.02346231
0.026184388 0.071090594 -0.024225518
0.02519035 0.071161278 -0.025119029
0.024145365 0.071234301 -0.02594056
0.023196131 0.07127098 -0.026526138
0.022168316 0.071324334 -0.027243942
0.021181457 0.071374007 -0.02789709
0.020195745 0.071412168 -0.028432064
0.019212905 0.071442261 -0.028846949
0.018215153 0.071466558 -0.029230997
0.017230257 0.071491539 -0.029646143
0.016217917 0.071534887 -0.030255571
0.015219525 0.071572289 -0.030766964
0.014193028 0.071598157 -0.031193838
0.013228476 0.071609721 -0.031433299
0.012211375 0.071631476 -0.031754985
0.011227086 0.07164298 -0.03204979
0.010212876 0.071674012 -0.032403938
0.0091854334 0.071736194 -0.032883488
0.0082250088 0.071722113 -0.033187307
0.0072464868 0.071720183 -0.033508964
0.0062342137 0.071759455 -0.03384345
0.0052368194 0.071759589 -0.033981428
0.0042339116 0.071767688 -0.034093902
0.0032451823 0.071739897 -0.034171082
0.0022410303 0.071776547 -0.034509107
0.0012444705 0.071790509 -0.034771219
0.00024791062 0.071789771 -0.034911603
-0.00073379278 0.071755514 -0.035014354
-0.0017336905 0.071783476 -0.035252772
-0.0027467981 0.071817301 -0.035569422
-0.0037408471 0.071829684 -0.035844103
-0.0047317892 0.071827613 -0.035999849
-0.0057313144 0.07182879 -0.036131337
-0.0067366585 0.071856007 -0.036490358
-0.0077291578 0.071882792 -0.036994904
-0.0087160319 0.071812585 -0.037030548
-0.0097179115 0.071889013 -0.037426695
-0.010724582 0.071957052 -0.03803546
-0.011709273 0.071953267 -0.038219541
-0.01271715 0.071948454 -0.038201421
-0.013718896 0.071960703 -0.038476266
-0.014720395 0.071961798 -0.038610972
-0.01572156 0.071952134 -0.038605347
-0.016724005 0.071940377 -0.038612232
-0.017730102 0.071901143 -0.03841947
-0.018727109 0.071908161 -0.038506404
-0.019741379 0.07187888 -0.038421884
-0.020736784 0.071863532 -0.038269311
-0.021742851 0.071818568 -0.03788849
-0.022726402 0.07177113 -0.037343368
-0.023739032 0.071689643 -0.036602482
-0.024718203 0.071637884 -0.035940513
-0.025728792 0.071539931 -0.035079397
-0.06127499 0.11945438 -0.009352237
-0.060287118 0.11950427 -0.0096601993
-0.067463115 0.13840213 -0.007733658
-0.07609725 0.076654062 0.032608107
-0.076842219 0.10678376 0.034514111
-0.057179794 0.11123734 -0.016677067
-0.068387002 0.15260154 -0.046753183
-0.033821397 0.069892734 -0.017743364
-0.034824386 0.069805145 -0.016863495
-0.035822399 0.069758162 -0.01648882
-0.036822766 0.069730833 -0.016243637
-0.037831023 0.069768243 -0.016290128
-0.038830489 0.069755837 -0.016459517
-0.039836802 0.069811165 -0.016775221
-0.040823184 0.069815367 -0.017044716
-0.041811071 0.069798373 -0.017221145
-0.042817801 0.069735833 -0.017048888
-0.043816127 0.069721885 -0.016765788
-0.044809416 0.069656543 -0.016269982
-0.045809001 0.069603592 -0.01576703
-0.046790212 0.069572225 -0.015338704
-0.047809511 0.069513023 -0.014865637
-0.048813373 0.069481671 -0.014619321
-0.049810395 0.069497667 -0.014572248
-0.050823063 0.069425389 -0.014424212
-0.051818505 0.069443181 -0.014387809
-0.052819982 0.069439635 -0.014396094
-0.053818017 0.06944602 -0.014529541
-0.054815337 0.069465406 -0.014647566
-0.055809945 0.069523394 -0.014865682
-0.05680266 0.069478348 -0.01477012
-0.057804048 0.069423437 -0.014683604
-0.058796406 0.069429688 -0.014675267
-0.059806079 0.069356717 -0.01419995
-0.060795367 0.069287315 -0.013561614
-0.061796933 0.069221258 -0.012940243
-0.06279172 0.069154762 -0.012176476
-0.063750371 0.069147393 -0.011368126
-0.064757288 0.069059044 -0.010471009
-0.06577532 0.068958431 -0.0093890801
-0.066774547 0.068789035 -0.0081400573
-0.067779481 0.068676002 -0.0069750696
-0.068754926 0.068690017 -0.006154567
-0.055582702 0.14270228 -0.0016936064
-0.082458928 0.13075793 -0.0034180582
-0.058241472 0.11404179 -0.014697172
-0.059425086 0.12670787 -0.0076658428
-0.0095299929 0.17763658 -0.0284971
-0.021782696 0.17739676 -0.0204622
-0.07335268 0.12810281 -0.0083963275
-0.078446701 0.071065038 0.01933156
-0.062768325 0.070602417 0.037169442
-0.053585544 0.14567015 -0.00090909004
-0.074157357 0.11077515 0.046238743
-0.070217937 0.10791449 -0.011383712
-0.055266336 0.03545735 0.045819484
-0.072200656 0.10640936 -0.011004627
-0.073206246 0.10635974 -0.010377452
-0.074171603 0.10629094 -0.0098223686
-0.014843009 0.1804491 -0.026043981
-0.050732046 0.1575655 -0.0042604804
-0.018735789 0.17151256 -0.020630524
-0.039639831 0.15780635 -0.01016359
-0.049212158 0.070228979 0.038872693
-0.054581121 0.1427134 -0.001296103
-0.011145368 0.10767201 -0.02170179
-0.020716511 0.036050625 0.053158365
-0.01969713 0.16553712 -0.016868994
-0.06824027 0.070456393 0.034328394
-0.076882407 0.0770467 0.03209085
-0.060450077 0.12964076 -0.0075336173
-0.050638348 0.15015595 -0.0030888319
-0.068242639 0.11223124 -0.010562077
-0.068384215 0.13107319 -0.0086299777
-0.073339894 0.12663962 -0.0083986148
-0.063454941 0.1340168 -0.00758975
-0.042652592 0.15474837 -0.0076076686
-0.037769496 0.16679408 -0.012338758
-0.057201803 0.11264624 -0.015919954
-0.032722332 0.16835783 -0.015016094
-0.086718529 0.11179613 0.042441763
0.029102333 0.07239233 -0.022473574
0.028160129 0.072434753 -0.023180276
0.027151376 0.072482437 -0.023803428
0.026142452 0.07254225 -0.024551921
0.025183149 0.072588518 -0.025249034
0.024194829 0.072638355 -0.02590438
0.023168631 0.072683476 -0.026494026
0.022205513 0.072720163 -0.026954457
0.021139175 0.072747521 -0.027575247
0.020177964 0.072801441 -0.028161168
0.019172993 0.072829396 -0.028657019
0.018185806 0.072862022 -0.029065609
0.0171813 0.072891749 -0.029558331
0.016180173 0.072925895 -0.030063391
0.01518257 0.072960407 -0.030572414
0.014214166 0.072988309 -0.030904636
0.013218902 0.073000655 -0.031175733
0.012200907 0.073019184 -0.031509228
0.011231393 0.073043779 -0.031950139
0.010213032 0.073088191 -0.032546699
0.0092170909 0.073123977 -0.033064097
0.0082100183 0.07316646 -0.033554539
0.0072306991 0.073170252 -0.033867754
0.0062247068 0.073185533 -0.034100637
0.0052300245 0.073184788 -0.034262687
0.0042284429 0.073202208 -0.034496814
0.0032347441 0.073196523 -0.034666404
0.0022316277 0.073215604 -0.034897938
0.0012377352 0.073225446 -0.035167038
0.00024463981 0.07322298 -0.035338193
-0.00075575709 0.07322599 -0.035462387
-0.0017464012 0.073214926 -0.035496145
-0.0027513131 0.073219396 -0.035607666
-0.0037530661 0.073237337 -0.035834
-0.0047525615 0.073248126 -0.036088258
-0.0057496503 0.073262677 -0.036348455
-0.0067287832 0.073287867 -0.036925666
-0.007735312 0.073331878 -0.037397504
-0.008739531 0.073335551 -0.037517525
-0.0097471103 0.073340639 -0.037620053
-0.010747448 0.073365785 -0.037990741
-0.011736229 0.07337676 -0.038285978
-0.012739606 0.073388472 -0.038519174
-0.01373513 0.073392197 -0.038679302
-0.014735863 0.073393345 -0.038809307
-0.01573348 0.073382176 -0.038836136
-0.016732082 0.073374376 -0.038836747
-0.017731614 0.073364973 -0.038823202
-0.01873327 0.073352411 -0.038854979
-0.019741736 0.073328398 -0.038761869
-0.020755231 0.073293038 -0.038534343
-0.02175422 0.073263861 -0.038259178
-0.022753984 0.073207416 -0.037746154
-0.023739368 0.073147759 -0.037087619
-0.024741426 0.073068306 -0.036332414
-0.025730304 0.073006637 -0.035687014
-0.026698463 0.072941549 -0.034892634
0.010864936 0.10349507 -0.020231761
-0.075197369 0.10624436 -0.0090934783
-0.068459615 0.13839002 -0.0076456368
-0.064378828 0.16131583 -0.057235271
-0.056173131 0.11126272 -0.017033562
0.0098595098 0.10348164 -0.020113245
-0.033830248 0.071382985 -0.018496357
-0.034834571 0.071292683 -0.017613143
-0.03583394 0.071259923 -0.017365992
-0.036830537 0.071215369 -0.016992882
-0.037836909 0.071238719 -0.01706776
-0.038835123 0.071219385 -0.017099462
-0.039842486 0.071267262 -0.017418832
-0.040828407 0.071268901 -0.017706156
-0.041820787 0.071258619 -0.017874964
-0.042821489 0.071232811 -0.017777003
-0.043827251 0.071170121 -0.017297074
-0.044832855 0.07110361 -0.016669348
-0.045826465 0.071054362 -0.016152807
-0.046824217 0.071003795 -0.015633628
-0.047822863 0.070983075 -0.015353978
-0.048821494 0.070995025 -0.015301853
-0.049828827 0.070999071 -0.015446484
-0.050834537 0.070994526 -0.015602365
-0.051835865 0.071025193 -0.01569993
-0.052835137 0.071019143 -0.015719034
-0.053829908 0.071006477 -0.015878201
-0.05482471 0.071034908 -0.015978426
-0.055821627 0.070958108 -0.015936747
-0.056820601 0.07094083 -0.015951656
-0.05782178 0.070898578 -0.015861534
-0.058821768 0.070880741 -0.015736021
-0.059817091 0.07086058 -0.015474327
-0.060817733 0.070804462 -0.014975108
-0.061817616 0.070729598 -0.014218152
-0.062834799 0.070631362 -0.013486147
-0.063810647 0.070617333 -0.012947768
-0.064812332 0.0705401 -0.012192249
-0.065799668 0.070470534 -0.011294112
-0.066775098 0.070479512 -0.010747738
-0.067709953 0.070488192 -0.010064296
-0.068784609 0.070165284 -0.0077302083
-0.069810331 0.070071116 -0.0071207732
-0.070777357 0.070099734 -0.0068277568
0.0088705271 0.10347039 -0.020244956
-0.064175755 0.10953844 -0.013800904
-0.010530964 0.17762429 -0.028512664
-0.022809722 0.1773892 -0.019736677
-0.048774213 0.16060644 -0.0054504722
-0.066537231 0.17710565 -0.058597475
-0.084724605 0.11642151 0.048128478
-0.055535629 0.067151837 0.036496669
-0.078563809 0.06971252 0.013458848
-0.064364672 0.062126637 0.023065612
-0.016853571 0.18042058 -0.024400473
-0.057159275 0.10840849 -0.017600939
-0.052550122 0.070877001 0.039292239
-0.015830174 0.17895514 -0.025038458
-0.025798291 0.17734112 -0.017697603
0.0078650862 0.10347168 -0.020576112
-0.07617043 0.10617559 -0.008424513
-0.063521087 0.17573769 -0.060652703
-0.056728989 0.15450244 -0.00014494359
-0.063128322 0.061303362 0.022289142
-0.067282587 0.15409495 -0.049546659
-0.070993304 0.063636638 0.018562026
-0.08804208 0.11378621 0.044100169
-0.051598951 0.1471788 -0.0017154142
-0.06143266 0.1296479 -0.0078317523
0.0068719238 0.10348669 -0.020863257
-0.074245378 0.11054868 -0.0078024268
-0.02080065 0.17741546 -0.021114044
-0.041667029 0.15624833 -0.0086147636
-0.074338138 0.12661923 -0.008158952
-0.085291058 0.11886583 -0.0015340075
-0.069252953 0.11790372 -0.0083590746
-0.069442838 0.13838229 -0.0075966418
-0.061532706 0.13838905 -0.0066238344
-0.064433128 0.16708888 -0.059311301
0.0058799461 0.10350168 -0.021150105
0.029129859 0.073804483 -0.022510678
0.028117273 0.073872589 -0.023381963
0.027159158 0.073920138 -0.024077266
0.026165955 0.073967874 -0.024721369
0.02514689 0.074012764 -0.025327742
0.024147321 0.074056774 -0.025961235
0.023156505 0.074083641 -0.026363023
0.022163715 0.074111104 -0.026756018
0.0211467 0.074134618 -0.027229905
0.020167962 0.074181154 -0.02778095
0.019172601 0.074215002 -0.028294951
0.018183473 0.074244276 -0.028697491
0.017186441 0.074278548 -0.029214308
0.016172647 0.074306913 -0.029693842
0.015193075 0.074340947 -0.030121438
0.014204159 0.074366502 -0.030522719
0.013178647 0.074379042 -0.030849934
0.012177467 0.074401245 -0.031228259
0.011210181 0.074464783 -0.032048434
0.010249168 0.074498169 -0.032749578
0.0092178285 0.074557573 -0.033330135
0.0082182139 0.074579254 -0.033727437
0.0072085857 0.074604243 -0.034075111
0.0062223077 0.074604772 -0.034264468
0.0052168965 0.07461942 -0.03449285
0.004217498 0.074632816 -0.034735993
0.0032262281 0.074630812 -0.034912527
0.002222836 0.074647427 -0.035147563
0.0012202412 0.074659869 -0.03538914
0.00023168325 0.074656993 -0.035578452
-0.00077243149 0.07466276 -0.035675958
-0.0017681122 0.074638776 -0.035760149
-0.0027611554 0.074657887 -0.035964705
-0.0037603304 0.074668616 -0.036211066
-0.0047611967 0.074683756 -0.036472082
-0.0057415217 0.074692845 -0.036786772
-0.006758213 0.074737966 -0.03723979
-0.007741116 0.074744359 -0.037554704
-0.0087471455 0.074763454 -0.037787467
-0.009732455 0.074754849 -0.037852257
-0.010744408 0.074770816 -0.038064778
-0.011745699 0.074783683 -0.038305745
-0.012747154 0.074796326 -0.038543805
-0.013744608 0.074800014 -0.03871154
-0.014743373 0.07480368 -0.038877189
-0.015745811 0.074798152 -0.038925201
-0.016744412 0.074781112 -0.038861543
-0.017747417 0.074769095 -0.038885608
-0.018745705 0.074771017 -0.038984999
-0.019746959 0.074761182 -0.038982064
-0.02075924 0.074726738 -0.038767539
-0.021757625 0.074694574 -0.038505286
-0.022777386 0.074633978 -0.038022548
-0.023743518 0.0745897 -0.037448481
-0.024737805 0.074525677 -0.036812037
-0.025744259 0.074448824 -0.036057949
-0.026723802 0.074385643 -0.035405874
0.0048842728 0.10350855 -0.021304913
-0.077192739 0.10611995 -0.0075621307
0.0038903952 0.10351957 -0.021474361
-0.074456379 0.13827756 -0.0063141584
-0.063286245 0.16125023 -0.05716905
-0.0117383 0.17159507 -0.024813913
-0.033693515 0.072994471 -0.020057559
-0.034843192 0.072768174 -0.018236928
-0.035842001 0.072749168 -0.018116802
-0.036841355 0.072690539 -0.017616197
-0.037850402 0.072701424 -0.017549366
-0.038848519 0.072687089 -0.017582528
-0.039843477 0.072695054 -0.017853059
-0.040839009 0.072705261 -0.01811929
-0.041833803 0.072711319 -0.018233001
-0.042833798 0.072681606 -0.018159166
-0.043845437 0.072631195 -0.017815605
-0.044832572 0.072586074 -0.017272905
-0.045829773 0.07252384 -0.016636267
-0.046816871 0.07250873 -0.016181655
-0.04783769 0.07244274 -0.015868708
-0.048840657 0.072440997 -0.015867114
-0.049844295 0.072467417 -0.015948743
-0.050848991 0.072474435 -0.016074225
-0.051848724 0.072491996 -0.01633893
-0.052838802 0.07247182 -0.016517505
-0.053835824 0.072484806 -0.016781017
-0.054831654 0.072492629 -0.016906321
-0.055826455 0.072493047 -0.017038785
-0.05682154 0.072491243 -0.01703532
-0.057823405 0.0724333 -0.016823903
-0.05881837 0.072420307 -0.016690493
-0.059834421 0.072342023 -0.016376518
-0.060826063 0.072324522 -0.016104691
-0.061822027 0.072292753 -0.015718855
-0.062803 0.07228826 -0.015324079
-0.063794211 0.072237782 -0.014669105
-0.064815581 0.072119981 -0.013951793
-0.065784425 0.072107337 -0.013276204
-0.066786811 0.072016388 -0.012397766
-0.067786798 0.071932122 -0.011520647
-0.068776682 0.0719309 -0.010860845
-0.069639489 0.071956016 -0.010148562
-0.070877329 0.071472861 -0.007943362
-0.071806833 0.071558282 -0.0078688413
0.0028835908 0.10351083 -0.021678358
0.0018896312 0.10351271 -0.021832377
-0.023786336 0.17736951 -0.019203156
-0.041715756 0.16074726 -0.010113642
-0.067509189 0.17710716 -0.057727367
-0.072280362 0.12078519 -0.0082733259
-0.079311728 0.12351586 -0.0056282133
-0.019689426 0.16402957 -0.015742011
-0.021622807 0.16399972 -0.015457675
-0.023683324 0.16400769 -0.015227541
-0.025686838 0.16396916 -0.01514408
-0.028692275 0.16392119 -0.014816269
-0.030685455 0.16391499 -0.014529034
-0.014795214 0.17897485 -0.026015595
-0.034684733 0.16386722 -0.013784826
-0.036683902 0.16383718 -0.013154991
-0.038758554 0.16379149 -0.011890307
-0.039749511 0.16377376 -0.011361778
-0.049125805 0.14753871 -0.0022782981
-0.06840682 0.15410016 -0.049224839
-0.071233571 0.11493096 -0.0078146905
-0.020688564 0.16554645 -0.016713873
-0.0526741 0.15309319 -0.002934739
-0.050597996 0.14719427 -0.0018394589
-0.062421799 0.12965281 -0.0081045628
-0.017715916 0.16855311 -0.019372925
-0.064212993 0.11097556 -0.013321355
-0.062214404 0.11107988 -0.014593162
-0.041798756 0.16522962 -0.0099952817
-0.030680165 0.16241676 -0.013923153
-0.084291428 0.11890577 -0.0022005066
-0.070251971 0.11789435 -0.0082424656
-0.023754463 0.17144522 -0.018918537
-0.072350889 0.12812215 -0.0086279809
0.00088563561 0.10350909 -0.022052422
0.030101757 0.075151689 -0.021594949
0.029076897 0.075215235 -0.022453994
0.028111663 0.075275123 -0.023256093
0.027096137 0.07534045 -0.024120241
0.026140772 0.075382009 -0.02469302
0.02512056 0.075422421 -0.025290534
0.024148464 0.075453445 -0.025725305
0.023148149 0.075476818 -0.026110612
0.022155087 0.075503215 -0.026506811
0.021160435 0.075528696 -0.026904136
0.020141482 0.075564958 -0.027494386
0.019145608 0.075595371 -0.028003529
0.018145666 0.075622953 -0.028390378
0.017182492 0.075658768 -0.028842829
0.016184427 0.075695425 -0.029358923
0.015187576 0.075723499 -0.029755846
0.014188007 0.075738579 -0.03013061
0.013190165 0.07576184 -0.030514382
0.012214199 0.075799927 -0.031055987
0.011187635 0.075873338 -0.032020912
0.010189831 0.075951211 -0.033037625
0.0091999769 0.075987726 -0.033566557
0.0082162768 0.076003052 -0.033864424
0.0072028488 0.076013826 -0.034087613
0.0062008798 0.076026231 -0.034334689
0.0052028894 0.076040864 -0.034604982
0.0042115897 0.076053329 -0.034887239
0.0032049865 0.076066181 -0.035116553
0.0022122338 0.076065384 -0.035270795
0.0012110695 0.076078311 -0.035518944
0.00022394955 0.076080181 -0.035702303
-0.00077776611 0.076079637 -0.035820939
-0.0017797127 0.076092377 -0.036058404
-0.0027652532 0.076099321 -0.036369964
-0.0037745684 0.076128125 -0.036707789
-0.0047484785 0.076116465 -0.036925353
-0.0057523325 0.076120406 -0.037055157
-0.0067695677 0.076156095 -0.037356019
-0.0077626109 0.076168112 -0.037657797
-0.0087646246 0.076183066 -0.037886649
-0.0097630247 0.076186381 -0.038023211
-0.010761201 0.076187037 -0.038161486
-0.01176022 0.076191038 -0.038297355
-0.012763426 0.076199964 -0.038508967
-0.013763696 0.076201096 -0.038635872
-0.014757738 0.076198056 -0.038726375
-0.015757173 0.076199628 -0.03885626
-0.016757339 0.076191187 -0.038876206
-0.017756142 0.076185405 -0.038929269
-0.018757463 0.076178536 -0.038982496
-0.019770563 0.076167688 -0.039009854
-0.020786345 0.076134913 -0.038806513
-0.021791115 0.076100618 -0.038544528
-0.022763118 0.076070502 -0.038221672
-0.023738191 0.07601729 -0.037671149
-0.024752989 0.075941741 -0.036937311
-0.025758654 0.075874262 -0.036314577
-0.026743867 0.075810365 -0.035663173
-0.027748309 0.075734228 -0.034911767
-0.00010865927 0.10351508 -0.022216409
-0.03970775 0.16078046 -0.011120215
-0.07545343 0.13806197 -0.0060376003
-0.0011135116 0.10350344 -0.022312686
-0.012748107 0.17159326 -0.024171457
-0.040790789 0.16674022 -0.010465726
-0.034853309 0.074242771 -0.018860541
-0.035852969 0.074185416 -0.018359229
-0.036852174 0.074145235 -0.017986387
-0.037852019 0.074125938 -0.017865583
-0.038858026 0.07414031 -0.01792933
-0.039858878 0.074150637 -0.018201999
-0.040849879 0.074143007 -0.018372782
-0.041846856 0.074150451 -0.018475622
-0.042838573 0.074128158 -0.018364653
-0.043854602 0.074075885 -0.018048853
-0.04478167 0.074271612 -0.017622299
-0.045837983 0.073996782 -0.017109245
-0.046834081 0.07399106 -0.016960785
-0.047845677 0.073963426 -0.016865641
-0.048851535 0.073920257 -0.01678846
-0.049852848 0.07394781 -0.016874552
-0.050855041 0.073954917 -0.016999215
-0.05184637 0.073935889 -0.017170504
-0.052848071 0.073975027 -0.017531291
-0.053845167 0.073974468 -0.017666779
-0.054841056 0.073945403 -0.017706245
-0.055838123 0.073941462 -0.017845042
-0.056836277 0.073928609 -0.017862514
-0.057848498 0.073870942 -0.017668366
-0.05884029 0.073864311 -0.017369643
-0.059834808 0.073853485 -0.017231211
-0.060844839 0.073803835 -0.017015301
-0.061835572 0.073799126 -0.016863689
-0.062847197 0.073741272 -0.016514808
-0.063825697 0.073739953 -0.016222738
-0.064819917 0.073683918 -0.015585929
-0.065812185 0.073632613 -0.014949746
-0.066805467 0.073579639 -0.014308013
-0.067793041 0.073519222 -0.013537131
-0.068828031 0.073370337 -0.012443379
-0.069777697 0.073379651 -0.011883684
-0.070709094 0.073359549 -0.01094757
-0.071889162 0.073049001 -0.0092920586
-0.072831705 0.073037483 -0.008747682
-0.073835865 0.072945848 -0.0081502348
-0.0031088293 0.10351589 -0.022827633
-0.0041092634 0.10351456 -0.022956856
-0.083823368 0.11099397 0.029558338
-0.011729702 0.17905672 -0.028224871
-0.084373429 0.12630062 -0.0034012794
-0.076266333 0.11922128 -0.0069345459
-0.026682362 0.16397162 -0.015125185
-0.073261216 0.11783645 -0.0076825917
-0.074262664 0.11780606 -0.0073241964
-0.032698497 0.16388042 -0.014200211
-0.051449791 0.14422281 0.00012744963
-0.040736824 0.16375409 -0.010838337
-0.069254339 0.15391293 -0.048652828
-0.041700117 0.15923116 -0.00976073
-0.075086817 0.11293887 0.049642641
-0.022765577 0.17442995 -0.019867644
-0.060929298 0.035009496 0.043203052
-0.081388816 0.12932089 -0.0045597702
-0.071928561 0.069285907 0.029272486
-0.012149729 0.10764859 -0.0214618
-0.063218519 0.11103021 -0.013959572
-0.066238999 0.11230935 -0.011560708
-0.057462692 0.12815011 -0.0066207647
-0.074407801 0.13244158 -0.0072648972
-0.035153136 0.10875602 -0.019718289
-0.071351096 0.12819149 -0.0088638067
-0.046601295 0.038003437 -0.013047129
0.031078223 0.076508299 -0.02080936
0.030080236 0.076563418 -0.021573991
0.029077027 0.076617017 -0.022331975
0.028124157 0.076673411 -0.02302736
0.027117427 0.076739714 -0.023905516
0.026112635 0.076782949 -0.024533868
0.025119916 0.076817878 -0.02505523
0.02410974 0.076847613 -0.025538817
0.023133188 0.076877013 -0.025975838
0.022154767 0.076896563 -0.026272222
0.021132205 0.076922782 -0.026728153
0.020149346 0.076962784 -0.027273774
0.019139059 0.076992497 -0.027756363
0.018158399 0.077018969 -0.028178349
0.017153367 0.077063575 -0.028802291
0.016161948 0.077111289 -0.029454783
0.015172124 0.077123597 -0.029862382
0.014190584 0.077133894 -0.030164778
0.013187304 0.077169143 -0.030524902
0.012201555 0.07721667 -0.031175241
0.011188991 0.077285074 -0.032036342
0.010161519 0.077348866 -0.032879397
0.0091913342 0.077398896 -0.033555083
0.0081943125 0.077412203 -0.033834793
0.0071896911 0.077415265 -0.033966616
0.0061854869 0.077422574 -0.034192845
0.0051935315 0.077440023 -0.034483261
0.0041891187 0.07745944 -0.03484194
0.0032074898 0.077468596 -0.035043985
0.0022022575 0.077475891 -0.035278127
0.0012012273 0.077485941 -0.035515815
0.00021010637 0.077486366 -0.035686418
-0.0007744357 0.077486068 -0.035868585
-0.0017985553 0.077523537 -0.036272347
-0.0027848333 0.077545255 -0.036701024
-0.0037748814 0.077565566 -0.037110642
-0.0047841668 0.077582024 -0.037342742
-0.0057748184 0.077571444 -0.037389502
-0.0067798942 0.077575251 -0.037492022
-0.0077816099 0.077576399 -0.037621744
-0.0087787211 0.077581339 -0.037783176
-0.009781003 0.07759133 -0.037978373
-0.010770202 0.077584639 -0.038058281
-0.01177258 0.077584624 -0.038168907
-0.012772895 0.077584997 -0.038288623
-0.013769135 0.077576526 -0.038326219
-0.014771864 0.077581182 -0.038458295
-0.015769273 0.077580377 -0.038602896
-0.016770691 0.077580243 -0.03871043
-0.017770797 0.077578723 -0.038817048
-0.01876872 0.077581838 -0.038939327
-0.019773245 0.077573486 -0.038974687
-0.02080223 0.07753998 -0.038797751
-0.021797627 0.077511117 -0.038524255
-0.022771373 0.077476203 -0.038202837
-0.023773439 0.077411875 -0.037571877
-0.024785742 0.077332616 -0.03683345
-0.025782719 0.077279404 -0.036320582
-0.026751012 0.077230118 -0.035771452
-0.02776143 0.077152863 -0.0350326
-0.055630341 0.1486171 -0.0014506727
-0.0406335 0.15631035 -0.0090313926
-0.06625104 0.15553257 -0.051568449
-0.045732453 0.16066776 -0.0077277869
-0.013739184 0.17158854 -0.023523986
-0.040152207 0.10867803 -0.019359648
-0.034861885 0.075692289 -0.019233257
-0.035863236 0.075651661 -0.018857151
-0.036865011 0.075595222 -0.01835525
-0.037865669 0.075594306 -0.018164814
-0.038872398 0.075597443 -0.018282354
-0.039867274 0.075592697 -0.018443547
-0.040860131 0.075607076 -0.018693313
-0.041856542 0.075589672 -0.018727496
-0.042854503 0.075565219 -0.018635996
-0.043864399 0.075512774 -0.01829724
-0.044856444 0.075479612 -0.017886214
-0.045848861 0.075478524 -0.017715007
-0.046853274 0.075468399 -0.01772818
-0.047857508 0.075465605 -0.01788085
-0.04886207 0.075472437 -0.017998531
-0.049859464 0.075469688 -0.018145934
-0.05086045 0.075495712 -0.018372193
-0.051857993 0.075496808 -0.018503964
-0.052847087 0.075452738 -0.01858519
-0.053849161 0.075507239 -0.018758014
-0.054844245 0.075478099 -0.01880087
-0.055844143 0.075454369 -0.01884523
-0.056858584 0.075407766 -0.018793739
-0.057844669 0.075407438 -0.018613078
-0.058845222 0.07536611 -0.018236667
-0.059855834 0.075349405 -0.017953485
-0.060841978 0.075323753 -0.01784081
-0.061858118 0.075263098 -0.017663516
-0.062843144 0.075263366 -0.017494433
-0.06384863 0.075215451 -0.017133117
-0.064843535 0.075179741 -0.016740918
-0.065848231 0.075101927 -0.015993141
-0.066812381 0.075124733 -0.015669949
-0.067818463 0.075039774 -0.015072867
-0.06883508 0.074917957 -0.013953023
-0.06978564 0.074908122 -0.01326897
-0.070771903 0.074829936 -0.01237569
-0.071770087 0.074728653 -0.011238322
-0.072782323 0.07465595 -0.010110229
-0.07385689 0.074451387 -0.0092973486
-0.074829921 0.074388251 -0.0083807409
-0.073834047 0.06891083 0.025693469
-0.061390415 0.12672909 -0.008132793
-0.074096635 0.066273533 0.0060365126
-0.071301222 0.12373549 -0.0084472597
-0.07624507 0.11626747 -0.0060421973
0.00080829114 0.11056828 -0.019646347
-0.043754861 0.16369513 -0.0088305846
-0.042770088 0.16371492 -0.0094901845
-0.063511223 0.17427884 -0.060699075
-0.031780817 0.17428629 -0.014324762
-0.069376126 0.13105997 -0.0085276365
-0.015867218 0.18043439 -0.025178961
-0.037635483 0.15635765 -0.0096453279
-0.087657288 0.11336327 0.026754458
-0.071476609 0.13981317 -0.0071890205
-0.015777886 0.1760025 -0.024267688
-0.056626946 0.14861761 -0.0013214648
-0.054628313 0.14862032 -0.0016669631
-0.049665123 0.15164319 -0.0037779734
-0.071501419 0.14961316 -0.038308196
-0.04565455 0.15470782 -0.0067260265
-0.02383443 0.17885448 -0.01871819
0.031080823 0.07791543 -0.020689175
0.03006947 0.077965729 -0.021438472
0.001769945 0.11344166 -0.019355901
0.028096654 0.078073896 -0.022873305
0.027089819 0.078137368 -0.02374918
0.026113126 0.078188345 -0.024422616
0.025120985 0.078211442 -0.024819538
0.024098199 0.078250036 -0.025405198
0.023132097 0.078295425 -0.025987938
0.022135399 0.078308344 -0.026269943
0.021155629 0.078331709 -0.026688635
0.020135324 0.078374006 -0.027263448
0.019154631 0.078409262 -0.027801424
0.018150978 0.078443162 -0.028302804
0.017125636 0.078496911 -0.029019482
0.016178764 0.078531712 -0.029625952
0.015139945 0.078576483 -0.030183494
0.014189959 0.078591958 -0.030549452
0.01316867 0.078624994 -0.031006008
0.012155339 0.078657642 -0.03148298
0.011170328 0.078693829 -0.032018878
0.010153063 0.078734927 -0.032623656
0.0091709867 0.078794673 -0.033418618
0.0081907213 0.078816578 -0.033723593
0.0071793422 0.078812912 -0.033832826
0.0061771646 0.078812599 -0.033955663
0.0051802844 0.078827232 -0.034228146
0.0041783899 0.078845426 -0.034590006
0.0031715333 0.078863546 -0.034940019
0.0021953136 0.078872778 -0.035158113
0.001197204 0.078883059 -0.03541097
0.00019300729 0.078893818 -0.03565266
-0.00078703463 0.078894004 -0.035846166
-0.001800552 0.078929782 -0.036301948
-0.0027967021 0.078964636 -0.036816448
-0.003793478 0.078986965 -0.037207916
-0.0048025846 0.07901109 -0.037546299
-0.0057988539 0.079013072 -0.037699044
-0.0067934915 0.07900276 -0.037733138
-0.007796213 0.078981347 -0.037599072
-0.0087923706 0.078972228 -0.037607491
-0.0097912923 0.078973413 -0.037751071
-0.010785386 0.078975476 -0.037901893
-0.011780679 0.078986406 -0.038183607
-0.01276435 0.078972884 -0.038339287
-0.013773292 0.078940734 -0.038448356
-0.014783956 0.078980021 -0.038445875
-0.015784368 0.078971028 -0.038445815
-0.016781777 0.078972623 -0.038579583
-0.017784804 0.078977913 -0.03874056
-0.018781595 0.078985378 -0.038953841
-0.019786805 0.078977868 -0.038981706
-0.020787835 0.078958884 -0.038849205
-0.021798581 0.078915074 -0.038482994
-0.022794425 0.07887128 -0.038092285
-0.023783252 0.078826509 -0.037691116
-0.024783656 0.078775249 -0.037186854
-0.025812209 0.078706235 -0.036600411
-0.02680023 0.078633897 -0.035942897
-0.027781308 0.078570813 -0.035159312
-0.020505682 0.035452113 -0.028361619
-0.069242954 0.11642982 -0.0082759187
-0.075398296 0.13096511 -0.0071638376
-0.044820428 0.16517946 -0.0077235997
-0.044731058 0.16069339 -0.0083560199
-0.021806166 0.17147756 -0.019615851
-0.034875222 0.077121444 -0.019347019
-0.035872027 0.077100165 -0.019226894
-0.036874704 0.077069417 -0.018979356
-0.037872076 0.077039376 -0.018733174
-0.038878337 0.077060819 -0.018781975
-0.039874531 0.077037409 -0.018839791
-0.040869884 0.077034287 -0.01899229
-0.041866004 0.077017099 -0.019027054
-0.04286591 0.077020831 -0.018984489
-0.043866023 0.076987736 -0.018743858
-0.044864118 0.076960072 -0.018495262
-0.045868367 0.076933004 -0.018391639
-0.04686892 0.076927677 -0.018389858
-0.047870502 0.076935902 -0.018504113
-0.04886958 0.076945558 -0.018623635
-0.049870178 0.076958865 -0.018880382
-0.050863177 0.076943159 -0.019055545
-0.051865801 0.076966546 -0.019277334
-0.052859277 0.076956555 -0.019445255
-0.053856328 0.076967865 -0.019543253
-0.054853499 0.076947585 -0.019580059
-0.055854455 0.076923348 -0.019478276
-0.056854784 0.076900735 -0.0193685
-0.057858139 0.076867655 -0.01912079
-0.058871314 0.076810673 -0.018792599
-0.059857517 0.076791704 -0.018498443
-0.06086193 0.076759093 -0.01825875
-0.061855033 0.076758452 -0.018239662
-0.062862083 0.076716259 -0.018025443
-0.063861117 0.076689273 -0.017760657
-0.064867511 0.076641351 -0.017399348
-0.065844804 0.076615542 -0.016974837
-0.066863298 0.076537214 -0.0163773
-0.067860693 0.076491416 -0.015868567
-0.068843976 0.076432526 -0.015084252
-0.06980364 0.076399043 -0.014408588
-0.070783108 0.076341458 -0.013633206
-0.07173188 0.076289929 -0.012705013
-0.072823927 0.076073356 -0.011151105
-0.073813334 0.075987548 -0.01024884
-0.074842349 0.075877964 -0.0092620179
-0.075835332 0.075785711 -0.0082438886
-0.024879232 0.035497323 -0.029351935
-0.029058501 0.098961987 -0.023052543
-0.046693936 0.15765093 -0.0071086958
-0.066497698 0.17425527 -0.057751954
-0.0200959 0.10335776 -0.023159862
-0.067576692 0.1785346 -0.058153063
-0.059161335 0.1083485 -0.01697728
-0.021092579 0.1033585 -0.023297235
-0.044802353 0.16368154 -0.0079943314
-0.065331355 0.12380747 -0.0088931918
-0.076346457 0.072970971 0.028657027
-0.071376279 0.13103133 -0.0081900656
-0.059490085 0.13255104 -0.0069927573
-0.045642644 0.15170962 -0.0050656796
-0.015732586 0.16855337 -0.020157792
-0.084444046 0.12776963 -0.0030531585
-0.064422756 0.13110615 -0.0084558129
-0.055652186 0.15156353 -0.0013277382
-0.019804023 0.17890421 -0.021846667
-0.06328018 0.11801168 -0.0094064027
-0.070258215 0.11215918 -0.0095744058
-0.0220927 0.10335819 -0.023431152
0.032041006 0.079260536 -0.019756779
0.031112809 0.079312585 -0.020359427
-0.023091033 0.10335089 -0.02344346
-0.024091661 0.10334481 -0.023365915
0.028071448 0.0794743 -0.022719815
0.027121272 0.079542458 -0.023546502
0.026106093 0.079592928 -0.024294049
0.02512249 0.079619274 -0.024712354
0.024124417 0.079654887 -0.025224566
0.023096628 0.079701059 -0.025929853
0.022119816 0.079729103 -0.0263585
0.021134287 0.079754077 -0.026771635
0.020093206 0.07979057 -0.027319178
0.019141745 0.079832047 -0.027917318
0.018166486 0.079867348 -0.028471433
0.017139181 0.0799101 -0.029058196
0.016127661 0.079952195 -0.029670611
0.015128583 0.079986095 -0.030180857
0.014131382 0.080018803 -0.03069029
0.013156101 0.08004871 -0.031124502
0.012155429 0.080069624 -0.031502225
0.011129513 0.080095567 -0.031963974
0.010168999 0.080131486 -0.0324146
0.009167321 0.080192186 -0.033243179
0.0081662759 0.080209583 -0.033559069
0.0071898326 0.080213606 -0.033643171
0.0061727464 0.080206268 -0.033735685
0.0051746741 0.080216587 -0.033993535
0.0041617453 0.080229208 -0.034320265
0.0031714588 0.080245376 -0.034604773
0.0021805614 0.080267452 -0.035006791
0.0011824369 0.080288827 -0.035392284
0.00017582625 0.080305643 -0.035774603
-0.00079266727 0.080308273 -0.035977185
-0.0018060803 0.080333658 -0.036314398
-0.0028131455 0.080371156 -0.036803275
-0.0038151741 0.08039359 -0.037162602
-0.0048120767 0.08040721 -0.037430719
-0.0058111325 0.080418438 -0.037677862
-0.0068075359 0.080419563 -0.037824914
-0.0078039318 0.080400124 -0.037759751
-0.0088063329 0.080390319 -0.037736341
-0.0098058581 0.08038938 -0.037854761
-0.010798141 0.080401726 -0.038135722
-0.011801079 0.080426261 -0.038494542
-0.012788661 0.080431573 -0.038826913
-0.013789311 0.080435216 -0.038980976
-0.014776692 0.080419749 -0.038782559
-0.015798673 0.080417141 -0.038762853
-0.016795889 0.08039923 -0.038783938
-0.017798431 0.0803902 -0.03883177
-0.018798292 0.080393769 -0.038973153
-0.019799769 0.080385998 -0.038979381
-0.020814933 0.080355763 -0.038768932
-0.021782175 0.080326654 -0.03852839
-0.022805944 0.080277085 -0.038089663
-0.023805276 0.080233321 -0.037703589
-0.024778575 0.080209881 -0.037382081
-0.025791451 0.080153257 -0.036903657
-0.026803479 0.080085106 -0.036311068
-0.025087833 0.10332415 -0.023329541
-0.0081498772 0.10773931 -0.022199228
-0.067397326 0.15554973 -0.051374257
-0.07947661 0.13814279 -0.0038249269
-0.046755344 0.16064914 -0.0069894344
-0.014751628 0.17155895 -0.02278474
-0.031718202 0.16688436 -0.015299663
-0.034886576 0.07856109 -0.019590415
-0.03588444 0.078554459 -0.019598708
-0.03688316 0.078533158 -0.019477509
-0.037881613 0.078498825 -0.019229859
-0.038884804 0.078490064 -0.019235633
-0.039881825 0.078503571 -0.019324921
-0.040880047 0.07850156 -0.019467115
-0.041879974 0.078508854 -0.019577473
-0.042873085 0.07850612 -0.019558519
-0.043877162 0.078471869 -0.019495234
-0.044876024 0.078435197 -0.019436836
-0.045874566 0.07846237 -0.019316018
-0.046879202 0.078436524 -0.019229077
-0.047876507 0.07841859 -0.019259661
-0.04888089 0.078418143 -0.019245975
-0.049877897 0.078416541 -0.019391268
-0.050868496 0.078395605 -0.019575745
-0.051870733 0.078416795 -0.019807249
-0.052866995 0.078392215 -0.019855678
-0.053867102 0.078411967 -0.019938335
-0.054866523 0.078390032 -0.01998207
-0.055874407 0.078360379 -0.019896984
-0.056887239 0.078321688 -0.019674003
-0.057869166 0.07831794 -0.019500218
-0.058870479 0.078287035 -0.019247979
-0.059878275 0.078246288 -0.019030154
-0.06083855 0.078218587 -0.018774956
-0.061883152 0.078181319 -0.018542305
-0.06286332 0.07817699 -0.018359527
-0.063864395 0.078144856 -0.018114395
-0.064873517 0.078095868 -0.017758712
-0.065855876 0.078077272 -0.017470226
-0.066862032 0.078021117 -0.016983956
-0.067858011 0.077972308 -0.016471833
-0.068854377 0.077912912 -0.015839256
-0.069812641 0.07787703 -0.015152998
-0.07084091 0.077792071 -0.014412858
-0.071813941 0.077725507 -0.013659209
-0.07273674 0.077676289 -0.012582839
-0.073848456 0.07743784 -0.010777697
-0.07483761 0.077358246 -0.0098744631
-0.075835541 0.07727468 -0.0089819282
-0.076817155 0.077199534 -0.0080823973
-0.026094794 0.10331811 -0.023259148
-0.053611726 0.14271288 -0.00084219873
-0.049715102 0.15758348 -0.0050425678
-0.065544024 0.17858358 -0.059597895
-0.027093992 0.10329864 -0.023129836
-0.010665938 0.17608017 -0.028012104
-0.028094858 0.10326709 -0.022870898
-0.029089786 0.1032386 -0.022617072
-0.068332896 0.12524359 -0.008779183
-0.018770531 0.17596556 -0.022365585
-0.026294366 0.036217622 0.053436782
-0.030087098 0.10320704 -0.022352412
-0.063430503 0.13110754 -0.0082159191
-0.068316549 0.12377967 -0.0088138431
-0.019715115 0.16852716 -0.018752649
-0.070484117 0.13982278 -0.0073368698
-0.05569534 0.15451036 -0.00091099739
-0.049669668 0.15462703 -0.0047818646
-0.069230035 0.10936695 -0.011241101
-0.050916329 0.064488493 0.034552995
-0.067305624 0.12232672 -0.0089172423
0.033050068 0.080616705 -0.018884256
0.03207745 0.080655992 -0.019435607
-0.031087115 0.10318155 -0.022101507
-0.032098427 0.10316837 -0.021896772
-0.033101186 0.10314396 -0.02165398
-0.034102172 0.10311951 -0.021409072
-0.035091467 0.10307677 -0.021240301
0.026061803 0.081000112 -0.024233915
0.025088254 0.081027552 -0.024659142
0.024099875 0.081053346 -0.025064409
0.023097284 0.081096008 -0.025694251
0.022132944 0.081126131 -0.026147649
0.021122795 0.081157103 -0.026635721
0.020086724 0.081192717 -0.027195521
0.019101776 0.081240878 -0.027860053
0.018121548 0.081279255 -0.028406873
0.017123789 0.081310801 -0.02892042
0.016138494 0.081349492 -0.029458001
0.01512599 0.08137849 -0.029937893
0.014129944 0.081412449 -0.030453615
0.013143837 0.08144106 -0.030870736
0.012141049 0.081471011 -0.031365238
0.011144452 0.08149533 -0.031755395
0.010147072 0.081527539 -0.032265827
0.0091706812 0.08157146 -0.032822564
0.0081251711 0.081592202 -0.033356398
0.0071766302 0.081613071 -0.033514977
0.0061623454 0.08160603 -0.033607282
0.0051658973 0.081613511 -0.033867344
0.004167825 0.081633627 -0.034244351
0.003173396 0.081655726 -0.03463012
0.0021572709 0.081682146 -0.035092376
0.0011462718 0.081728235 -0.035695367
0.00019291788 0.081749603 -0.036194541
-0.00081801414 0.081752099 -0.036299326
-0.0018450767 0.081776619 -0.036601469
-0.0028203353 0.081786238 -0.03693939
-0.0038056448 0.081778213 -0.037145212
-0.0048068017 0.08179041 -0.037292726
-0.0058179274 0.081804276 -0.037504166
-0.0068214387 0.081813313 -0.037705593
-0.0078135803 0.081805192 -0.037782826
-0.0088084489 0.081795439 -0.037787437
-0.0098212063 0.081818566 -0.038079776
-0.010801397 0.081827722 -0.038424954
-0.011805415 0.081851162 -0.038773783
-0.012807012 0.081863344 -0.039028257
-0.013805494 0.081865862 -0.039177716
-0.014807388 0.081868455 -0.039251536
-0.015807316 0.081846856 -0.039179415
-0.016809329 0.081827641 -0.039059818
-0.017812341 0.081808731 -0.038964629
-0.018815048 0.081801549 -0.038982257
-0.019812539 0.081790879 -0.03896071
-0.020809993 0.081767723 -0.038820922
-0.021822333 0.081728958 -0.038469881
-0.022825345 0.081687137 -0.038095295
-0.023822471 0.08164084 -0.037706718
-0.024817809 0.081598856 -0.037318572
-0.025819711 0.081556067 -0.036932796
-0.026810899 0.081489444 -0.03629636
-0.036109701 0.10308389 -0.020955175
-0.037099481 0.10304622 -0.020793453
-0.076459602 0.13823642 -0.0056702644
-0.041156739 0.10868289 -0.019276142
-0.060208514 0.11115494 -0.015467949
-0.02274631 0.17145769 -0.019281238
-0.038096905 0.1030248 -0.020671248
-0.034891099 0.080130041 -0.021357052
-0.035892032 0.08004608 -0.020478144
-0.036895901 0.079990782 -0.01997374
-0.037890576 0.079984963 -0.019981518
-0.038892463 0.079961836 -0.019700915
-0.039891019 0.079939537 -0.019749939
-0.040888056 0.079941422 -0.01988101
-0.041896261 0.079939127 -0.019862473
-0.042888246 0.079931609 -0.019867726
-0.043888487 0.079927079 -0.019842252
-0.044888631 0.079905234 -0.019753642
-0.045887738 0.079913951 -0.019842789
-0.046889544 0.079915971 -0.019979693
-0.047882825 0.079899453 -0.020167857
-0.048879445 0.079894736 -0.020322666
-0.049880221 0.079900168 -0.02043815
-0.050880149 0.079904146 -0.020569816
-0.051877931 0.079910517 -0.020686157
-0.052873939 0.079908408 -0.020829342
-0.053871796 0.079912163 -0.020959586
-0.054886654 0.079856686 -0.020786837
-0.055879354 0.079847991 -0.020626806
-0.056888074 0.079799704 -0.020273611
-0.0578897 0.079771206 -0.020020351
-0.058886528 0.079732239 -0.019634798
-0.059886098 0.079702191 -0.019388139
-0.060883582 0.079682335 -0.019259498
-0.061887085 0.07965064 -0.019019678
-0.062898666 0.079609111 -0.018664062
-0.06389156 0.079576075 -0.018398769
-0.064884633 0.079547949 -0.018129349
-0.065892875 0.079499893 -0.017773539
-0.066892311 0.079463318 -0.017390497
-0.067901582 0.079403259 -0.016905874
-0.068884075 0.079362653 -0.016363092
-0.069895595 0.079283074 -0.015620366
-0.070862249 0.079250343 -0.015076473
-0.071844354 0.079189137 -0.01430057
-0.039095081 0.10301645 -0.02067697
-0.040091574 0.10301519 -0.020812854
-0.041089676 0.10301289 -0.02094546
-0.075817749 0.0787699 -0.0095804483
-0.076837242 0.078664117 -0.0085902214
-0.042088665 0.10300931 -0.02116695
-0.072396472 0.13247322 -0.007716693
-0.060386926 0.12526594 -0.0082166642
-0.015789822 0.17748085 -0.024766132
-0.043086655 0.10300931 -0.021214887
-0.044088557 0.10300505 -0.021232992
-0.039756067 0.16526778 -0.011335075
-0.017849773 0.18040687 -0.023515329
-0.013814025 0.17898758 -0.026670486
-0.045088172 0.1029936 -0.021230862
-0.077081099 0.11562687 0.050589468
-0.068800628 0.14217056 -0.010088861
-0.046085343 0.10297401 -0.021204375
-0.052601933 0.14715259 -0.0014949292
-0.066444233 0.13547719 -0.0081068501
-0.023711637 0.16848621 -0.017870538
-0.069470435 0.13985391 -0.0075375289
-0.068481386 0.13985661 -0.0076983571
-0.077383414 0.072362944 0.025459494
-0.047087789 0.10296985 -0.021116838
0.035007346 0.081958428 -0.017688662
0.034031969 0.082000986 -0.018359154
0.03305256 0.082027927 -0.018789023
0.032016482 0.082050949 -0.019227497
0.031041812 0.082079664 -0.019651517
0.030024268 0.082129054 -0.020389274
0.029040616 0.08220838 -0.021426454
-0.048093811 0.10297483 -0.021048144
-0.049088538 0.10294715 -0.021010615
0.026041172 0.082401693 -0.024088293
0.025077548 0.082442239 -0.024652049
0.024070296 0.082475409 -0.025152966
0.023109447 0.082504965 -0.025607355
0.022078976 0.082540214 -0.026180714
0.021131136 0.082574368 -0.026664421
0.020098258 0.082610197 -0.02723591
0.019102484 0.082644455 -0.027749225
0.018093273 0.082674265 -0.028241873
0.017090425 0.08270514 -0.028740481
0.016133189 0.082742356 -0.02921316
0.015114561 0.08276844 -0.029685453
0.014122009 0.082791865 -0.030083075
0.013121933 0.082816474 -0.030462354
0.012121603 0.082847804 -0.030965626
0.011132874 0.082883865 -0.031498656
0.010146916 0.082922898 -0.032029428
0.0091336966 0.082949959 -0.032518044
0.0081268102 0.082977176 -0.033010915
0.0071415305 0.08300449 -0.033430241
0.00614544 0.083019435 -0.03370142
0.0051595867 0.083025515 -0.033873037
0.0041430667 0.083037712 -0.034199081
0.0031353086 0.083067559 -0.034685344
0.0021410882 0.083102286 -0.035205431
0.0011492074 0.083144009 -0.035848096
0.00016701221 0.083180055 -0.036398351
-0.00085955858 0.08318986 -0.036589473
-0.0018368438 0.083203472 -0.036915272
-0.0028232634 0.083218358 -0.037233658
-0.0038340017 0.083228424 -0.037444338
-0.0048400164 0.083224706 -0.037521645
-0.0058289915 0.083216622 -0.037503801
-0.006830886 0.083211772 -0.037598282
-0.0078316033 0.083211049 -0.0377177
-0.0088234097 0.08321391 -0.037878409
-0.0098283514 0.083235793 -0.038221568
-0.010816857 0.083246179 -0.038527727
-0.011817783 0.083258532 -0.038779274
-0.01282496 0.083269089 -0.038973927
-0.01381778 0.083265789 -0.039066017
-0.014821634 0.083267815 -0.039205626
-0.015819624 0.083261073 -0.03926152
-0.016826071 0.083238378 -0.039073825
-0.017825752 0.083215773 -0.038941726
-0.018816367 0.083198503 -0.038891099
-0.01981996 0.083184332 -0.038801163
-0.020812601 0.083157599 -0.038648158
-0.021829158 0.083121806 -0.038321614
-0.022841118 0.083086036 -0.03797134
-0.023826115 0.08304701 -0.037679642
-0.024826273 0.08300449 -0.037301049
-0.02583456 0.08295387 -0.036809742
-0.026824735 0.08288537 -0.036162101
-0.050092474 0.10293173 -0.020891108
-0.05109182 0.1029133 -0.020767078
-0.077476382 0.13820674 -0.0051667467
