# .PCD v0.7 - Point Cloud Data file format
VERSION 0.7
FIELDS x y z
SIZE 4 4 4
TYPE F F F
COUNT 1 1 1
WIDTH 550
HEIGHT 1
VIEWPOINT 0 0 0 1 0 0 0
POINTS 550
DATA ascii
-0.057104677 0.17741917 -0.057613283
0.042487744 0.083813392 -0.010430753
0.041268852 0.091521695 -0.010359399
0.036754936 0.10243906 -0.0098380297
0.031394947 0.10917909 -0.010203525
0.035934769 0.078613691 -0.016552985
0.033990458 0.08747346 -0.017607689
0.028509326 0.098225415 -0.01768668
0.023928609 0.10535924 -0.016321793
-0.0058643371 0.16703705 -0.016624466
-0.0072006509 0.17514987 -0.020299509
-0.010819808 0.18421613 -0.019918315
0.028819218 0.073224902 -0.022478908
0.025098428 0.083001368 -0.024011478
0.01942363 0.093891449 -0.024009272
0.015725166 0.10030753 -0.021713965
0.021034881 0.069771677 -0.027183533
0.015423089 0.078360409 -0.02944842
0.010519356 0.089239821 -0.030266292
0.0056499839 0.096342467 -0.029420376
0.0075567514 0.07698793 -0.032723784
0.0018944591 0.085449509 -0.034216918
-0.00064778328 0.092898324 -0.033196449
-0.057565764 0.16915567 -0.046168014
-0.059043378 0.17662616 -0.048429683
-0.059329346 0.16518955 -0.052073121
-0.060189083 0.17370616 -0.054152608
-0.06409359 0.18261018 -0.052096024
0.063301086 0.067381226 0.012140907
0.062136382 0.070501998 0.011886626
0.047162566 0.099762298 0.011402771
0.044465683 0.10587476 0.011198074
0.059405744 0.053285323 0.00644584
0.060877442 0.061936475 0.0060082078
0.057111617 0.070333026 0.0064193383
0.048477735 0.082943425 0.0043648183
0.047164574 0.094313532 0.0036154091
0.042828485 0.10543658 0.0026767403
0.036534835 0.11551163 0.0034349263
0.028608244 0.12311801 0.0039120913
0.054568008 0.050564155 0.0021487325
0.053228043 0.057261936 -0.0012865216
0.047299068 0.067498446 -0.00050938129
0.045220241 0.079308048 -0.0039723516
0.044941489 0.091434024 -0.0049002171
0.040393695 0.1032726 -0.0050767735
0.030155696 0.11447319 -0.0068857074
0.022728335 0.12261459 -0.0038322136
0.015647411 0.12755854 -0.0013003349
0.044275906 0.0539992 -0.0042427629
0.040064774 0.063400537 -0.0089581162
0.038742494 0.074217394 -0.012661994
0.019980252 0.11018321 -0.014511451
0.014835253 0.11842023 -0.012366205
0.0083054453 0.12463605 -0.0073856935
-0.009951368 0.16465725 -0.010332718
-0.01293923 0.17090952 -0.012577519
-0.017822474 0.18288565 -0.011660859
0.031927194 0.051266611 -0.01338768
0.031685106 0.059339598 -0.017785579
0.030031458 0.067356586 -0.020237446
0.010814622 0.10371583 -0.019386671
0.0046219379 0.11342184 -0.016807616
-9.521842e-05 0.11932597 -0.012350366
-0.020706207 0.16855311 -0.013420165
-0.02384612 0.1762751 -0.013565868
0.022896662 0.045843694 -0.019383639
0.022587124 0.05530709 -0.024075121
0.017910473 0.064561427 -0.027393937
0.012413949 0.071340531 -0.029893614
0.00078544021 0.10068883 -0.024425447
-0.0050030872 0.10776887 -0.020045407
-0.0066356659 0.11485443 -0.015791997
0.016850963 0.043711621 -0.022044428
0.012068331 0.051160611 -0.026319884
0.0080481917 0.061172821 -0.029947452
0.0035653189 0.071518965 -0.032710582
-0.0029000044 0.081845231 -0.035496652
-0.0076239482 0.094932139 -0.032346174
-0.012930818 0.09895613 -0.02634044
0.0030473173 0.050617784 -0.02867277
-0.002318278 0.057376876 -0.03143999
-0.0074625835 0.067062363 -0.03461197
-0.01174476 0.078412242 -0.036733493
-0.017242745 0.088650011 -0.03534577
-0.019370914 0.095519908 -0.030315988
-0.057968393 0.16471568 -0.037813693
-0.061940253 0.17389791 -0.038506478
-0.014861658 0.064859614 -0.034484923
-0.019329146 0.074524187 -0.035849825
-0.023017392 0.081905797 -0.034939632
-0.063191697 0.15929909 -0.043762207
-0.067391053 0.17051208 -0.043977886
-0.070462838 0.17940405 -0.043400794
0.063126333 0.063747697 0.01933559
0.059453759 0.072169974 0.019297756
0.048692942 0.085960455 0.020700641
0.047634952 0.095161691 0.018774241
0.043698132 0.10611776 0.018333368
0.037396863 0.11602794 0.0188208
0.031139418 0.12263359 0.019810311
0.059602819 0.051568851 0.014527008
0.062492758 0.0576123 0.013383418
0.05241723 0.073969737 0.013142429
0.049417481 0.081599101 0.013909571
0.04890357 0.091480277 0.012400419
0.035666991 0.11860465 0.01214081
0.027092647 0.12566766 0.013229214
0.018904738 0.1301627 0.012808546
0.052658375 0.046351705 0.0073865429
0.048782893 0.071299314 0.0052267611
0.011743061 0.13114457 0.0060359538
0.042436946 0.042175218 0.0021294206
0.039793614 0.049114034 -0.0038677901
0.0021929964 0.12862442 -0.0016900748
-0.0032909289 0.1303077 0.0028620362
-0.016497433 0.16084383 -0.0028355122
-0.020132169 0.16739444 -0.00440602
-0.025013231 0.17817718 -0.0030589849
0.034564778 0.039814077 0.00054146349
0.03128605 0.045324408 -0.0051815659
-0.0066831112 0.12300977 -0.0081638843
-0.010924391 0.12654836 -0.0022088885
-0.02324266 0.15820585 -0.0048541948
-0.027718432 0.16424592 -0.0080459639
-0.032109261 0.17428915 -0.0073216856
0.022126701 0.039577398 -0.011715114
-0.01187171 0.10928749 -0.018944561
-0.015637532 0.11713609 -0.013204157
-0.020222969 0.12166299 -0.0080603063
-0.035313658 0.16173838 -0.0078030378
-0.038041219 0.1676708 -0.006916672
0.012062281 0.037829258 -0.018505037
0.0078505874 0.044574175 -0.02340059
-0.018705942 0.10260126 -0.021764398
-0.025118977 0.11096635 -0.017364711
0.0023117959 0.036787812 -0.021462783
-0.0026266873 0.04266604 -0.024926871
-0.0075317621 0.052063406 -0.029854491
-0.011877969 0.059446134 -0.033295631
-0.027156204 0.087634958 -0.02786836
-0.027013108 0.096121393 -0.023164719
-0.030797869 0.1046302 -0.019535378
-0.059302762 0.15336514 -0.025467649
-0.058242142 0.16188599 -0.02636157
-0.065067157 0.17197637 -0.02733022
-0.012440883 0.040365357 -0.026224367
-0.015712991 0.049691178 -0.028138399
-0.019331351 0.061189845 -0.030317366
-0.024543442 0.072160877 -0.030193545
-0.027371198 0.080691174 -0.029718474
-0.064167216 0.15161955 -0.031851143
-0.067938939 0.15712275 -0.033634454
-0.072489426 0.1697693 -0.032781705
-0.072786018 0.17590995 -0.037140265
0.057822526 0.060698092 0.028805789
0.054703042 0.068826973 0.027878571
0.046807736 0.082010552 0.028445888
0.044952683 0.093508683 0.030051064
0.040882602 0.10507797 0.030445293
0.034683511 0.11535883 0.030352846
0.026903182 0.1237085 0.0278797
0.054824285 0.048600048 0.023907751
0.055746369 0.053661488 0.028777048
0.047717601 0.070162542 0.027523972
0.048134126 0.076349296 0.024902195
0.022207096 0.12749575 0.024514496
0.014751561 0.13072206 0.022665918
0.047195755 0.042075556 0.018014222
0.0055951923 0.13254923 0.016671218
-0.00055480003 0.13211098 0.015640438
0.037824124 0.037712678 0.011792406
-0.0069339648 0.13072573 0.0096458793
-0.02272734 0.15937388 0.0026367009
-0.024051301 0.16123845 0.0035681576
-0.030508071 0.17432338 0.0026095361
0.027988259 0.036247693 0.0062190965
0.023058981 0.037096418 0.0029090047
-0.016817912 0.12704067 0.0028928369
-0.029765286 0.1547256 0.0014124513
-0.03222584 0.16291387 0.0043460354
-0.037436664 0.17154378 0.0025586337
0.015490942 0.036377087 -0.0019574165
-0.026830308 0.12430294 -0.0034109131
-0.035366334 0.12803495 -0.001665771
-0.038007818 0.15104714 -0.00043863803
-0.041763484 0.15719002 -0.0035255849
-0.044135496 0.16615465 -0.0017739832
0.0075862855 0.039065823 -0.010581419
0.0012473315 0.040666983 -0.0085299462
-0.032223046 0.1137837 -0.01565402
-0.035093859 0.12060153 -0.010599747
-0.041074231 0.12625366 -0.0064040124
-0.058333144 0.15393731 -0.010141663
-0.060657218 0.16172053 -0.012483865
-0.0002284348 0.036428675 -0.017046914
-0.0077610463 0.038935948 -0.015163019
-0.031881377 0.082721628 -0.020540223
-0.035326712 0.094442368 -0.021065041
-0.038624898 0.1060304 -0.018500216
-0.045427635 0.11522597 -0.014419571
-0.047305897 0.12236398 -0.0099906251
-0.060749456 0.15008257 -0.016447403
-0.067792639 0.15983634 -0.016731709
-0.069789797 0.16726406 -0.017645717
-0.017939061 0.037332311 -0.021357656
-0.02357538 0.047299922 -0.025779203
-0.026110113 0.057713032 -0.02029939
-0.029242948 0.070051275 -0.01943925
-0.03689073 0.079954475 -0.018402688
-0.044197172 0.089685932 -0.020081304
-0.048545092 0.099936709 -0.01962401
-0.051338926 0.10903096 -0.01645264
-0.067136154 0.14949903 -0.0224448
-0.070387632 0.15509193 -0.022789836
-0.073875561 0.1651603 -0.023791477
-0.026178338 0.036372997 -0.026019365
-0.031478137 0.041765481 -0.027773872
-0.032797262 0.048859127 -0.021963157
-0.037961893 0.037098106 -0.027579159
0.051751316 0.059890181 0.033016041
0.05035612 0.062969267 0.032450162
0.041059148 0.079229578 0.038071845
0.039061576 0.090656437 0.040311925
0.034222104 0.10185076 0.040472761
0.027370773 0.1117292 0.039442692
0.021654218 0.1204371 0.036489878
0.047553852 0.046652082 0.029785223
0.045430146 0.05395411 0.033662472
0.042129494 0.065190218 0.035044014
0.039895445 0.072556682 0.038777791
0.015117079 0.12193631 0.037535213
0.0089474097 0.12809196 0.032079801
0.040113136 0.041656177 0.026999142
0.037212312 0.046871342 0.032346331
-0.00016251206 0.1300464 0.028341614
-0.0052680373 0.1305026 0.024307445
0.031100865 0.036936134 0.021321811
-0.013301328 0.12917247 0.019809231
0.026312351 0.036258209 0.014274091
0.023884639 0.037025541 0.016903579
-0.02461952 0.1275107 0.013281599
-0.033245757 0.12920444 0.014262408
-0.037636012 0.15181537 0.0078410506
-0.041087024 0.15786286 0.010620348
-0.04367049 0.16574746 0.0083196908
0.0068597645 0.036234517 0.0068827346
0.00047661364 0.039350659 0.0083643049
-0.030175887 0.12796059 0.0059042871
-0.038524762 0.13074203 0.0067308396
-0.044488296 0.14501333 0.0067546368
-0.049649671 0.15491901 0.0041391701
-0.05111526 0.16190571 0.0062802806
-0.0037650764 0.040187083 0.0016706884
-0.046081617 0.13001023 -0.0015171841
-0.051892504 0.13951001 -0.00060229003
-0.057106093 0.15044746 -0.00076695532
-0.063798413 0.15872498 -0.0014869273
-0.015217587 0.040299732 -0.0050512031
-0.053566813 0.11676951 -0.012611061
-0.055761263 0.12386034 -0.0070724934
-0.061900884 0.13457726 -0.0055783689
-0.066804737 0.14478302 -0.0072535872
-0.07210879 0.15677577 -0.0076090246
-0.071035653 0.16379851 -0.010721073
-0.021695279 0.03991368 -0.012564935
-0.026935466 0.040243506 -0.011643477
-0.033439696 0.054635145 -0.011653736
-0.038854398 0.06514097 -0.012330949
-0.044607162 0.074789852 -0.015342571
-0.049757347 0.084963903 -0.019549683
-0.056365743 0.098457426 -0.017591089
-0.059911698 0.10885546 -0.013641626
-0.063564062 0.11871988 -0.0078580678
-0.068203881 0.12942174 -0.006306529
-0.071818069 0.15217873 -0.015088171
-0.029436134 0.036169581 -0.02062574
-0.038433209 0.038434643 -0.018840119
-0.038741373 0.047189035 -0.016101807
-0.053051814 0.074315667 -0.015104383
-0.057568043 0.083190367 -0.017864883
-0.062726393 0.093313977 -0.016211897
-0.066298202 0.10165489 -0.013288192
-0.040565744 0.037148803 -0.024124399
0.03481406 0.079260685 0.044954553
0.030349266 0.087149158 0.047997158
0.025894839 0.097611107 0.048143677
0.021572676 0.10588443 0.045546692
0.035475135 0.054555766 0.038155831
0.033245459 0.06184227 0.042975977
0.030956347 0.072660945 0.046028774
0.025893144 0.083599187 0.051200666
0.01985722 0.095384285 0.050515167
0.013411783 0.10688814 0.045511577
0.0078506097 0.11508061 0.04282926
0.0027092248 0.12294094 0.038564831
0.030213766 0.046650749 0.037633225
0.028396461 0.054013908 0.042896558
-0.001565516 0.11616223 0.043261718
-0.0062565953 0.12311022 0.037041228
-0.010109797 0.12718599 0.030181825
0.025220238 0.036761671 0.028165475
0.0231613 0.037123967 0.033040415
-0.016674213 0.1220443 0.03408698
-0.019047335 0.12435897 0.028176397
0.011954106 0.036682799 0.026228912
-0.029600695 0.12538305 0.024057433
-0.035539828 0.12826277 0.019635051
-0.049523786 0.1473795 0.024388552
-0.049978375 0.15259713 0.023039326
0.0044192821 0.036597975 0.018164404
-0.0019956529 0.039417934 0.018196754
-0.041092426 0.13182977 0.018034831
-0.046347782 0.14191417 0.017999463
-0.051329538 0.15502563 0.017273672
-0.05993183 0.15730478 0.01578854
-0.010947064 0.039616041 0.011670709
-0.067339569 0.15707888 0.0097422227
-0.020002119 0.039712414 0.0055477023
-0.02531746 0.039811336 0.0025773868
-0.075506836 0.14336568 -0.00031098723
-0.075959221 0.15228036 0.0035388768
-0.032110222 0.038928881 -0.0026935562
-0.042654611 0.054589145 -0.0094375014
-0.047519639 0.064472191 -0.0097204894
-0.068745345 0.10954989 -0.0088330805
-0.072021231 0.11639267 -0.0043751597
-0.076104999 0.12772243 -0.0033486038
-0.078204408 0.13727425 4.0218234e-05
-0.044017643 0.03698016 -0.0092525333
-0.047896653 0.047778588 -0.0082823932
-0.050452203 0.059677236 -0.005581446
-0.058315247 0.06915012 -0.0084728003
-0.067492351 0.078663081 -0.011932358
-0.072105229 0.089883029 -0.011909738
-0.073779225 0.10177065 -0.0084285736
-0.075799152 0.10903718 -0.0035786852
-0.05221048 0.036292307 -0.010418922
-0.054853156 0.040746685 -0.0091184825
-0.072658494 0.079125561 -0.0077856854
-0.074859723 0.084265716 -0.0084013566
0.025155313 0.061127365 0.048549514
0.021606065 0.070093937 0.052306078
0.018992361 0.081264161 0.05473645
0.014255375 0.092013061 0.054649882
0.0068671703 0.099792473 0.051295683
0.0024417639 0.10865572 0.045837436
0.022688825 0.044175509 0.043454964
0.020202328 0.054431118 0.048726786
0.016724385 0.063181221 0.053240653
-0.0013509989 0.10149862 0.048766129
-0.0061055496 0.10861707 0.04551575
-0.010640316 0.11618334 0.04156436
0.016488485 0.038069326 0.042703368
0.013312221 0.046504844 0.047340691
-0.015795305 0.10515862 0.045137435
-0.020909667 0.11422497 0.039264053
-0.025122121 0.1196622 0.032876652
0.007868655 0.038244758 0.034802359
6.8955123e-05 0.039855685 0.033658549
-0.030535743 0.11348216 0.037523836
-0.035089836 0.12011722 0.032344431
-0.045908108 0.13118523 0.031362548
-0.050596073 0.14117855 0.031270396
-0.053504869 0.15241075 0.031159006
-0.0069537386 0.039515655 0.028333209
-0.043496475 0.12131269 0.03118059
-0.043530375 0.12775198 0.028181508
-0.048470035 0.13946019 0.026991781
-0.057254881 0.15654038 0.026785184
-0.064499363 0.15704875 0.026239038
-0.017914072 0.039211649 0.021762185
-0.07465747 0.15671186 0.019765593
-0.028083824 0.036251832 0.01563336
-0.032961264 0.036731191 0.014997207
-0.08358714 0.14221524 0.011230625
-0.083593234 0.15057737 0.013421617
-0.032091953 0.035183389 0.0083232895
-0.038931377 0.035824072 0.0072614774
-0.050841302 0.05200801 0.011987872
-0.0531293 0.057347767 0.0093475506
-0.081172913 0.1133199 0.0047610477
-0.08530286 0.12352721 0.004961431
-0.085248351 0.13514352 0.0079635456
-0.049672738 0.035242885 0.0021983311
-0.056828126 0.04875163 0.0016908199
-0.055160373 0.057800725 0.0021913201
-0.064906597 0.065746836 0.00126037
-0.073783472 0.073767647 0.0005062297
-0.080522344 0.086908273 -0.0005248934
-0.081604779 0.098363444 0.00050850213
-0.080608562 0.10759216 0.0029504001
-0.057233602 0.035311949 -0.0033444166
-0.062542975 0.039844599 -0.0042256564
-0.075056747 0.077616468 -0.004115507
-0.078500047 0.084013477 -0.0033050328
0.013771355 0.07023026 0.056474581
0.010651767 0.07778316 0.057900064
0.0061249882 0.087889954 0.058620565
0.0020906031 0.095150374 0.057033531
0.011807337 0.053784028 0.053356186
0.0082628503 0.063294448 0.056790799
0.0023731664 0.073387489 0.059076786
-0.0031388476 0.084105767 0.059426971
-0.0074963048 0.094436765 0.056439985
0.0080717206 0.038603619 0.046612728
0.0044877529 0.047554966 0.050725635
-0.0012710914 0.056478359 0.055550229
-0.0048984662 0.067950532 0.057714213
-0.018397562 0.092983797 0.05297628
-0.021144368 0.10044105 0.046138078
-0.026485488 0.10694468 0.042520184
-1.5847385e-05 0.035636835 0.045523204
-0.0038064495 0.042413913 0.048299275
-0.010484599 0.05052302 0.049840227
-0.019832931 0.063333645 0.046587002
-0.023717336 0.073946476 0.046152491
-0.027567491 0.086016893 0.0464717
-0.031464577 0.096882775 0.045378581
-0.036119595 0.10672148 0.041566648
-0.040982231 0.1139468 0.037511274
-0.049707845 0.13041136 0.036702055
-0.05490984 0.14079635 0.03695967
-0.059064001 0.14942484 0.03936325
-0.013803661 0.039253864 0.037578344
-0.021349549 0.053077102 0.042971145
-0.025259584 0.059361719 0.04005922
-0.028894603 0.070625246 0.041662566
-0.03209652 0.079858609 0.043773454
-0.03858383 0.09280958 0.044473514
-0.044852868 0.1050483 0.042661488
-0.050398484 0.11488014 0.038013995
-0.05254142 0.12557769 0.040267974
-0.057819605 0.13720781 0.039492443
-0.06450069 0.14946605 0.041090935
-0.070323035 0.15419331 0.035174407
-0.022980943 0.039097626 0.031489618
-0.027357392 0.038893681 0.032236889
-0.030388668 0.053680994 0.038756233
-0.080850542 0.15273255 0.030071959
-0.03110332 0.035470687 0.02617465
-0.036138348 0.035430439 0.027090374
-0.048875019 0.053056225 0.024360418
-0.050126702 0.058843248 0.025469158
-0.087124541 0.13821393 0.023113169
-0.087294206 0.1476765 0.023649186
-0.051336572 0.034832422 0.019530103
-0.050737768 0.047853537 0.018357515
-0.05699192 0.0604188 0.018593937
-0.064144447 0.062986717 0.019655466
-0.085745499 0.10203797 0.018543281
-0.084405005 0.11031049 0.017603986
-0.089789093 0.12157978 0.016317531
-0.089287654 0.13141666 0.017899372
-0.055849791 0.035146922 0.012066185
-0.061632305 0.041705102 0.012752779
-0.061636984 0.061251409 0.011429057
-0.069030732 0.065737121 0.012331188
-0.077011794 0.073828846 0.011499301
-0.082990333 0.084190995 0.010330178
-0.085483432 0.096382581 0.011689276
-0.084364355 0.10491528 0.011071362
-0.066733241 0.038240083 0.0055208653
-0.0059312284 0.073276408 0.059308372
-0.0090472549 0.080225669 0.059598994
-0.007381551 0.059160464 0.05561839
-0.01073496 0.067096554 0.056196958
-0.015227243 0.07825774 0.057638794
-0.019354843 0.08607439 0.056664754
-0.0058828741 0.035693251 0.049323454
-0.011512406 0.040038079 0.051578011
-0.014478803 0.051435381 0.051180981
-0.016347259 0.06313578 0.051907763
-0.021043465 0.075220004 0.052422166
-0.023715541 0.082676262 0.05246431
-0.019420326 0.03610944 0.050233141
-0.025491238 0.046825316 0.049205992
-0.032619089 0.059479348 0.041107554
-0.035828449 0.068741649 0.042922068
-0.039930075 0.079828985 0.044383444
-0.045811862 0.089886218 0.045897178
-0.050971672 0.099963933 0.044700444
-0.058185548 0.11071268 0.04245406
-0.060335785 0.12215228 0.047484521
-0.06473729 0.13427299 0.048618179
-0.071019128 0.1443731 0.046836823
-0.075961247 0.14983408 0.040718883
-0.030304834 0.035355333 0.043171495
-0.03526476 0.041722387 0.043838326
-0.038502336 0.052869692 0.040216889
-0.0433181 0.06435708 0.03960624
-0.050272241 0.074177258 0.042279981
-0.05535078 0.084119186 0.045539711
-0.061367124 0.096650846 0.044612657
-0.065602601 0.10758255 0.04131062
-0.073552951 0.1100326 0.04240134
-0.083989888 0.14063847 0.041689344
-0.082524568 0.14721043 0.037247229
-0.033597432 0.035334382 0.033147082
-0.041851602 0.035352889 0.035223927
-0.048995838 0.050837688 0.035558619
-0.050392479 0.06186191 0.032479681
-0.059430897 0.069406718 0.035943639
-0.065662757 0.075359449 0.038576052
-0.074621916 0.093911469 0.038062919
-0.075187832 0.10213949 0.035910223
-0.080582246 0.11154331 0.033871155
-0.08916381 0.12332389 0.033769071
-0.087270841 0.13433866 0.033669151
-0.086426362 0.14432393 0.031791825
-0.052964881 0.035267293 0.028676108
-0.058480978 0.044244315 0.028374571
-0.066142827 0.067201644 0.026824471
-0.074174106 0.075591721 0.029730044
-0.080211833 0.086366199 0.029882014
-0.083122119 0.098143049 0.027045816
-0.083258376 0.11094446 0.026044339
-0.089528337 0.12094602 0.026386939
-0.090313554 0.12876438 0.025982067
-0.058231339 0.03542617 0.021655679
-0.061201721 0.036989447 0.023871832
-0.071722791 0.068966895 0.020286351
-0.077396005 0.075173743 0.020483866
-0.082906306 0.084304608 0.020365812
-0.086027712 0.093283191 0.020132422
-0.025751926 0.037227068 0.053470477
-0.028075576 0.040414058 0.052508149
-0.06762071 0.11993699 0.054172952
-0.072787896 0.13015616 0.054406792
-0.076824799 0.13754368 0.051575676
-0.030367151 0.036405232 0.050070252
-0.038209274 0.039331689 0.046301223
-0.061615661 0.085047856 0.045295075
-0.06470558 0.091015674 0.044731196
-0.067851111 0.11220512 0.04781739
-0.075676218 0.11498593 0.049611688
-0.082057089 0.12602082 0.050799146
-0.083339944 0.13467947 0.047514994
-0.048884824 0.037047271 0.04461237
-0.053314373 0.044141598 0.044267274
-0.067336738 0.080537736 0.040682301
-0.071661741 0.089225225 0.040649377
-0.084001705 0.11368205 0.043047357
-0.088623255 0.12170778 0.042910203
-0.087488249 0.13055199 0.041895896
-0.057422712 0.035409279 0.038657852
-0.061601415 0.040265817 0.038089305
-0.074182034 0.081042752 0.035903119
-0.076337487 0.084620677 0.035864964
-0.06387563 0.036505658 0.031203736
