# .PCD v0.7 - Point Cloud Data file format
VERSION 0.7
FIELDS x y z
SIZE 4 4 4
TYPE F F F
COUNT 1 1 1
WIDTH 1899
HEIGHT 1
VIEWPOINT 0 0 0 1 0 0 0
POINTS 1899
DATA ascii
26.200001 7.3499999 -0.02
26.200001 7.4000001 -0.038400002
26.200001 7.4499998 0.13600001
26.200001 7.5 0.17200001
26.200001 7.5500002 0.47760001
26.200001 7.5999999 0.51359999
26.200001 7.6500001 0.5248
26.200001 7.6999998 0.44240001
26.200001 7.75 0.44159999
26.200001 7.8000002 0.44639999
26.200001 7.8499999 0.4632
26.200001 7.9000001 0.4632
26.200001 7.9499998 0.4576
26.200001 8 0.44319999
26.200001 8.0500002 0.44
26.200001 8.1000004 0.44
26.200001 8.1499996 0.4368
26.200001 8.1999998 0.456
26.200001 8.25 0.46720001
26.200001 8.3000002 0.46880001
26.200001 8.3500004 0.49439999
26.200001 8.3999996 0.45519999
26.200001 8.4499998 0.852
26.200001 8.5 0.96560001
26.200001 8.5500002 0.9824
26.200001 8.6000004 0.9896
26.200001 8.6499996 0.96560001
26.200001 8.6999998 0.90719998
26.200001 8.75 0.85039997
26.200001 8.8000002 0.80000001
26.200001 8.8500004 0.73519999
26.200001 8.8999996 0.6832
26.200001 8.9499998 0.61119998
26.200001 9 0.56720001
26.200001 9.0500002 0.48320001
26.200001 9.1000004 0.43040001
26.200001 9.1499996 0.3448
26.200001 9.1999998 0.26640001
26.200001 9.25 0.1672
26.200001 9.3000002 0.068000004
26.200001 9.3500004 -0.0392
26.200001 9.3999996 -0.13600001
26.200001 9.4499998 -0.28479999
26.200001 9.5 -0.3944
26.200001 9.5500002 -0.56720001
26.4 7.4499998 0.1304
26.4 7.5 0.1728
26.4 7.5500002 0.24879999
26.4 7.5999999 0.44319999
26.4 7.6500001 0.46160001
26.4 7.6999998 0.46079999
26.4 7.75 0.4752
26.4 7.8000002 0.46959999
26.4 7.8499999 0.44080001
26.4 7.9000001 0.42559999
26.4 7.9499998 0.42879999
26.4 8 0.43439999
26.4 8.0500002 0.44319999
26.4 8.1000004 0.44400001
26.4 8.1499996 0.46079999
26.4 8.1999998 0.4488
26.4 8.25 0.4648
26.4 8.3000002 0.47279999
26.4 8.3500004 0.4664
26.4 8.3999996 0.55199999
26.4 8.4499998 0.8488
26.4 8.5 0.97359997
26.4 8.5500002 0.98879999
26.4 8.6000004 0.98479998
26.4 8.6499996 0.96240002
26.4 8.6999998 0.90079999
26.4 8.75 0.8592
26.4 8.8000002 0.81599998
26.4 8.8500004 0.7464
26.4 8.8999996 0.6832
26.4 8.9499998 0.62639999
26.4 9 0.56559998
26.4 9.0500002 0.49520001
26.4 9.1000004 0.42320001
26.4 9.1499996 0.34240001
26.4 9.1999998 0.2608
26.4 9.25 0.1744
26.4 9.3000002 0.076800004
26.4 9.3500004 -0.0184
26.4 9.3999996 -0.14399999
26.4 9.4499998 -0.25600001
26.4 9.5 -0.412
26.4 9.5500002 -0.56400001
26.6 7.4499998 0.1184
26.6 7.5 0.16320001
26.6 7.5500002 0.2448
26.6 7.5999999 0.4104
26.6 7.6500001 0.44319999
26.6 7.6999998 0.46239999
26.6 7.75 0.4648
26.6 7.8000002 0.456
26.6 7.8499999 0.44080001
26.6 7.9000001 0.43439999
26.6 7.9499998 0.44
26.6 8 0.44319999
26.6 8.0500002 0.43920001
26.6 8.1000004 0.4384
26.6 8.1499996 0.4296
26.6 8.1999998 0.45199999
26.6 8.25 0.44400001
26.6 8.3000002 0.45199999
26.6 8.3500004 0.46399999
26.6 8.3999996 0.55839998
26.6 8.4499998 0.85039997
26.6 8.5 0.96560001
26.6 8.5500002 0.98479998
26.6 8.6000004 0.98799998
26.6 8.6499996 0.97600001
26.6 8.6999998 0.90319997
26.6 8.75 0.84719998
26.6 8.8000002 0.80320001
26.6 8.8500004 0.7432
26.6 8.8999996 0.69440001
26.6 8.9499998 0.61199999
26.6 9 0.56400001
26.6 9.0500002 0.49680001
26.6 9.1000004 0.4192
26.6 9.1499996 0.34720001
26.6 9.1999998 0.25920001
26.6 9.25 0.1816
26.6 9.3000002 0.081600003
26.6 9.3500004 -0.024
26.6 9.3999996 -0.1416
26.6 9.4499998 -0.26320001
26.6 9.5 -0.38080001
26.6 9.5500002 -0.54879999
26.799999 7.3000002 -0.088799998
26.799999 7.3499999 -0.0071999999
26.799999 7.4000001 -0.116
26.799999 7.4499998 -0.1736
26.799999 7.5 0.1752
26.799999 7.5500002 0.33039999
26.799999 7.5999999 0.38960001
26.799999 7.6500001 0.43520001
26.799999 7.6999998 0.45680001
26.799999 7.75 0.4632
26.799999 7.8000002 0.46160001
26.799999 7.8499999 0.43599999
26.799999 7.9000001 0.44319999
26.799999 7.9499998 0.4488
26.799999 8 0.46000001
26.799999 8.0500002 0.4368
26.799999 8.1000004 0.41679999
26.799999 8.1499996 0.41999999
26.799999 8.1999998 0.43759999
26.799999 8.25 0.4152
26.799999 8.3000002 0.40000001
26.799999 8.3500004 0.4032
26.799999 8.3999996 0.53600001
26.799999 8.4499998 0.85039997
26.799999 8.5 0.97119999
26.799999 8.5500002 0.9824
26.799999 8.6000004 0.98799998
26.799999 8.6499996 0.97119999
26.799999 8.6999998 0.91119999
26.799999 8.75 0.86400002
26.799999 8.8000002 0.80320001
26.799999 8.8500004 0.75279999
26.799999 8.8999996 0.69520003
26.799999 8.9499998 0.63200003
26.799999 9 0.56480002
26.799999 9.0500002 0.49599999
26.799999 9.1000004 0.42640001
26.799999 9.1499996 0.3536
26.799999 9.1999998 0.26719999
26.799999 9.25 0.18080001
26.799999 9.3000002 0.092
26.799999 9.3500004 -0.0136
26.799999 9.3999996 -0.1208
26.799999 9.4499998 -0.244
26.799999 9.5 -0.40400001
26.799999 9.5500002 -0.56
26.799999 9.6000004 -0.75999999
27 7.4000001 0.045600001
27 7.4499998 0.1104
27 7.5 0.17839999
27 7.5500002 0.2608
27 7.5999999 0.3856
27 7.6500001 0.42879999
27 7.6999998 0.48640001
27 7.75 0.47279999
27 7.8000002 0.4368
27 7.8499999 0.43599999
27 7.9000001 0.4312
27 7.9499998 0.41839999
27 8 0.428
27 8.0500002 0.41999999
27 8.1000004 0.41600001
27 8.1499996 0.4368
27 8.1999998 0.43920001
27 8.25 0.42640001
27 8.3000002 0.42399999
27 8.3500004 0.41999999
27 8.3999996 0.70480001
27 8.4499998 0.84640002
27 8.5 0.96240002
27 8.5500002 0.98159999
27 8.6000004 0.99119997
27 8.6499996 0.97039998
27 8.6999998 0.9152
27 8.75 0.8664
27 8.8000002 0.8064
27 8.8500004 0.74159998
27 8.8999996 0.69199997
27 8.9499998 0.62959999
27 9 0.56559998
27 9.0500002 0.49360001
27 9.1000004 0.4296
27 9.1499996 0.34639999
27 9.1999998 0.28240001
27 9.25 0.17919999
27 9.3000002 0.0792
27 9.3500004 -0.0112
27 9.3999996 -0.1216
27 9.4499998 -0.2376
27 9.5 -0.3888
27 9.5500002 -0.54799998
27.200001 7.4499998 -0.45039999
27.200001 7.5 -0.1904
27.200001 7.5500002 0.248
27.200001 7.5999999 0.46239999
27.200001 7.6500001 0.51920003
27.200001 7.6999998 0.50880003
27.200001 7.75 0.47119999
27.200001 7.8000002 0.4224
27.200001 7.8499999 0.43200001
27.200001 7.9000001 0.4368
27.200001 7.9499998 0.456
27.200001 8 0.42719999
27.200001 8.0500002 0.4136
27.200001 8.1000004 0.42480001
27.200001 8.1499996 0.4296
27.200001 8.1999998 0.42559999
27.200001 8.25 0.45039999
27.200001 8.3000002 0.40079999
27.200001 8.3500004 0.36399999
27.200001 8.3999996 0.36399999
27.200001 8.4499998 0.84079999
27.200001 8.5 0.95200002
27.200001 8.5500002 0.98559999
27.200001 8.6000004 0.98400003
27.200001 8.6499996 0.97359997
27.200001 8.6999998 0.91360003
27.200001 8.75 0.86400002
27.200001 8.8000002 0.80400002
27.200001 8.8500004 0.74879998
27.200001 8.8999996 0.69919997
27.200001 8.9499998 0.6304
27.200001 9 0.56239998
27.200001 9.0500002 0.49439999
27.200001 9.1000004 0.428
27.200001 9.1499996 0.3536
27.200001 9.1999998 0.2656
27.200001 9.25 0.1848
27.200001 9.3000002 0.088
27.200001 9.3500004 -0.016000001
27.200001 9.3999996 -0.1224
27.200001 9.4499998 -0.25279999
27.200001 9.5 -0.38
27.200001 9.5500002 -0.54400003
27.4 7.1999998 -1.1928
27.4 7.25 -1.2064
27.4 7.3000002 -1.2144001
27.4 7.3499999 -1.2168
27.4 7.4000001 -0.47999999
27.4 7.4499998 -0.4808
27.4 7.5 -0.088
27.4 7.5500002 0.47119999
27.4 7.5999999 0.4312
27.4 7.6500001 0.4104
27.4 7.6999998 0.412
27.4 7.75 0.41760001
27.4 7.8000002 0.40959999
27.4 7.8499999 0.43279999
27.4 7.9000001 0.42160001
27.4 7.9499998 0.4208
27.4 8 0.44080001
27.4 8.0500002 0.4456
27.4 8.1000004 0.44400001
27.4 8.1499996 0.4544
27.4 8.1999998 0.41600001
27.4 8.25 0.52160001
27.4 8.3000002 0.39199999
27.4 8.3500004 0.38240001
27.4 8.3999996 0.51840001
27.4 8.4499998 0.84640002
27.4 8.5 0.96399999
27.4 8.5500002 0.9824
27.4 8.6000004 0.98799998
27.4 8.6499996 0.97280002
27.4 8.6999998 0.90560001
27.4 8.75 0.85680002
27.4 8.8000002 0.80559999
27.4 8.8500004 0.74559999
27.4 8.8999996 0.68239999
27.4 8.9499998 0.62959999
27.4 9 0.55919999
27.4 9.0500002 0.49680001
27.4 9.1000004 0.42160001
27.4 9.1499996 0.3504
27.4 9.1999998 0.2816
27.4 9.25 0.1856
27.4 9.3000002 0.090400003
27.4 9.3500004 -0.016000001
27.4 9.3999996 -0.1232
27.4 9.4499998 -0.25600001
27.4 9.5 -0.40560001
27.4 9.5500002 -0.56879997
27.6 6.6999998 -1.1776
27.6 6.75 -1.1928
27.6 6.8000002 -1.1968
27.6 6.8499999 -1.2064
27.6 6.9000001 -1.2072001
27.6 6.9499998 -1.2064
27.6 7 -1.212
27.6 7.0500002 -1.2151999
27.6 7.0999999 -1.2128
27.6 7.1500001 -1.216
27.6 7.1999998 -1.2112
27.6 7.25 -1.212
27.6 7.3000002 -1.2088
27.6 7.3499999 -1.2104
27.6 7.4000001 -1.2096
27.6 7.4499998 -0.4808
27.6 7.5 -0.47760001
27.6 7.5500002 0.37279999
27.6 7.5999999 0.44159999
27.6 7.6500001 0.46160001
27.6 7.6999998 0.4472
27.6 7.75 0.44240001
27.6 7.8000002 0.4384
27.6 7.8499999 0.42480001
27.6 7.9000001 0.41839999
27.6 7.9499998 0.4312
27.6 8 0.43360001
27.6 8.0500002 0.41679999
27.6 8.1000004 0.43279999
27.6 8.1499996 0.46880001
27.6 8.1999998 0.46160001
27.6 8.25 0.45039999
27.6 8.3000002 0.39039999
27.6 8.3500004 0.40239999
27.6 8.3999996 0.50800002
27.6 8.4499998 0.84960002
27.6 8.5 0.95679998
27.6 8.5500002 0.98640001
27.6 8.6000004 0.98479998
27.6 8.6499996 0.97119999
27.6 8.6999998 0.91600001
27.6 8.75 0.86159998
27.6 8.8000002 0.8136
27.6 8.8500004 0.74720001
27.6 8.8999996 0.69760001
27.6 8.9499998 0.63599998
27.6 9 0.56800002
27.6 9.0500002 0.49439999
27.6 9.1000004 0.43040001
27.6 9.1499996 0.35519999
27.6 9.1999998 0.2696
27.6 9.25 0.1864
27.6 9.3000002 0.086400002
27.6 9.3500004 -0.0232
27.6 9.3999996 -0.1192
27.6 9.4499998 -0.2368
27.6 9.5 -0.38319999
27.6 9.5500002 -0.54000002
27.799999 6.5999999 -1.2064
27.799999 6.6500001 -1.2079999
27.799999 6.6999998 -1.2024
27.799999 6.75 -1.2
27.799999 6.8000002 -1.204
27.799999 6.8499999 -1.2016
27.799999 6.9000001 -1.2128
27.799999 6.9499998 -1.2144001
27.799999 7 -1.2064
27.799999 7.0500002 -1.212
27.799999 7.0999999 -1.2151999
27.799999 7.1500001 -1.2144001
27.799999 7.1999998 -1.2112
27.799999 7.25 -1.2112
27.799999 7.3000002 -1.2
27.799999 7.3499999 -1.212
27.799999 7.4000001 -1.22
27.799999 7.4499998 -0.99119997
27.799999 7.5 0.024
27.799999 7.5500002 0.34720001
27.799999 7.5999999 0.40880001
27.799999 7.6500001 0.43360001
27.799999 7.6999998 0.43439999
27.799999 7.75 0.4368
27.799999 7.8000002 0.43200001
27.799999 7.8499999 0.42480001
27.799999 7.9000001 0.43360001
27.799999 7.9499998 0.44639999
27.799999 8 0.45199999
27.799999 8.0500002 0.45120001
27.799999 8.1000004 0.4368
27.799999 8.1499996 0.42640001
27.799999 8.1999998 0.4664
27.799999 8.25 0.42640001
27.799999 8.3000002 0.39120001
27.799999 8.3500004 0.384
27.799999 8.3999996 0.3784
27.799999 8.4499998 0.8416
27.799999 8.5 0.94880003
27.799999 8.5500002 0.98000002
27.799999 8.6000004 0.97920001
27.799999 8.6499996 0.96799999
27.799999 8.6999998 0.90719998
27.799999 8.75 0.86159998
27.799999 8.8000002 0.80800003
27.799999 8.8500004 0.75120002
27.799999 8.8999996 0.6936
27.799999 8.9499998 0.63599998
27.799999 9 0.56800002
27.799999 9.0500002 0.49680001
27.799999 9.1000004 0.42480001
27.799999 9.1499996 0.36399999
27.799999 9.1999998 0.28080001
27.799999 9.25 0.18080001
27.799999 9.3000002 0.1072
27.799999 9.3500004 -0.0104
27.799999 9.3999996 -0.1088
27.799999 9.4499998 -0.2344
27.799999 9.5 -0.39039999
27.799999 9.5500002 -0.55680001
28 6.5999999 -1.2088
28 6.6500001 -1.2104
28 6.6999998 -1.2064
28 6.75 -1.2079999
28 6.8000002 -1.216
28 6.8499999 -1.2104
28 6.9000001 -1.216
28 6.9499998 -1.2112
28 7 -1.2088
28 7.0500002 -1.2168
28 7.0999999 -1.212
28 7.1500001 -1.2
28 7.1999998 -1.2016
28 7.25 -1.2024
28 7.3000002 -1.2007999
28 7.3499999 -1.192
28 7.4000001 -1.2056
28 7.4499998 -0.98720002
28 7.5 -0.053599998
28 7.5500002 0.39520001
28 7.5999999 0.41440001
28 7.6500001 0.42879999
28 7.6999998 0.4312
28 7.75 0.4296
28 7.8000002 0.41760001
28 7.8499999 0.42559999
28 7.9000001 0.42320001
28 7.9499998 0.42160001
28 8 0.43599999
28 8.0500002 0.44
28 8.1000004 0.43920001
28 8.1499996 0.42879999
28 8.1999998 0.4224
28 8.25 0.40079999
28 8.3000002 0.39039999
28 8.3500004 0.4032
28 8.3999996 0.39919999
28 8.4499998 0.8416
28 8.5 0.95999998
28 8.5500002 0.98079997
28 8.6000004 0.98479998
28 8.6499996 0.97359997
28 8.6999998 0.91360003
28 8.75 0.85600001
28 8.8000002 0.8096
28 8.8500004 0.74800003
28 8.8999996 0.69279999
28 8.9499998 0.62879997
28 9 0.56959999
28 9.0500002 0.49919999
28 9.1000004 0.43040001
28 9.1499996 0.3488
28 9.1999998 0.26879999
28 9.25 0.18960001
28 9.3000002 0.1032
28 9.3500004 -0.0080000004
28 9.3999996 -0.1136
28 9.4499998 -0.24160001
28 9.5 -0.39840001
28 9.5500002 -0.53680003
28 9.6000004 -0.71759999
28 9.6499996 -0.96719998
28.200001 6.5999999 -1.212
28.200001 6.6500001 -1.212
28.200001 6.6999998 -1.2136
28.200001 6.75 -1.2072001
28.200001 6.8000002 -1.2128
28.200001 6.8499999 -1.2016
28.200001 6.9000001 -1.1984
28.200001 6.9499998 -1.2064
28.200001 7 -1.2144001
28.200001 7.0500002 -1.2024
28.200001 7.0999999 -1.2096
28.200001 7.1500001 -1.14
28.200001 7.1999998 -1.224
28.200001 7.25 -1.212
28.200001 7.3000002 -1.2007999
28.200001 7.3499999 -1.2016
28.200001 7.4000001 -1.1968
28.200001 7.4499998 -1.1984
28.200001 7.5 -1.2016
28.200001 7.5500002 0.3928
28.200001 7.5999999 0.41440001
28.200001 7.6500001 0.42879999
28.200001 7.6999998 0.43279999
28.200001 7.75 0.43040001
28.200001 7.8000002 0.4104
28.200001 7.8499999 0.41999999
28.200001 7.9000001 0.40959999
28.200001 7.9499998 0.4208
28.200001 8 0.428
28.200001 8.0500002 0.45280001
28.200001 8.1000004 0.42640001
28.200001 8.1499996 0.42640001
28.200001 8.1999998 0.41600001
28.200001 8.25 0.41999999
28.200001 8.3000002 0.45039999
28.200001 8.3500004 0.3432
28.200001 8.3999996 0.36719999
28.200001 8.4499998 0.84320003
28.200001 8.5 0.9472
28.200001 8.5500002 0.97839999
28.200001 8.6000004 0.98320001
28.200001 8.6499996 0.98479998
28.200001 8.6999998 0.91039997
28.200001 8.75 0.86320001
28.200001 8.8000002 0.80800003
28.200001 8.8500004 0.7536
28.200001 8.8999996 0.69279999
28.200001 8.9499998 0.64160001
28.200001 9 0.56160003
28.200001 9.0500002 0.50160003
28.200001 9.1000004 0.4192
28.200001 9.1499996 0.35679999
28.200001 9.1999998 0.26719999
28.200001 9.25 0.18960001
28.200001 9.3000002 0.085600004
28.200001 9.3500004 -0.019200001
28.200001 9.3999996 -0.112
28.200001 9.4499998 -0.2296
28.200001 9.5 -0.37439999
28.200001 9.5500002 -0.50639999
28.4 6.5999999 -1.2288001
28.4 6.6500001 -1.24
28.4 6.6999998 -1.2224
28.4 6.75 -1.2296
28.4 6.8000002 -1.232
28.4 6.8499999 -1.256
28.4 6.9000001 -1.2431999
28.4 6.9499998 -1.212
28.4 7 -1.216
28.4 7.0500002 -1.2216001
28.4 7.0999999 -1.212
28.4 7.1500001 -1.2007999
28.4 7.1999998 -1.1968
28.4 7.25 -1.1984
28.4 7.3000002 -1.2
28.4 7.3499999 -1.2
28.4 7.4000001 -1.2032
28.4 7.4499998 -1.2128
28.4 7.5 -1.212
28.4 7.5500002 0.4208
28.4 7.5999999 0.45039999
28.4 7.6500001 0.45199999
28.4 7.6999998 0.45039999
28.4 7.75 0.45039999
28.4 7.8000002 0.4472
28.4 7.8499999 0.44159999
28.4 7.9000001 0.44080001
28.4 7.9499998 0.45519999
28.4 8 0.45840001
28.4 8.0500002 0.46880001
28.4 8.1000004 0.45840001
28.4 8.1499996 0.45280001
28.4 8.1999998 0.41760001
28.4 8.25 0.4032
28.4 8.3000002 0.38080001
28.4 8.3500004 0.33039999
28.4 8.3999996 0.35679999
28.4 8.4499998 0.83840001
28.4 8.5 0.9576
28.4 8.5500002 0.98000002
28.4 8.6000004 0.98879999
28.4 8.6499996 0.98159999
28.4 8.6999998 0.9192
28.4 8.75 0.86320001
28.4 8.8000002 0.80720001
28.4 8.8500004 0.76319999
28.4 8.8999996 0.69760001
28.4 8.9499998 0.64319998
28.4 9 0.57200003
28.4 9.0500002 0.50480002
28.4 9.1000004 0.43360001
28.4 9.1499996 0.35280001
28.4 9.1999998 0.27520001
28.4 9.25 0.2008
28.4 9.3000002 0.1064
28.4 9.3500004 0.0055999998
28.4 9.3999996 -0.1056
28.4 9.4499998 -0.2368
28.4 9.5 -0.35280001
28.4 9.5500002 -0.53759998
28.6 6.5999999 -1.2136
28.6 6.6500001 -1.228
28.6 6.6999998 -1.212
28.6 6.75 -1.2416
28.6 6.8000002 -1.2624
28.6 6.8499999 -1.2128
28.6 6.9000001 -1.196
28.6 6.9499998 -1.1944
28.6 7 -1.196
28.6 7.0500002 -1.1944
28.6 7.0999999 -1.196
28.6 7.1500001 -1.1952
28.6 7.1999998 -1.1952
28.6 7.25 -1.1952
28.6 7.3000002 -1.1976
28.6 7.3499999 -1.1968
28.6 7.4000001 -1.2
28.6 7.4499998 -1.2
28.6 7.5 -1.2007999
28.6 7.5500002 -1.2056
28.6 7.5999999 0.46239999
28.6 7.6500001 0.46959999
28.6 7.6999998 0.47119999
28.6 7.75 0.46399999
28.6 7.8000002 0.47440001
28.6 7.8499999 0.44960001
28.6 7.9000001 0.45519999
28.6 7.9499998 0.44319999
28.6 8 0.45359999
28.6 8.0500002 0.4472
28.6 8.1000004 0.43520001
28.6 8.1499996 0.43279999
28.6 8.1999998 0.41280001
28.6 8.25 0.3928
28.6 8.3000002 0.37200001
28.6 8.3500004 0.37279999
28.6 8.3999996 0.352
28.6 8.4499998 0.84240001
28.6 8.5 0.93760002
28.6 8.5500002 0.98320001
28.6 8.6000004 0.98479998
28.6 8.6499996 0.97839999
28.6 8.6999998 0.92320001
28.6 8.75 0.86799997
28.6 8.8000002 0.81279999
28.6 8.8500004 0.75279999
28.6 8.8999996 0.69520003
28.6 8.9499998 0.63919997
28.6 9 0.57200003
28.6 9.0500002 0.50880003
28.6 9.1000004 0.4312
28.6 9.1499996 0.36480001
28.6 9.1999998 0.2872
28.6 9.25 0.2032
28.6 9.3000002 0.1064
28.6 9.3500004 0.0063999998
28.6 9.3999996 -0.1008
28.6 9.4499998 -0.2288
28.6 9.5 -0.38240001
28.799999 6.5999999 -1.2503999
28.799999 6.6500001 -1.2408
28.799999 6.6999998 -1.2352
28.799999 6.75 -1.348
28.799999 6.8000002 -1.2728
28.799999 6.8499999 -1.2072001
28.799999 6.9000001 -1.1944
28.799999 6.9499998 -1.1952
28.799999 7 -1.1928
28.799999 7.0500002 -1.1936001
28.799999 7.0999999 -1.196
28.799999 7.1500001 -1.1936001
28.799999 7.1999998 -1.196
28.799999 7.25 -1.1968
28.799999 7.3000002 -1.1976
28.799999 7.3499999 -1.1992
28.799999 7.4000001 -1.1984
28.799999 7.4499998 -1.2
28.799999 7.5 -1.2016
28.799999 7.5500002 0.40400001
28.799999 7.5999999 0.43920001
28.799999 7.6500001 0.45120001
28.799999 7.6999998 0.4384
28.799999 7.75 0.43520001
28.799999 7.8000002 0.4488
28.799999 7.8499999 0.4312
28.799999 7.9000001 0.42160001
28.799999 7.9499998 0.428
28.799999 8 0.43279999
28.799999 8.0500002 0.42399999
28.799999 8.1000004 0.44400001
28.799999 8.1499996 0.41679999
28.799999 8.1999998 0.4368
28.799999 8.25 0.3888
28.799999 8.3000002 0.37360001
28.799999 8.3500004 0.38240001
28.799999 8.3999996 0.36880001
28.799999 8.4499998 0.8448
28.799999 8.5 0.93279999
28.799999 8.5500002 0.98079997
28.799999 8.6000004 0.98079997
28.799999 8.6499996 0.96960002
28.799999 8.6999998 0.91759998
28.799999 8.75 0.87120003
28.799999 8.8000002 0.8136
28.799999 8.8500004 0.75440001
28.799999 8.8999996 0.70480001
28.799999 8.9499998 0.6376
28.799999 9 0.57599998
28.799999 9.0500002 0.50639999
28.799999 9.1000004 0.4368
28.799999 9.1499996 0.36480001
28.799999 9.1999998 0.2904
28.799999 9.25 0.1944
28.799999 9.3000002 0.1184
28.799999 9.3500004 0.0048000002
28.799999 9.3999996 -0.1
28.799999 9.4499998 -0.2208
28.799999 9.5 -0.37920001
28.799999 9.5500002 -0.50319999
29 6.8000002 -1.2728
29 6.8499999 -1.2096
29 6.9000001 -1.1984
29 6.9499998 -1.196
29 7 -1.1968
29 7.0500002 -1.196
29 7.0999999 -1.1952
29 7.1500001 -1.1984
29 7.1999998 -1.1984
29 7.25 -1.1992
29 7.3000002 -1.2
29 7.3499999 -1.2
29 7.4000001 -1.2007999
29 7.4499998 -1.2007999
29 7.5 -1.2112
29 7.5500002 0.42160001
29 7.5999999 0.46079999
29 7.6500001 0.46720001
29 7.6999998 0.45919999
29 7.75 0.456
29 7.8000002 0.42879999
29 7.8499999 0.4384
29 7.9000001 0.43599999
29 7.9499998 0.4368
29 8 0.44
29 8.0500002 0.44159999
29 8.1000004 0.43279999
29 8.1499996 0.4312
29 8.1999998 0.4048
29 8.25 0.40560001
29 8.3000002 0.3768
29 8.3500004 0.35519999
29 8.3999996 0.37599999
29 8.4499998 0.83600003
29 8.5 0.94160002
29 8.5500002 0.97920001
29 8.6000004 0.97759998
29 8.6499996 0.97920001
29 8.6999998 0.91759998
29 8.75 0.85039997
29 8.8000002 0.81440002
29 8.8500004 0.75199997
29 8.8999996 0.708
29 8.9499998 0.63599998
29 9 0.57679999
29 9.0500002 0.50639999
29 9.1000004 0.4488
29 9.1499996 0.36880001
29 9.1999998 0.2656
29 9.25 0.192
29 9.3000002 0.1104
29 9.3500004 0.0063999998
29 9.3999996 -0.1128
29 9.4499998 -0.2024
29 9.5 -0.3624
29 9.5500002 -0.51120001
29.200001 6.8000002 -1.2503999
29.200001 6.8499999 -1.2032
29.200001 6.9000001 -1.196
29.200001 6.9499998 -1.1944
29.200001 7 -1.1968
29.200001 7.0500002 -1.1976
29.200001 7.0999999 -1.1992
29.200001 7.1500001 -1.1976
29.200001 7.1999998 -1.2
29.200001 7.25 -1.2
29.200001 7.3000002 -1.2007999
29.200001 7.3499999 -1.2007999
29.200001 7.4000001 -1.2032
29.200001 7.4499998 -1.196
29.200001 7.5 -1.1976
29.200001 7.5500002 0.412
29.200001 7.5999999 0.4368
29.200001 7.6500001 0.44319999
29.200001 7.6999998 0.43520001
29.200001 7.75 0.41999999
29.200001 7.8000002 0.42559999
29.200001 7.8499999 0.42480001
29.200001 7.9000001 0.41999999
29.200001 7.9499998 0.4136
29.200001 8 0.4224
29.200001 8.0500002 0.42879999
29.200001 8.1000004 0.4576
29.200001 8.1499996 0.4648
29.200001 8.1999998 0.45519999
29.200001 8.25 0.43520001
29.200001 8.3000002 0.2712
29.200001 8.3500004 0.2464
29.200001 8.3999996 0.2304
29.200001 8.4499998 0.83200002
29.200001 8.5 0.93519998
29.200001 8.5500002 0.9752
29.200001 8.6000004 0.98159999
29.200001 8.6499996 0.97600001
29.200001 8.6999998 0.92320001
29.200001 8.75 0.8696
29.200001 8.8000002 0.80800003
29.200001 8.8500004 0.75440001
29.200001 8.8999996 0.69679999
29.200001 8.9499998 0.648
29.200001 9 0.58240002
29.200001 9.0500002 0.50400001
29.200001 9.1000004 0.44400001
29.200001 9.1499996 0.36880001
29.200001 9.1999998 0.2888
29.200001 9.25 0.19760001
29.200001 9.3000002 0.1112
29.200001 9.3500004 0.0080000004
29.200001 9.3999996 -0.093599997
29.200001 9.4499998 -0.21520001
29.200001 9.5 -0.36000001
29.200001 9.5500002 -0.51279998
29.200001 9.6000004 -0.64240003
29.4 6.8000002 -1.268
29.4 6.8499999 -1.204
29.4 6.9000001 -1.1952
29.4 6.9499998 -1.1952
29.4 7 -1.1944
29.4 7.0500002 -1.1944
29.4 7.0999999 -1.1968
29.4 7.1500001 -1.1984
29.4 7.1999998 -1.2
29.4 7.25 -1.2007999
29.4 7.3000002 0.59200001
29.4 7.3499999 -1.2024
29.4 7.4000001 -1.2024
29.4 7.4499998 -1.2048
29.4 7.5 0.34799999
29.4 7.5500002 0.39039999
29.4 7.5999999 0.40880001
29.4 7.6500001 0.41760001
29.4 7.6999998 0.42640001
29.4 7.75 0.4368
29.4 7.8000002 0.4384
29.4 7.8499999 0.43920001
29.4 7.9000001 0.4312
29.4 7.9499998 0.43920001
29.4 8 0.44
29.4 8.0500002 0.44639999
29.4 8.1000004 0.45280001
29.4 8.1499996 0.4664
29.4 8.1999998 0.45120001
29.4 8.25 0.4368
29.4 8.3000002 0.25040001
29.4 8.3500004 0.25119999
29.4 8.3999996 0.228
29.4 8.4499998 0.83520001
29.4 8.5 0.95039999
29.4 8.5500002 0.972
29.4 8.6000004 0.98000002
29.4 8.6499996 0.98079997
29.4 8.6999998 0.92000002
29.4 8.75 0.87519997
29.4 8.8000002 0.81760001
29.4 8.8500004 0.76160002
29.4 8.8999996 0.704
29.4 8.9499998 0.65759999
29.4 9 0.5776
29.4 9.0500002 0.5104
29.4 9.1000004 0.4368
29.4 9.1499996 0.36320001
29.4 9.1999998 0.292
29.4 9.25 0.20640001
29.4 9.3000002 0.1192
29.4 9.3500004 0.0024000001
29.4 9.3999996 -0.1
29.4 9.4499998 -0.2192
29.4 9.5 -0.3432
29.4 9.5500002 -0.4912
29.6 6.8000002 -1.2728
29.6 6.8499999 -1.2144001
29.6 6.9000001 -1.1976
29.6 6.9499998 -1.1928
29.6 7 -1.1944
29.6 7.0500002 -1.1968
29.6 7.0999999 -1.196
29.6 7.1500001 -1.196
29.6 7.1999998 -1.2
29.6 7.25 -1.2007999
29.6 7.3000002 -1.2048
29.6 7.3499999 -1.2024
29.6 7.4000001 -1.204
29.6 7.4499998 -1.2072001
29.6 7.5 0.34639999
29.6 7.5500002 0.38319999
29.6 7.5999999 0.39919999
29.6 7.6500001 0.4064
29.6 7.6999998 0.41440001
29.6 7.75 0.41600001
29.6 7.8000002 0.4192
29.6 7.8499999 0.4152
29.6 7.9000001 0.42640001
29.6 7.9499998 0.4296
29.6 8 0.43520001
29.6 8.0500002 0.44
29.6 8.1000004 0.44319999
29.6 8.1499996 0.44240001
29.6 8.1999998 0.40720001
29.6 8.25 0.3768
29.6 8.3000002 0.2624
29.6 8.3500004 0.252
29.6 8.3999996 0.2456
29.6 8.4499998 0.82880002
29.6 8.5 0.91280001
29.6 8.5500002 0.972
29.6 8.6000004 0.97680002
29.6 8.6499996 0.97680002
29.6 8.6999998 0.92079997
29.6 8.75 0.86320001
29.6 8.8000002 0.824
29.6 8.8500004 0.76319999
29.6 8.8999996 0.70959997
29.6 8.9499998 0.64480001
29.6 9 0.57200003
29.6 9.0500002 0.51359999
29.6 9.1000004 0.45120001
29.6 9.1499996 0.3784
29.6 9.1999998 0.3008
29.6 9.25 0.204
29.6 9.3000002 0.1136
29.6 9.3500004 0.034400001
29.6 9.3999996 -0.099200003
29.6 9.4499998 -0.2192
29.6 9.5 -0.35440001
29.6 9.5500002 -0.51679999
29.6 9.6000004 -0.62720001
29.799999 6.8499999 -1.2248
29.799999 6.9000001 -1.1984
29.799999 6.9499998 -1.196
29.799999 7 -1.1968
29.799999 7.0500002 -1.1968
29.799999 7.0999999 -1.1968
29.799999 7.1500001 -1.1968
29.799999 7.1999998 -1.1984
29.799999 7.25 -1.2024
29.799999 7.3000002 -1.2
29.799999 7.3499999 -1.2
29.799999 7.4000001 -1.2072001
29.799999 7.4499998 -1.2144001
29.799999 7.5 0.34400001
29.799999 7.5500002 0.3888
29.799999 7.5999999 0.40000001
29.799999 7.6500001 0.40079999
29.799999 7.6999998 0.40720001
29.799999 7.75 0.4104
29.799999 7.8000002 0.4048
29.799999 7.8499999 0.4104
29.799999 7.9000001 0.41280001
29.799999 7.9499998 0.43200001
29.799999 8 0.42640001
29.799999 8.0500002 0.43759999
29.799999 8.1000004 0.45359999
29.799999 8.1499996 0.45280001
29.799999 8.1999998 0.43759999
29.799999 8.25 0.4224
29.799999 8.3000002 0.24879999
29.799999 8.3500004 0.248
29.799999 8.3999996 0.24079999
29.799999 8.4499998 0.82480001
29.799999 8.5 0.93919998
29.799999 8.5500002 0.97600001
29.799999 8.6000004 0.98079997
29.799999 8.6499996 0.97280002
29.799999 8.6999998 0.92320001
29.799999 8.75 0.86799997
29.799999 8.8000002 0.81440002
29.799999 8.8500004 0.7608
29.799999 8.8999996 0.70160002
29.799999 8.9499998 0.6376
29.799999 9 0.57999998
29.799999 9.0500002 0.51440001
29.799999 9.1000004 0.44240001
29.799999 9.1499996 0.36559999
29.799999 9.1999998 0.28639999
29.799999 9.25 0.2
29.799999 9.3000002 0.1168
29.799999 9.3500004 0.019200001
29.799999 9.3999996 -0.095200002
29.799999 9.4499998 -0.2112
29.799999 9.5 -0.33919999
29.799999 9.5500002 -0.47839999
30 6.8499999 -1.2248
30 6.9000001 -1.1976
30 6.9499998 -1.196
30 7 -1.1968
30 7.0500002 -1.1952
30 7.0999999 -1.1984
30 7.1500001 -1.1992
30 7.1999998 -1.1984
30 7.25 -1.2007999
30 7.3000002 -1.2
30 7.3499999 -1.2024
30 7.4000001 -1.2024
30 7.4499998 -1.2112
30 7.5 0.39359999
30 7.5500002 0.41760001
30 7.5999999 0.42480001
30 7.6500001 0.43279999
30 7.6999998 0.46399999
30 7.75 0.41760001
30 7.8000002 0.41760001
30 7.8499999 0.41679999
30 7.9000001 0.41760001
30 7.9499998 0.4208
30 8 0.42879999
30 8.0500002 0.43439999
30 8.1000004 0.43439999
30 8.1499996 0.4296
30 8.1999998 0.4152
30 8.25 0.2712
30 8.3000002 0.25279999
30 8.3500004 0.25040001
30 8.3999996 0.38080001
30 8.4499998 0.8416
30 8.5 0.9048
30 8.5500002 0.972
30 8.6000004 0.98159999
30 8.6499996 0.97920001
30 8.6999998 0.91360003
30 8.75 0.87199998
30 8.8000002 0.82319999
30 8.8500004 0.75999999
30 8.8999996 0.69919997
30 8.9499998 0.6512
30 9 0.57840002
30 9.0500002 0.51279998
30 9.1000004 0.46160001
30 9.1499996 0.36880001
30 9.1999998 0.29440001
30 9.25 0.2016
30 9.3000002 0.1152
30 9.3500004 0.016799999
30 9.3999996 -0.084799998
30 9.4499998 -0.212
30 9.5 -0.3504
30.200001 6.8499999 -1.2328
30.200001 6.9000001 -1.1984
30.200001 6.9499998 -1.1952
30.200001 7 -1.1968
30.200001 7.0500002 -1.1976
30.200001 7.0999999 -1.1992
30.200001 7.1500001 -1.1976
30.200001 7.1999998 -1.1984
30.200001 7.25 -1.2
30.200001 7.3000002 -1.2
30.200001 7.3499999 -1.2016
30.200001 7.4000001 -1.2024
30.200001 7.4499998 -1.2072001
30.200001 7.5 0.352
30.200001 7.5500002 0.39840001
30.200001 7.5999999 0.4048
30.200001 7.6500001 0.41440001
30.200001 7.6999998 0.412
30.200001 7.75 0.4064
30.200001 7.8000002 0.42480001
30.200001 7.8499999 0.41280001
30.200001 7.9000001 0.44800001
30.200001 7.9499998 0.43200001
30.200001 8 0.42160001
30.200001 8.0500002 0.4384
30.200001 8.1000004 0.44240001
30.200001 8.1499996 0.44800001
30.200001 8.1999998 0.40959999
30.200001 8.25 0.25600001
30.200001 8.3000002 0.2536
30.200001 8.3500004 0.25600001
30.200001 8.3999996 0.25040001
30.200001 8.4499998 0.59359998
30.200001 8.5 0.8624
30.200001 8.5500002 0.972
30.200001 8.6000004 0.97920001
30.200001 8.6499996 0.98000002
30.200001 8.6999998 0.91280001
30.200001 8.75 0.87519997
30.200001 8.8000002 0.81199998
30.200001 8.8500004 0.77280003
30.200001 8.8999996 0.71200001
30.200001 8.9499998 0.6512
30.200001 9 0.58639997
30.200001 9.0500002 0.51679999
30.200001 9.1000004 0.45199999
30.200001 9.1499996 0.3712
30.200001 9.1999998 0.2904
30.200001 9.25 0.20479999
30.200001 9.3000002 0.1184
30.200001 9.3500004 0.0296
30.200001 9.3999996 -0.071999997
30.200001 9.4499998 -0.2104
30.200001 9.5 -0.33840001
30.200001 9.5500002 -0.49680001
30.200001 9.6000004 -0.68080002
30.4 6.6500001 -1.2503999
30.4 6.6999998 -1.2208
30.4 6.75 -1.24
30.4 6.8000002 -1.2584
30.4 6.8499999 -1.2456
30.4 6.9000001 -1.2056
30.4 6.9499998 -1.1976
30.4 7 -1.1976
30.4 7.0500002 -1.1976
30.4 7.0999999 -1.1992
30.4 7.1500001 -1.1984
30.4 7.1999998 -1.1984
30.4 7.25 -1.1992
30.4 7.3000002 -1.2007999
30.4 7.3499999 -1.2
30.4 7.4000001 -1.2024
30.4 7.4499998 -1.2088
30.4 7.5 0.3712
30.4 7.5500002 0.4048
30.4 7.5999999 0.42399999
30.4 7.6500001 0.4224
30.4 7.6999998 0.42719999
30.4 7.75 0.42879999
30.4 7.8000002 0.428
30.4 7.8499999 0.40880001
30.4 7.9000001 0.43439999
30.4 7.9499998 0.44159999
30.4 8 0.4104
30.4 8.0500002 0.41679999
30.4 8.1000004 0.47040001
30.4 8.1499996 0.4312
30.4 8.1999998 0.41679999
30.4 8.25 0.248
30.4 8.3000002 0.2568
30.4 8.3500004 0.25279999
30.4 8.3999996 0.26480001
30.4 8.4499998 0.59920001
30.4 8.5 0.85759997
30.4 8.5500002 0.972
30.4 8.6000004 0.98559999
30.4 8.6499996 0.96799999
30.4 8.6999998 0.92000002
30.4 8.75 0.88559997
30.4 8.8000002 0.82560003
30.4 8.8500004 0.7712
30.4 8.8999996 0.70880002
30.4 8.9499998 0.64880002
30.4 9 0.59119999
30.4 9.0500002 0.52880001
30.4 9.1000004 0.45039999
30.4 9.1499996 0.38159999
30.4 9.1999998 0.29679999
30.4 9.25 0.20559999
30.4 9.3000002 0.1208
30.4 9.3500004 0.034400001
30.4 9.3999996 -0.077600002
30.4 9.4499998 -0.204
30.4 9.5 -0.31999999
30.4 9.5500002 -0.48480001
30.6 6.6500001 -1.2359999
30.6 6.6999998 -1.2248
30.6 6.75 -1.2544
30.6 6.8000002 -1.244
30.6 6.8499999 -1.2384
30.6 6.9000001 -1.2144001
30.6 6.9499998 -1.1992
30.6 7 -1.1976
30.6 7.0500002 -1.1992
30.6 7.0999999 -1.2
30.6 7.1500001 -1.2
30.6 7.1999998 -1.1984
30.6 7.25 -1.2
30.6 7.3000002 -1.2007999
30.6 7.3499999 -1.2024
30.6 7.4000001 -1.2056
30.6 7.4499998 -1.2016
30.6 7.5 0.3224
30.6 7.5500002 0.37040001
30.6 7.5999999 0.39359999
30.6 7.6500001 0.3976
30.6 7.6999998 0.40400001
30.6 7.75 0.41999999
30.6 7.8000002 0.42320001
30.6 7.8499999 0.412
30.6 7.9000001 0.40959999
30.6 7.9499998 0.42320001
30.6 8 0.42559999
30.6 8.0500002 0.41280001
30.6 8.1000004 0.42480001
30.6 8.1499996 0.4104
30.6 8.1999998 0.53280002
30.6 8.25 0.26719999
30.6 8.3000002 0.23999999
30.6 8.3500004 0.2456
30.6 8.3999996 0.25279999
30.6 8.4499998 0.57679999
30.6 8.5 0.85839999
30.6 8.5500002 0.96960002
30.6 8.6000004 0.97839999
30.6 8.6499996 0.96719998
30.6 8.6999998 0.92400002
30.6 8.75 0.87279999
30.6 8.8000002 0.82480001
30.6 8.8500004 0.77200001
30.6 8.8999996 0.70959997
30.6 8.9499998 0.6584
30.6 9 0.58880001
30.6 9.0500002 0.52399999
30.6 9.1000004 0.4632
30.6 9.1499996 0.384
30.6 9.1999998 0.30320001
30.6 9.25 0.2264
30.6 9.3000002 0.1224
30.6 9.3500004 0.0296
30.6 9.3999996 -0.0832
30.6 9.4499998 -0.1904
30.6 9.5 -0.3224
30.6 9.5500002 -0.45840001
30.6 9.6000004 -0.6584
30.799999 6.6500001 -1.212
30.799999 6.6999998 -1.2144001
30.799999 6.75 -1.228
30.799999 6.8000002 -1.248
30.799999 6.8499999 -1.2496001
30.799999 6.9000001 -1.256
30.799999 6.9499998 -1.2168
30.799999 7 -1.204
30.799999 7.0500002 -1.2024
30.799999 7.0999999 -1.2016
30.799999 7.1500001 -1.2007999
30.799999 7.1999998 -1.2016
30.799999 7.25 -1.2
30.799999 7.3000002 -1.2024
30.799999 7.3499999 -1.2048
30.799999 7.4000001 -1.2079999
30.799999 7.4499998 -1.216
30.799999 7.5 0.29519999
30.799999 7.5500002 0.34799999
30.799999 7.5999999 0.39039999
30.799999 7.6500001 0.39359999
30.799999 7.6999998 0.39359999
30.799999 7.75 0.4064
30.799999 7.8000002 0.428
30.799999 7.8499999 0.41280001
30.799999 7.9000001 0.40799999
30.799999 7.9499998 0.4152
30.799999 8 0.4312
30.799999 8.0500002 0.43279999
30.799999 8.1000004 0.40959999
30.799999 8.1499996 0.42879999
30.799999 8.1999998 0.40959999
30.799999 8.25 0.2608
30.799999 8.3000002 0.248
30.799999 8.3500004 0.2376
30.799999 8.3999996 0.2352
30.799999 8.4499998 0.58160001
30.799999 8.5 0.85680002
30.799999 8.5500002 0.96560001
30.799999 8.6000004 0.96799999
30.799999 8.6499996 0.97039998
30.799999 8.6999998 0.92799997
30.799999 8.75 0.87199998
30.799999 8.8000002 0.82800001
30.799999 8.8500004 0.77200001
30.799999 8.8999996 0.71679997
30.799999 8.9499998 0.66079998
30.799999 9 0.6056
30.799999 9.0500002 0.51279998
30.799999 9.1000004 0.4544
30.799999 9.1499996 0.38319999
30.799999 9.1999998 0.30239999
30.799999 9.25 0.2128
30.799999 9.3000002 0.1208
30.799999 9.3500004 0.031199999
30.799999 9.3999996 -0.067199998
30.799999 9.4499998 -0.1992
30.799999 9.5 -0.324
30.799999 9.5500002 -0.46239999
30.799999 9.6000004 -0.64960003
31 6.6500001 -1.216
31 6.6999998 -1.2072001
31 6.75 -1.2072001
31 6.8000002 -1.204
31 6.8499999 -1.1984
31 6.9000001 -1.2512
31 6.9499998 -1.2512
31 7 -1.2496001
31 7.0500002 -1.2368
31 7.0999999 -1.2359999
31 7.1500001 -1.2336
31 7.1999998 -1.2312
31 7.25 -1.2184
31 7.3000002 -1.2208
31 7.3499999 -1.232
31 7.4000001 -1.2384
31 7.4499998 -1.2359999
31 7.5 0.24959999
31 7.5500002 0.3184
31 7.5999999 0.36480001
31 7.6500001 0.40079999
31 7.6999998 0.42879999
31 7.75 0.45120001
31 7.8000002 0.44
31 7.8499999 0.44319999
31 7.9000001 0.43599999
31 7.9499998 0.42399999
31 8 0.42320001
31 8.0500002 0.40959999
31 8.1000004 0.42640001
31 8.1499996 0.4104
31 8.1999998 0.42160001
31 8.25 0.25279999
31 8.3000002 0.25440001
31 8.3500004 0.2456
31 8.3999996 0.22239999
31 8.4499998 0.2272
31 8.5 0.84960002
31 8.5500002 0.972
31 8.6000004 0.97839999
31 8.6499996 0.97359997
31 8.6999998 0.92000002
31 8.75 0.88160002
31 8.8000002 0.82959998
31 8.8500004 0.77039999
31 8.8999996 0.7112
31 8.9499998 0.65439999
31 9 0.59359998
31 9.0500002 0.528
31 9.1000004 0.4576
31 9.1499996 0.38319999
31 9.1999998 0.29519999
31 9.25 0.2192
31 9.3000002 0.1304
31 9.3500004 0.021600001
31 9.3999996 -0.072800003
31 9.4499998 -0.18719999
31 9.5 -0.31760001
31 9.5500002 -0.46079999
31.200001 6.6500001 -1.2144001
31.200001 6.6999998 -1.2112
31.200001 6.75 -1.216
31.200001 6.8000002 -1.212
31.200001 6.8499999 -1.2096
31.200001 6.9000001 -1.2112
31.200001 6.9499998 -1.216
31.200001 7 -1.2112
31.200001 7.0500002 -1.2168
31.200001 7.0999999 -1.2128
31.200001 7.1500001 -1.2136
31.200001 7.1999998 -1.2168
31.200001 7.25 -1.216
31.200001 7.3000002 -1.212
31.200001 7.3499999 -1.2104
31.200001 7.4000001 -1.2144001
31.200001 7.4499998 -1.2136
31.200001 7.5 0.29679999
31.200001 7.5500002 0.3344
31.200001 7.5999999 0.36399999
31.200001 7.6500001 0.36000001
31.200001 7.6999998 0.33039999
31.200001 7.75 0.36480001
31.200001 7.8000002 0.3712
31.200001 7.8499999 0.3944
31.200001 7.9000001 0.40000001
31.200001 7.9499998 0.39840001
31.200001 8 0.40720001
31.200001 8.0500002 0.4104
31.200001 8.1000004 0.4192
31.200001 8.1499996 0.41999999
31.200001 8.1999998 0.3944
31.200001 8.25 0.25600001
31.200001 8.3000002 0.2344
31.200001 8.3500004 0.2384
31.200001 8.3999996 0.27200001
31.200001 8.4499998 0.2184
31.200001 8.5 0.85360003
31.200001 8.5500002 0.96640003
31.200001 8.6000004 0.97920001
31.200001 8.6499996 0.97280002
31.200001 8.6999998 0.92720002
31.200001 8.75 0.91039997
31.200001 8.8000002 0.81999999
31.200001 8.8500004 0.7712
31.200001 8.8999996 0.71679997
31.200001 8.9499998 0.6584
31.200001 9 0.59359998
31.200001 9.0500002 0.528
31.200001 9.1000004 0.4576
31.200001 9.1499996 0.38240001
31.200001 9.1999998 0.31040001
31.200001 9.25 0.2272
31.200001 9.3000002 0.13519999
31.200001 9.3500004 0.042399999
31.200001 9.3999996 -0.067199998
31.200001 9.4499998 -0.18880001
31.200001 9.5 -0.31119999
31.200001 9.5500002 -0.45519999
31.4 6.6500001 -1.22
31.4 6.6999998 -1.216
31.4 6.75 -1.216
31.4 6.8000002 -1.2104
31.4 6.8499999 -1.2072001
31.4 6.9000001 -1.2032
31.4 6.9499998 -1.204
31.4 7 -1.2176
31.4 7.0500002 -1.2072001
31.4 7.0999999 -1.2024
31.4 7.1500001 -1.2128
31.4 7.1999998 -1.2048
31.4 7.25 -1.2104
31.4 7.3000002 -1.2112
31.4 7.3499999 -1.2088
31.4 7.4000001 -1.2128
31.4 7.4499998 -1.2352
31.4 7.5 0.29840001
31.4 7.5500002 0.33520001
31.4 7.5999999 0.3872
31.4 7.6500001 0.39840001
31.4 7.6999998 0.4192
31.4 7.75 0.396
31.4 7.8000002 0.39680001
31.4 7.8499999 0.40239999
31.4 7.9000001 0.4136
31.4 7.9499998 0.4048
31.4 8 0.41280001
31.4 8.0500002 0.428
31.4 8.1000004 0.41600001
31.4 8.1499996 0.41679999
31.4 8.1999998 0.3872
31.4 8.25 0.2656
31.4 8.3000002 0.252
31.4 8.3500004 0.2472
31.4 8.3999996 0.24079999
31.4 8.4499998 0.2208
31.4 8.5 0.8488
31.4 8.5500002 0.97039998
31.4 8.6000004 0.97359997
31.4 8.6499996 0.98079997
31.4 8.6999998 0.93199998
31.4 8.75 0.88639998
31.4 8.8000002 0.83200002
31.4 8.8500004 0.77359998
31.4 8.8999996 0.72320002
31.4 8.9499998 0.6584
31.4 9 0.59759998
31.4 9.0500002 0.53039998
31.4 9.1000004 0.46239999
31.4 9.1499996 0.3888
31.4 9.1999998 0.31439999
31.4 9.25 0.2168
31.4 9.3000002 0.1416
31.4 9.3500004 0.044799998
31.4 9.3999996 -0.062399998
31.4 9.4499998 -0.1744
31.4 9.5 -0.3096
31.4 9.5500002 -0.46000001
31.6 6.6500001 -1.2392
31.6 6.6999998 -1.2104
31.6 6.75 -1.2184
31.6 6.8000002 -1.2128
31.6 6.8499999 -1.2016
31.6 6.9000001 -1.2079999
31.6 6.9499998 -1.216
31.6 7 -1.2064
31.6 7.0500002 -1.2136
31.6 7.0999999 -1.2151999
31.6 7.1500001 -1.2151999
31.6 7.1999998 -1.2112
31.6 7.25 -1.2224
31.6 7.3000002 -1.22
31.6 7.3499999 -1.2144001
31.6 7.4000001 -1.2192
31.6 7.4499998 -1.2192
31.6 7.5 -1.2208
31.6 7.5500002 0.33199999
31.6 7.5999999 0.3624
31.6 7.6500001 0.39919999
31.6 7.6999998 0.4032
31.6 7.75 0.40799999
31.6 7.8000002 0.4136
31.6 7.8499999 0.40959999
31.6 7.9000001 0.40560001
31.6 7.9499998 0.40239999
31.6 8 0.40799999
31.6 8.0500002 0.41119999
31.6 8.1000004 0.42480001
31.6 8.1499996 0.4136
31.6 8.1999998 0.42640001
31.6 8.25 0.2448
31.6 8.3000002 0.25040001
31.6 8.3500004 0.244
31.6 8.3999996 0.2448
31.6 8.4499998 0.22319999
31.6 8.5 0.84320003
31.6 8.5500002 0.96799999
31.6 8.6000004 0.97920001
31.6 8.6499996 0.97119999
31.6 8.6999998 0.9224
31.6 8.75 0.88160002
31.6 8.8000002 0.82480001
31.6 8.8500004 0.77280003
31.6 8.8999996 0.7216
31.6 8.9499998 0.67040002
31.6 9 0.5952
31.6 9.0500002 0.53280002
31.6 9.1000004 0.4648
31.6 9.1499996 0.38159999
31.6 9.1999998 0.30880001
31.6 9.25 0.23280001
31.6 9.3000002 0.132
31.6 9.3500004 0.042399999
31.6 9.3999996 -0.064000003
31.6 9.4499998 -0.1752
31.6 9.5 -0.2992
31.6 9.5500002 -0.44400001
31.6 9.6000004 -0.616
31.799999 6.75 -1.336
31.799999 6.8000002 -1.284
31.799999 6.8499999 -1.2568001
31.799999 6.9000001 -1.2144001
31.799999 6.9499998 -1.2056
31.799999 7 -1.2192
31.799999 7.0500002 -1.2128
31.799999 7.0999999 -1.212
31.799999 7.1500001 -1.2151999
31.799999 7.1999998 -1.2151999
31.799999 7.25 -1.2192
31.799999 7.3000002 -1.2112
31.799999 7.3499999 -1.2208
31.799999 7.4000001 -1.22
31.799999 7.4499998 -1.22
31.799999 7.5 -0.092
31.799999 7.5500002 0.3488
31.799999 7.5999999 0.39199999
31.799999 7.6500001 0.39359999
31.799999 7.6999998 0.40880001
31.799999 7.75 0.41280001
31.799999 7.8000002 0.4064
31.799999 7.8499999 0.40880001
31.799999 7.9000001 0.40079999
31.799999 7.9499998 0.4104
31.799999 8 0.4048
31.799999 8.0500002 0.4192
31.799999 8.1000004 0.44479999
31.799999 8.1499996 0.47600001
31.799999 8.1999998 0.4296
31.799999 8.25 0.39840001
31.799999 8.3000002 0.244
31.799999 8.3500004 0.24160001
31.799999 8.3999996 0.24959999
31.799999 8.4499998 0.2216
31.799999 8.5 0.8448
31.799999 8.5500002 0.96240002
31.799999 8.6000004 0.97119999
31.799999 8.6499996 0.97280002
31.799999 8.6999998 0.93760002
31.799999 8.75 0.87919998
31.799999 8.8000002 0.83920002
31.799999 8.8500004 0.78320003
31.799999 8.8999996 0.7288
31.799999 8.9499998 0.66479999
31.799999 9 0.60079998
31.799999 9.0500002 0.52160001
31.799999 9.1000004 0.47760001
31.799999 9.1499996 0.37920001
31.799999 9.1999998 0.31760001
31.799999 9.25 0.2256
31.799999 9.3000002 0.148
31.799999 9.3500004 0.044799998
31.799999 9.3999996 -0.064800002
31.799999 9.4499998 -0.1816
31.799999 9.5 -0.30160001
32 7.0500002 -1.2704
32 7.0999999 -1.2208
32 7.1500001 -1.2136
32 7.1999998 -1.2136
32 7.25 -1.2136
32 7.3000002 -1.2208
32 7.3499999 -1.2151999
32 7.4000001 -1.22
32 7.4499998 -1.224
32 7.5 -0.124
32 7.5500002 0.37439999
32 7.5999999 0.39359999
32 7.6500001 0.40400001
32 7.6999998 0.4104
32 7.75 0.4192
32 7.8000002 0.41999999
32 7.8499999 0.43439999
32 7.9000001 0.42879999
32 7.9499998 0.4208
32 8 0.40720001
32 8.0500002 0.4224
32 8.1000004 0.4224
32 8.1499996 0.42480001
32 8.1999998 0.41760001
32 8.25 0.4048
32 8.3000002 0.26480001
32 8.3500004 0.2288
32 8.3999996 0.24879999
32 8.4499998 0.22
32 8.5 0.84240001
32 8.5500002 0.9576
32 8.6000004 0.9752
32 8.6499996 0.97439998
32 8.6999998 0.93199998
32 8.75 0.88239998
32 8.8000002 0.83279997
32 8.8500004 0.78799999
32 8.8999996 0.71359998
32 8.9499998 0.66320002
32 9 0.60079998
32 9.0500002 0.53439999
32 9.1000004 0.46000001
32 9.1499996 0.39039999
32 9.1999998 0.32319999
32 9.25 0.2264
32 9.3000002 0.1472
32 9.3500004 0.044799998
32 9.3999996 -0.068800002
32 9.4499998 -0.164
32 9.5 -0.29679999
32 9.5500002 -0.44479999
32 9.6000004 -0.58880001
32.200001 7.1999998 -1.3704
32.200001 7.25 -1.3496
32.200001 7.3000002 -1.2848001
32.200001 7.3499999 -1.2832
32.200001 7.4000001 -1.284
32.200001 7.4499998 -1.2920001
32.200001 7.5 -0.0264
32.200001 7.5500002 0.37200001
32.200001 7.5999999 0.39520001
32.200001 7.6500001 0.40239999
32.200001 7.6999998 0.40799999
32.200001 7.75 0.42160001
32.200001 7.8000002 0.4224
32.200001 7.8499999 0.4104
32.200001 7.9000001 0.42879999
32.200001 7.9499998 0.44159999
32.200001 8 0.456
32.200001 8.0500002 0.44159999
32.200001 8.1000004 0.44159999
32.200001 8.1499996 0.43520001
32.200001 8.1999998 0.4104
32.200001 8.25 0.39919999
32.200001 8.3000002 0.384
32.200001 8.3500004 0.29519999
32.200001 8.3999996 0.3768
32.200001 8.4499998 0.61119998
32.200001 8.5 0.84799999
32.200001 8.5500002 0.96560001
32.200001 8.6000004 0.97280002
32.200001 8.6499996 0.96799999
32.200001 8.6999998 0.94319999
32.200001 8.75 0.90240002
32.200001 8.8000002 0.8312
32.200001 8.8500004 0.7784
32.200001 8.8999996 0.72399998
32.200001 8.9499998 0.66960001
32.200001 9 0.6056
32.200001 9.0500002 0.54000002
32.200001 9.1000004 0.45919999
32.200001 9.1499996 0.38800001
32.200001 9.1999998 0.31999999
32.200001 9.25 0.22400001
32.200001 9.3000002 0.14560001
32.200001 9.3500004 0.046399999
32.200001 9.3999996 -0.048
32.200001 9.4499998 -0.17839999
32.200001 9.5 -0.31760001
32.200001 9.5500002 -0.44
32.200001 9.6000004 -0.62080002
32.200001 9.6499996 -0.89120001
32.200001 9.6999998 -1.1608
32.400002 7.5500002 0.3712
32.400002 7.5999999 0.39840001
32.400002 7.6500001 0.4104
32.400002 7.6999998 0.40560001
32.400002 7.75 0.43040001
32.400002 7.8000002 0.44639999
32.400002 7.8499999 0.45280001
32.400002 7.9000001 0.4456
32.400002 7.9499998 0.42879999
32.400002 8 0.4192
32.400002 8.0500002 0.40720001
32.400002 8.1000004 0.40880001
32.400002 8.1499996 0.4224
32.400002 8.1999998 0.41679999
32.400002 8.25 0.428
32.400002 8.3000002 0.35679999
32.400002 8.3500004 0.23999999
32.400002 8.3999996 0.26480001
32.400002 8.4499998 0.63279998
32.400002 8.5 0.8416
32.400002 8.5500002 0.95999998
32.400002 8.6000004 0.97680002
32.400002 8.6499996 0.98000002
32.400002 8.6999998 0.94639999
32.400002 8.75 0.88
32.400002 8.8000002 0.83200002
32.400002 8.8500004 0.78079998
32.400002 8.8999996 0.72960001
32.400002 8.9499998 0.66240001
32.400002 9 0.60799998
32.400002 9.0500002 0.52880001
32.400002 9.1000004 0.4632
32.400002 9.1499996 0.3872
32.400002 9.1999998 0.3096
32.400002 9.25 0.2448
32.400002 9.3000002 0.152
32.400002 9.3500004 0.0592
32.400002 9.3999996 -0.054400001
32.400002 9.4499998 -0.16159999
32.400002 9.5 -0.29840001
32.400002 9.5500002 -0.42160001
32.400002 9.6000004 -0.5808
32.599998 7.5500002 0.3872
32.599998 7.5999999 0.40880001
32.599998 7.6500001 0.41679999
32.599998 7.6999998 0.43279999
32.599998 7.75 0.42879999
32.599998 7.8000002 0.40799999
32.599998 7.8499999 0.4368
32.599998 7.9000001 0.43759999
32.599998 7.9499998 0.44
32.599998 8 0.45199999
32.599998 8.0500002 0.42879999
32.599998 8.1000004 0.41600001
32.599998 8.1499996 0.42559999
32.599998 8.1999998 0.43360001
32.599998 8.25 0.40000001
32.599998 8.3000002 0.37279999
32.599998 8.3500004 0.23119999
32.599998 8.3999996 0.2376
32.599998 8.4499998 0.22480001
32.599998 8.5 0.83200002
32.599998 8.5500002 0.95279998
32.599998 8.6000004 0.96960002
32.599998 8.6499996 0.97680002
32.599998 8.6999998 0.95359999
32.599998 8.75 0.88480002
32.599998 8.8000002 0.83920002
32.599998 8.8500004 0.78240001
32.599998 8.8999996 0.7288
32.599998 8.9499998 0.6728
32.599998 9 0.61199999
32.599998 9.0500002 0.53920001
32.599998 9.1000004 0.472
32.599998 9.1499996 0.3928
32.599998 9.1999998 0.3224
32.599998 9.25 0.2552
32.599998 9.3000002 0.15360001
32.599998 9.3500004 0.063199997
32.599998 9.3999996 -0.043200001
32.599998 9.4499998 -0.1608
32.599998 9.5 -0.28
32.599998 9.5500002 -0.42160001
32.599998 9.6000004 -0.55760002
32.799999 7.5500002 0.36880001
32.799999 7.5999999 0.40880001
32.799999 7.6500001 0.41839999
32.799999 7.6999998 0.4368
32.799999 7.75 0.4368
32.799999 7.8000002 0.4312
32.799999 7.8499999 0.44400001
32.799999 7.9000001 0.42160001
32.799999 7.9499998 0.42879999
32.799999 8 0.45840001
32.799999 8.0500002 0.4648
32.799999 8.1000004 0.42160001
32.799999 8.1499996 0.44080001
32.799999 8.1999998 0.4208
32.799999 8.25 0.40239999
32.799999 8.3000002 0.36399999
32.799999 8.3500004 0.25119999
32.799999 8.3999996 0.26320001
32.799999 8.4499998 0.2448
32.799999 8.5 0.8448
32.799999 8.5500002 0.9576
32.799999 8.6000004 0.97280002
32.799999 8.6499996 0.97359997
32.799999 8.6999998 0.94400001
32.799999 8.75 0.88559997
32.799999 8.8000002 0.8416
32.799999 8.8500004 0.78079998
32.799999 8.8999996 0.73040003
32.799999 8.9499998 0.67040002
32.799999 9 0.6024
32.799999 9.0500002 0.54000002
32.799999 9.1000004 0.47279999
32.799999 9.1499996 0.40959999
32.799999 9.1999998 0.3224
32.799999 9.25 0.23999999
32.799999 9.3000002 0.16320001
32.799999 9.3500004 0.052000001
32.799999 9.3999996 -0.0416
32.799999 9.4499998 -0.1576
32.799999 9.5 -0.2904
32.799999 9.5500002 -0.42320001
33 7.5 0.2696
33 7.5500002 0.36719999
33 7.5999999 0.39680001
33 7.6500001 0.396
33 7.6999998 0.40560001
33 7.75 0.3944
33 7.8000002 0.41119999
33 7.8499999 0.40880001
33 7.9000001 0.40560001
33 7.9499998 0.42399999
33 8 0.43520001
33 8.0500002 0.43520001
33 8.1000004 0.43439999
33 8.1499996 0.4368
33 8.1999998 0.40720001
33 8.25 0.38479999
33 8.3000002 0.25920001
33 8.3500004 0.248
33 8.3999996 0.2448
33 8.4499998 0.23199999
33 8.5 0.8416
33 8.5500002 0.95359999
33 8.6000004 0.96399999
33 8.6499996 0.97439998
33 8.6999998 0.94400001
33 8.75 0.8872
33 8.8000002 0.8448
33 8.8500004 0.79519999
33 8.8999996 0.73439997
33 8.9499998 0.66640002
33 9 0.61440003
33 9.0500002 0.53839999
33 9.1000004 0.47679999
33 9.1499996 0.40000001
33 9.1999998 0.32960001
33 9.25 0.25119999
33 9.3000002 0.15279999
33 9.3500004 0.054400001
33 9.3999996 -0.0264
33 9.4499998 -0.13600001
33 9.5 -0.292
33.200001 7.5500002 0.38640001
33.200001 7.5999999 0.40799999
33.200001 7.6500001 0.41999999
33.200001 7.6999998 0.41600001
33.200001 7.75 0.43279999
33.200001 7.8000002 0.4472
33.200001 7.8499999 0.43279999
33.200001 7.9000001 0.40239999
33.200001 7.9499998 0.41440001
33.200001 8 0.4048
33.200001 8.0500002 0.40799999
33.200001 8.1000004 0.4208
33.200001 8.1499996 0.41679999
33.200001 8.1999998 0.4048
33.200001 8.25 0.4016
33.200001 8.3000002 0.24240001
33.200001 8.3500004 0.24240001
33.200001 8.3999996 0.25279999
33.200001 8.4499998 0.2208
33.200001 8.5 0.83920002
33.200001 8.5500002 0.95039999
33.200001 8.6000004 0.97039998
33.200001 8.6499996 0.97039998
33.200001 8.6999998 0.95120001
33.200001 8.75 0.89200002
33.200001 8.8000002 0.83999997
33.200001 8.8500004 0.78640002
33.200001 8.8999996 0.73119998
33.200001 8.9499998 0.66640002
33.200001 9 0.616
33.200001 9.0500002 0.5456
33.200001 9.1000004 0.472
33.200001 9.1499996 0.40400001
33.200001 9.1999998 0.3328
33.200001 9.25 0.25279999
