# .PCD v0.7 - Point Cloud Data file format
VERSION 0.7
FIELDS x y z
SIZE 4 4 4
TYPE F F F
COUNT 1 1 1
WIDTH 1479
HEIGHT 1
VIEWPOINT 0 0 0 1 0 0 0
POINTS 1479
DATA ascii
141.34868 -41.311131 -0.17021453
141.39827 -41.309208 -0.16248202
141.44838 -41.307133 -0.16353345
141.49974 -41.304676 -0.18614483
141.54915 -41.302807 -0.17521811
141.59915 -41.300762 -0.17467237
141.64894 -41.298771 -0.17013407
141.69894 -41.296726 -0.16958833
141.74855 -41.294804 -0.1618557
141.79819 -41.292858 -0.15492189
141.84773 -41.290943 -0.1463908
141.89812 -41.288792 -0.15223324
141.92886 -41.292461 0.17890131
141.99902 -41.28442 -0.16631365
142.01245 -41.29324 0.46187186
142.05582 -41.293163 0.57660651
142.10518 -41.291309 0.5883317
142.15524 -41.289242 0.58807898
142.20544 -41.287136 0.58543062
142.25885 -41.284084 0.52768421
142.31165 -41.281193 0.48031855
142.36427 -41.278378 0.43614697
142.41736 -41.27541 0.38398993
142.47113 -41.272236 0.31985533
142.5246 -41.269169 0.26131034
142.57809 -41.266079 0.20196676
142.6322 -41.262806 0.13224244
142.68636 -41.259525 0.061719537
142.74014 -41.256359 -0.002415061
142.7955 -41.252712 -0.093699574
142.84975 -41.249409 -0.16581964
142.90582 -41.245556 -0.26908183
142.96173 -41.241749 -0.36994863
143.0184 -41.23772 -0.48359179
143.07503 -41.2337 -0.59643638
143.13281 -41.229343 -0.72924423
143.19147 -41.224728 -0.87722385
143.25388 -41.21899 -1.0890855
140.91711 -41.526333 -0.35537994
140.96382 -41.525257 -0.2981391
141.00858 -41.524769 -0.20736003
141.05798 -41.5229 -0.19643342
141.10782 -41.520901 -0.19269371
141.15768 -41.518894 -0.18975234
141.20747 -41.516918 -0.18521392
141.25697 -41.515011 -0.17588437
141.30675 -41.513035 -0.17134595
141.35699 -41.510914 -0.17479277
141.40645 -41.509029 -0.16466475
141.45776 -41.506596 -0.18647766
141.50769 -41.504566 -0.18433499
141.55742 -41.502598 -0.17899799
141.60738 -41.500568 -0.17765379
141.6573 -41.498539 -0.17551088
141.70671 -41.49667 -0.16458428
141.75742 -41.494411 -0.17601633
141.80669 -41.49258 -0.16269422
141.85619 -41.490681 -0.15336478
141.9063 -41.488605 -0.15441608
141.95659 -41.486469 -0.15866148
142.00734 -41.484203 -0.170892
142.02115 -41.492916 0.45090532
142.06381 -41.493046 0.57761788
142.11345 -41.491108 0.58455181
142.16333 -41.489094 0.58749318
142.21385 -41.486889 0.5792551
142.26735 -41.483807 0.51991153
142.31973 -41.481045 0.47973275
142.37273 -41.478107 0.42917299
142.42615 -41.475056 0.37142646
142.47881 -41.47221 0.32645631
142.53351 -41.468761 0.24635112
142.58646 -41.465847 0.19658983
142.64052 -41.462589 0.12766409
142.69467 -41.459309 0.057141304
142.74855 -41.456112 -0.0085904598
142.80382 -41.452496 -0.098278046
142.85863 -41.449017 -0.17998028
142.91432 -41.445278 -0.27685428
142.96991 -41.44157 -0.37213135
143.02574 -41.437794 -0.47140121
143.0838 -41.433346 -0.60899997
143.14169 -41.428959 -0.74340487
143.20105 -41.424129 -0.90336239
143.25836 -41.419903 -1.0281849
143.32658 -41.412449 -1.3398619
140.9252 -41.726185 -0.35596585
140.97177 -41.725155 -0.29632926
141.017 -41.724529 -0.21353555
141.06622 -41.722713 -0.19941485
141.11618 -41.720676 -0.19807076
141.16606 -41.71867 -0.19512939
141.21593 -41.716663 -0.19218802
141.26585 -41.714634 -0.19004512
141.31563 -41.712658 -0.18550682
141.36452 -41.710934 -0.16579652
141.41397 -41.709049 -0.15566838
141.46422 -41.706936 -0.15911531
141.51569 -41.704449 -0.18332362
141.56555 -41.702442 -0.18038225
141.61589 -41.700298 -0.18542635
141.66609 -41.698185 -0.18807459
141.71526 -41.696384 -0.17315543
141.76541 -41.694294 -0.1750052
141.81496 -41.692379 -0.16647434
141.86511 -41.690289 -0.16832399
141.91443 -41.68845 -0.15580034
141.96439 -41.686405 -0.15445614
142.01576 -41.683956 -0.17706752
142.02901 -41.692837 0.45431209
142.07217 -41.692814 0.57224083
142.12167 -41.690922 0.58157039
142.17169 -41.688862 0.58211613
142.22185 -41.686771 0.58026648
142.2758 -41.683552 0.51293755
142.3288 -41.680607 0.46237803
142.38161 -41.677731 0.41501236
142.43427 -41.674892 0.37004209
142.48796 -41.671749 0.30750442
142.54179 -41.668568 0.24257135
142.59543 -41.66544 0.18083215
142.64926 -41.662251 0.11589885
142.70248 -41.659245 0.061346531
142.75761 -41.655674 -0.025945306
142.812 -41.652317 -0.10046089
142.86719 -41.648739 -0.18855131
142.92245 -41.645115 -0.27823865
142.97879 -41.641186 -0.38629222
143.03439 -41.637478 -0.48156929
143.09306 -41.632854 -0.62954897
143.14944 -41.62891 -0.73840106
140.93324 -41.926044 -0.35575294
140.9799 -41.924984 -0.29771364
141.0247 -41.924488 -0.20773315
141.07411 -41.922619 -0.19680655
141.12431 -41.920506 -0.1994549
141.1739 -41.918583 -0.19172239
141.22383 -41.916569 -0.18957949
141.27399 -41.914471 -0.19142938
141.32251 -41.912861 -0.16533089
141.37219 -41.9109 -0.15919542
141.42262 -41.908733 -0.16583633
141.47403 -41.906269 -0.18924642
141.52376 -41.904293 -0.18390942
141.57378 -41.902248 -0.18336368
141.62369 -41.900227 -0.18122101
141.67352 -41.898228 -0.17748094
141.72339 -41.896221 -0.17453957
141.77364 -41.8941 -0.17798638
141.82379 -41.89201 -0.17983639
141.8739 -41.889927 -0.1808877
141.92336 -41.88805 -0.17075956
141.97481 -41.885563 -0.1949681
142.02347 -41.883915 -0.17126513
142.03705 -41.892689 0.45452499
142.08049 -41.89259 0.56766248
142.12999 -41.890697 0.57699203
142.17982 -41.888699 0.58073187
142.2309 -41.886333 0.56291151
142.28366 -41.883465 0.51634455
142.33731 -41.880329 0.45460534
142.39029 -41.877399 0.40404558
142.4426 -41.874676 0.36546373
142.49637 -41.871494 0.30132902
142.54955 -41.868511 0.24757516
142.60374 -41.865215 0.17625368
142.65692 -41.862217 0.12249982
142.71112 -41.858929 0.051178575
142.76561 -41.855549 -0.024933934
142.82051 -41.852047 -0.10823333
142.87582 -41.848415 -0.19871938
142.9305 -41.844982 -0.27802587
142.98706 -41.840984 -0.39007211
143.04318 -41.837124 -0.49413288
143.10016 -41.832989 -0.61336565
143.15707 -41.828899 -0.73100156
143.2182 -41.823544 -0.92130297
143.27939 -41.818165 -1.1124029
140.62021 -42.118839 -1.7158003
140.66002 -42.119808 -1.5403777
140.69937 -42.12093 -1.3569701
140.73883 -42.122013 -1.1751593
140.77818 -42.123135 -0.99175155
140.81758 -42.124241 -0.80914229
140.85693 -42.125355 -0.62573463
140.8963 -42.126469 -0.44232678
140.94174 -42.125774 -0.36352575
140.9879 -42.124866 -0.29670262
141.03377 -42.12405 -0.22508812
141.08286 -42.12228 -0.20857179
141.13258 -42.120312 -0.20323503
141.18237 -42.118328 -0.19869661
141.23215 -42.116352 -0.1941582
141.28235 -42.114239 -0.19680643
141.33199 -42.112301 -0.1898725
141.38139 -42.110424 -0.17894602
141.43192 -42.108227 -0.18718386
141.48216 -42.106113 -0.19063091
141.53194 -42.104122 -0.1860925
141.58173 -42.102146 -0.18155408
141.63243 -42.099888 -0.19298625
141.68211 -42.097927 -0.18685079
141.73209 -42.095898 -0.18550646
141.78224 -42.093807 -0.18735623
141.83145 -42.091984 -0.17323565
141.88129 -42.089993 -0.16949582
141.93124 -42.087955 -0.16815138
141.98183 -42.085735 -0.17718804
142.00713 -42.09103 0.24737394
142.04536 -42.09248 0.4499464
142.08817 -42.092571 0.5742631
142.13809 -42.090549 0.576406
142.18781 -42.088581 0.58174324
142.23834 -42.086376 0.57350492
142.29166 -42.083347 0.51735544
142.3452 -42.080242 0.4572134
142.39833 -42.077267 0.40425825
142.45157 -42.074268 0.34970582
142.5045 -42.071339 0.29994452
142.55801 -42.068256 0.24060106
142.61212 -42.064991 0.1708765
142.66539 -42.061962 0.11552572
142.71921 -42.058781 0.050592542
142.77426 -42.055241 -0.035102248
142.82864 -42.051884 -0.10961783
142.88382 -42.048298 -0.19770825
142.93881 -42.044765 -0.28260446
142.99519 -42.040821 -0.39145648
143.05177 -42.036823 -0.50350261
143.10933 -42.032528 -0.63231766
143.16673 -42.028278 -0.75873733
140.26649 -42.323704 -2.3779373
140.32326 -42.319653 -2.4931777
140.37517 -42.317036 -2.5253713
140.429 -42.313847 -2.5903044
140.47562 -42.312809 -2.5314665
140.51404 -42.314205 -2.3320882
140.55251 -42.315578 -2.1335084
140.59442 -42.315937 -1.9940196
140.64165 -42.314716 -1.9455624
140.67882 -42.316479 -1.7246239
140.71594 -42.318264 -1.5028871
140.75311 -42.320026 -1.2819488
140.79027 -42.321789 -1.0610104
140.82744 -42.323559 -0.84007192
140.86456 -42.325336 -0.61833513
140.90169 -42.327122 -0.39659822
140.94994 -42.325596 -0.36570847
140.99626 -42.324635 -0.30207944
141.04208 -42.323833 -0.22966647
141.09108 -42.322086 -0.2115531
141.1409 -42.320087 -0.20781326
141.19073 -42.318096 -0.20407343
141.24046 -42.316128 -0.19873643
141.29048 -42.314075 -0.19819069
141.34035 -42.312069 -0.19524956
141.38989 -42.310154 -0.18671846
141.43948 -42.308224 -0.17898595
141.49081 -42.30579 -0.20079899
141.54082 -42.303738 -0.20025313
141.59045 -42.3018 -0.19331908
141.64084 -42.299641 -0.19916165
141.69049 -42.297695 -0.1922276
141.74054 -42.295635 -0.19248033
141.7906 -42.293568 -0.19273305
141.83983 -42.291752 -0.17861247
141.88951 -42.289799 -0.17247701
141.93962 -42.287724 -0.17352831
141.98991 -42.285587 -0.17777371
142.01553 -42.290783 0.24119854
142.05261 -42.292583 0.46373415
142.09676 -42.292271 0.56489372
142.14645 -42.290318 0.57102919
142.19641 -42.288273 0.57237339
142.24722 -42.285992 0.55934429
142.30029 -42.283031 0.5071876
142.35342 -42.280048 0.45423222
142.40596 -42.277256 0.41165781
142.45998 -42.274014 0.3435303
142.51338 -42.270954 0.28578389
142.5667 -42.267918 0.2296344
142.62006 -42.264881 0.17268646
142.67328 -42.261868 0.11813414
142.72813 -42.258381 0.035633445
142.78215 -42.255146 -0.03249383
142.83682 -42.251705 -0.11180055
142.8925 -42.247967 -0.20867491
142.94769 -42.244381 -0.29676509
143.00357 -42.240589 -0.39683342
143.06065 -42.236439 -0.51766324
143.1188 -42.23196 -0.65685916
143.17534 -42.227978 -0.76810682
140.22093 -42.526684 -2.3167839
140.29039 -42.518848 -2.6500211
140.311 -42.525539 -2.1448083
140.35626 -42.524906 -2.062813
140.40199 -42.52412 -1.9888031
140.44992 -42.522694 -1.9523238
140.49881 -42.520977 -1.9326134
140.54947 -42.518726 -1.943247
140.60051 -42.516376 -1.9602689
140.65205 -42.513874 -1.9860742
140.69095 -42.515125 -1.7946813
140.72787 -42.516964 -1.5697503
140.76477 -42.518803 -1.3440208
140.80176 -42.520634 -1.1198883
140.83868 -42.522472 -0.8949573
140.87558 -42.524311 -0.66922784
140.91248 -42.526165 -0.44349837
140.95764 -42.525555 -0.35990596
141.00385 -42.524632 -0.29388142
141.05042 -42.523609 -0.23424482
141.0994 -42.52187 -0.21613145
141.14903 -42.519924 -0.20919764
141.19901 -42.517887 -0.20785332
141.24911 -42.515812 -0.2089045
141.29866 -42.513897 -0.20037353
141.34843 -42.511913 -0.19583511
141.39789 -42.510029 -0.18570709
141.44818 -42.507893 -0.18995237
141.49963 -42.505421 -0.21416104
141.54784 -42.503902 -0.18247283
141.59882 -42.50156 -0.1986959
141.64828 -42.499683 -0.188568
141.69708 -42.497982 -0.16726065
141.74876 -42.495441 -0.19546175
141.79817 -42.493572 -0.18453503
141.84801 -42.491573 -0.18079519
141.89769 -42.48962 -0.17465973
141.94789 -42.487514 -0.17730808
141.99744 -42.4856 -0.16877723
142.0233 -42.490726 0.24620259
142.06036 -42.492519 0.46873808
142.10489 -42.4921 0.56350946
142.15457 -42.490154 0.56964493
142.20409 -42.488247 0.57897449
142.25479 -42.485989 0.56754255
142.30881 -42.482754 0.49941492
142.36176 -42.479824 0.44965386
142.41451 -42.476963 0.40308666
142.46796 -42.473888 0.34454167
142.52115 -42.470898 0.29078782
142.57538 -42.467587 0.21866786
142.62875 -42.464542 0.16171992
142.68193 -42.461552 0.10796607
142.73636 -42.458187 0.03265214
142.79117 -42.454716 -0.049050093
142.84514 -42.451481 -0.11637902
142.90073 -42.447773 -0.21165609
142.95703 -42.443851 -0.31891096
143.01109 -42.440601 -0.38783693
143.06865 -42.436314 -0.51665199
143.12643 -42.43195 -0.6494596
140.27344 -42.726147 -2.2210011
140.31871 -42.725506 -2.1390061
140.36365 -42.724964 -2.0514212
140.40924 -42.724224 -1.9750155
140.45688 -42.722881 -1.9337451
140.50681 -42.72086 -1.9316022
140.55765 -42.718555 -1.9454298
140.60841 -42.71629 -1.9576606
140.65939 -42.713947 -1.9738839
140.69745 -42.71545 -1.7681173
140.73546 -42.716969 -1.5615525
140.77356 -42.718456 -1.3565845
140.81166 -42.719944 -1.1516166
140.8497 -42.721455 -0.94585013
140.88776 -42.72295 -0.74008381
140.92581 -42.724461 -0.53431726
140.9675 -42.724888 -0.39083576
141.01416 -42.723827 -0.33279634
141.06157 -42.722553 -0.28753328
141.1086 -42.721394 -0.23588192
141.1573 -42.719723 -0.21297765
141.20714 -42.717731 -0.20923769
141.25714 -42.715679 -0.20869184
141.30711 -42.713642 -0.20734763
141.35652 -42.711773 -0.19642103
141.40649 -42.709728 -0.1950767
141.4567 -42.707623 -0.19772506
141.50777 -42.705257 -0.21554542
141.55663 -42.703548 -0.19503653
141.60681 -42.701443 -0.19768476
141.65651 -42.699497 -0.19154942
141.70628 -42.697506 -0.187011
141.75574 -42.695629 -0.17688298
141.80728 -42.693119 -0.20268846
141.85619 -42.691395 -0.18297815
141.90605 -42.689388 -0.18003678
141.95593 -42.687382 -0.17709541
142.00682 -42.68507 -0.19172168
142.03148 -42.690556 0.24401963
142.06516 -42.693356 0.52484727
142.11293 -42.691975 0.56372213
142.16248 -42.69006 0.57225323
142.21272 -42.687939 0.56880641
142.26422 -42.685444 0.5437994
142.3174 -42.682461 0.49004555
142.3703 -42.679546 0.44108295
142.42352 -42.67654 0.3865304
142.47652 -42.673611 0.33597052
142.52969 -42.670612 0.28221667
142.58319 -42.66753 0.22287321
142.6375 -42.664204 0.14995468
142.69072 -42.661198 0.09540236
142.74506 -42.657864 0.021685362
142.79953 -42.654484 -0.054427147
142.85382 -42.651157 -0.12734556
142.9091 -42.647549 -0.21703315
142.96498 -42.643749 -0.31710124
143.02081 -42.639973 -0.41637111
143.07697 -42.636097 -0.52123046
143.13489 -42.631695 -0.6564337
143.19244 -42.627407 -0.78524888
143.25287 -42.622257 -0.96357244
140.28241 -42.925732 -2.2367592
140.32671 -42.925381 -2.1379948
140.37202 -42.924732 -2.056798
140.41737 -42.924061 -1.9763999
140.46585 -42.922466 -1.9495029
140.51485 -42.920727 -1.9313896
140.56551 -42.918476 -1.942023
140.61678 -42.91605 -1.9630375
140.66832 -42.913548 -1.988843
140.70605 -42.915142 -1.777487
140.74382 -42.916737 -1.5669295
140.78156 -42.918331 -1.3555734
140.81937 -42.919903 -1.1458143
140.85715 -42.921497 -0.93525666
140.89487 -42.923092 -0.72390068
140.9326 -42.924694 -0.51254451
140.97797 -42.92403 -0.43214631
141.02518 -42.922802 -0.38368917
141.07166 -42.921803 -0.32245564
141.11823 -42.92078 -0.26281905
141.16577 -42.91946 -0.21995163
141.21555 -42.917477 -0.21541321
141.26538 -42.915485 -0.21167326
141.31502 -42.91354 -0.20473933
141.36508 -42.91148 -0.20499206
141.41447 -42.909603 -0.19406557
141.46519 -42.907352 -0.20549762
141.51613 -42.905025 -0.22092235
141.56583 -42.903065 -0.21478689
141.61565 -42.901073 -0.21104705
141.66455 -42.899357 -0.19133675
141.71503 -42.89716 -0.19877625
141.76485 -42.895168 -0.19503641
141.81464 -42.893192 -0.19049788
141.8638 -42.891384 -0.17557883
141.91409 -42.889256 -0.17982411
141.96439 -42.887119 -0.1840694
142.01463 -42.884998 -0.18751645
142.02965 -42.893353 0.41351938
142.07217 -42.893528 0.54262733
142.1214 -42.891712 0.55674815
142.1707 -42.889866 0.56927156
142.22113 -42.887691 0.56263089
142.27226 -42.885311 0.54401207
142.32562 -42.882267 0.48706388
142.37885 -42.879253 0.43251181
142.43152 -42.876415 0.38754153
142.48483 -42.873386 0.33139217
142.53806 -42.87038 0.27683973
142.59119 -42.867405 0.22388446
142.64525 -42.864155 0.15495849
142.69904 -42.860973 0.09082377
142.75366 -42.857555 0.01231575
142.80832 -42.85413 -0.066990852
142.86191 -42.851009 -0.12793136
142.91788 -42.847187 -0.22959685
142.97343 -42.843487 -0.32407522
143.02954 -42.839626 -0.42813623
143.0864 -42.835545 -0.54497337
143.14297 -42.831539 -0.6570195
143.20303 -42.826504 -0.82895505
143.26227 -42.82172 -0.98651695
140.24565 -43.126102 -2.3265266
140.28929 -43.125942 -2.2165833
140.33414 -43.125431 -2.1274014
140.37987 -43.124653 -2.0533912
140.42569 -43.123844 -1.9809784
140.47342 -43.122471 -1.9413049
140.52325 -43.12048 -1.9375651
140.57355 -43.118343 -1.9418104
140.62523 -43.115795 -1.9700116
140.67813 -43.112888 -2.0189743
140.71576 -43.114513 -1.8060211
140.75336 -43.116161 -1.5922695
140.79099 -43.117786 -1.3793163
140.82866 -43.119404 -1.1671617
140.86626 -43.121044 -0.95341003
140.90388 -43.122669 -0.74045706
140.94147 -43.124317 -0.52670527
140.98706 -43.123577 -0.45029974
141.03401 -43.12244 -0.39705157
141.08029 -43.121494 -0.33262372
141.1277 -43.12022 -0.28736067
141.17404 -43.119259 -0.22373152
141.22336 -43.11742 -0.21120787
141.27345 -43.115345 -0.21225917
141.32347 -43.113285 -0.21171331
141.37306 -43.111362 -0.20398092
141.4227 -43.109417 -0.197047
141.47379 -43.107052 -0.21486723
141.52403 -43.104939 -0.21831417
141.57312 -43.103153 -0.20179796
141.62364 -43.100956 -0.2100358
141.67342 -43.09898 -0.2054975
141.72321 -43.096989 -0.20095921
141.77275 -43.095081 -0.19242811
141.82266 -43.09306 -0.19028521
141.87268 -43.091007 -0.18973947
141.92213 -43.089123 -0.17961144
141.97243 -43.086994 -0.18385673
142.02258 -43.084896 -0.18570673
142.03751 -43.093273 0.41692615
142.08035 -43.093357 0.54044461
142.12961 -43.091526 0.55376673
142.17917 -43.089611 0.56229782
142.22937 -43.087505 0.55964947
142.28114 -43.084927 0.52985144
142.33414 -43.081997 0.47929144
142.38718 -43.079037 0.42793322
142.44026 -43.076077 0.37577641
142.49344 -43.073093 0.32202244
142.54675 -43.070057 0.26587307
142.60034 -43.066936 0.20493257
142.65395 -43.063824 0.14399183
142.70805 -43.060551 0.074267507
142.76202 -43.057331 0.0069388151
142.81618 -43.05405 -0.06358397
142.87088 -43.050602 -0.14368927
142.92676 -43.04681 -0.24375761
142.98209 -43.043179 -0.33424342
143.03815 -43.039333 -0.43750596
143.09439 -43.035427 -0.54396224
143.15147 -43.031269 -0.66479206
143.21149 -43.026249 -0.8359291
140.25267 -43.326267 -2.3087463
140.29715 -43.325863 -2.2131763
140.34209 -43.325321 -2.1255915
140.38661 -43.324902 -2.0308199
140.4335 -43.323772 -1.976773
140.48207 -43.322155 -1.951473
140.53195 -43.320148 -1.9485316
140.5815 -43.318233 -1.9400005
140.63354 -43.315578 -1.9745901
140.68152 -43.314137 -1.9389091
140.71939 -43.315693 -1.7299485
140.75734 -43.317226 -1.5225852
140.79521 -43.318783 -1.3136246
140.83318 -43.320316 -1.1062611
140.87108 -43.321865 -0.89809906
140.909 -43.323399 -0.68993723
140.94839 -43.324505 -0.50732803
140.9951 -43.323444 -0.45008695
141.0421 -43.322285 -0.39763713
141.08876 -43.321232 -0.3395977
141.13588 -43.320042 -0.28954339
141.1824 -43.319027 -0.22910845
141.23149 -43.317249 -0.21259212
141.28149 -43.315205 -0.21204638
141.33147 -43.31316 -0.21070194
141.3811 -43.311222 -0.20376825
141.43108 -43.309185 -0.20242381
141.48128 -43.307079 -0.20507216
141.5323 -43.304729 -0.22209406
141.58205 -43.302753 -0.21675706
141.63126 -43.300945 -0.20263636
141.68127 -43.298893 -0.20209074
141.73125 -43.296848 -0.2007463
141.78134 -43.294773 -0.20179749
141.83075 -43.292912 -0.190871
141.88068 -43.290882 -0.18872821
141.93054 -43.288876 -0.18578684
141.98056 -43.286823 -0.1852411
142.03104 -43.284634 -0.1926806
142.04573 -43.293079 0.41394472
142.08838 -43.293209 0.54065752
142.1376 -43.291401 0.5547781
142.18748 -43.289394 0.55771923
142.23744 -43.28735 0.55906367
142.28975 -43.284626 0.52048182
142.34264 -43.281719 0.47151899
142.3954 -43.278843 0.42495203
142.4489 -43.275761 0.36560833
142.50137 -43.272984 0.32383227
142.55498 -43.269863 0.26289177
142.60811 -43.266888 0.2099365
142.6629 -43.263409 0.12823415
142.71642 -43.260319 0.068890691
142.77071 -43.257 -0.0040277243
142.82533 -43.253582 -0.082535744
142.87976 -43.25021 -0.15784979
142.93541 -43.246487 -0.25392556
142.991 -43.242771 -0.34920263
143.04739 -43.238834 -0.45805478
143.10303 -43.235111 -0.55413032
143.16161 -43.230511 -0.70051289
143.22079 -43.225735 -0.85727644
140.25937 -43.526531 -2.2853765
140.30476 -43.525845 -2.2057769
140.34956 -43.525349 -2.1157963
140.39558 -43.524487 -2.0465775
140.44238 -43.523388 -1.9909335
140.49057 -43.521877 -1.9592454
140.54031 -43.519917 -1.9539084
140.59074 -43.517735 -1.9605495
140.64247 -43.515171 -1.9895492
140.69263 -43.513088 -1.9913989
140.73082 -43.514545 -1.788028
140.76906 -43.515995 -1.5854558
140.8073 -43.517437 -1.3828834
140.84554 -43.518887 -1.1803111
140.88377 -43.520336 -0.97773874
140.92197 -43.521793 -0.77436793
140.96021 -43.523251 -0.57179558
141.00339 -43.523235 -0.45386672
141.05023 -43.522121 -0.39902151
141.09731 -43.520939 -0.34816861
141.14415 -43.519833 -0.29332328
141.19049 -43.518871 -0.22969413
141.23958 -43.517101 -0.21317792
141.28976 -43.514996 -0.21582627
141.33951 -43.513027 -0.21048927
141.38933 -43.511028 -0.20674944
141.43896 -43.509083 -0.19981551
141.48991 -43.506763 -0.21524012
141.5403 -43.504604 -0.22108269
141.59009 -43.502613 -0.21654415
141.63986 -43.500637 -0.21200585
141.68941 -43.49873 -0.20347488
141.73909 -43.496769 -0.19733942
141.78934 -43.494648 -0.20078635
141.83913 -43.492672 -0.19624782
141.88863 -43.490772 -0.1869185
141.9384 -43.488789 -0.18237996
141.98846 -43.486729 -0.18263268
142.03922 -43.484455 -0.19486344
142.054 -43.49287 0.41016483
142.09657 -43.493038 0.53847456
142.14584 -43.491207 0.55179667
142.1958 -43.48917 0.55314112
142.24591 -43.487087 0.55208969
142.2977 -43.484516 0.52229166
142.3511 -43.481457 0.46454525
142.40353 -43.47868 0.42356777
142.4574 -43.475483 0.35783589
142.51044 -43.472538 0.30647755
142.56348 -43.469585 0.25511932
142.61736 -43.466389 0.18938756
142.67096 -43.463276 0.12844694
142.72507 -43.460003 0.058722734
142.77968 -43.456585 -0.019785523
142.83397 -43.453266 -0.092703819
142.8886 -43.449841 -0.17121208
142.94409 -43.446156 -0.2648921
142.99997 -43.442356 -0.36496031
143.05594 -43.438541 -0.46662569
143.1127 -43.43449 -0.58186579
143.1709 -43.429996 -0.72186023
143.22818 -43.425793 -0.84588432
140.55821 -43.716854 -2.122983
141.0116 -43.723049 -0.45684814
141.05807 -43.722042 -0.39561462
141.10539 -43.720798 -0.34875453
141.15215 -43.719715 -0.29231203
141.19867 -43.7187 -0.23187709
141.24789 -43.716885 -0.21775639
141.298 -43.714809 -0.2188077
141.34805 -43.712742 -0.21906042
141.39746 -43.710873 -0.20813394
141.44771 -43.708744 -0.21158063
141.49791 -43.706646 -0.21422899
141.54895 -43.704288 -0.23125076
141.59789 -43.702557 -0.21233892
141.64795 -43.700489 -0.21259165
141.69772 -43.698513 -0.20805335
141.74736 -43.696568 -0.20111942
141.79752 -43.694477 -0.20296919
141.8474 -43.692471 -0.20002782
141.89731 -43.690441 -0.19788504
141.94699 -43.688496 -0.19174957
141.99696 -43.686459 -0.19040537
142.04744 -43.684269 -0.19784486
142.06195 -43.692768 0.41197491
142.10451 -43.692936 0.5402844
142.15405 -43.691021 0.54881525
142.20403 -43.688984 0.55015945
142.25423 -43.686871 0.54751134
142.30634 -43.6842 0.51212358
142.35965 -43.681171 0.4559741
142.41251 -43.678272 0.40780973
142.46577 -43.675259 0.35245895
142.51904 -43.672237 0.29710793
142.57181 -43.669369 0.25054085
142.62604 -43.666065 0.1784209
142.67978 -43.662907 0.11508477
142.73328 -43.659817 0.05574131
142.78815 -43.65633 -0.026759505
142.84258 -43.652966 -0.10207343
142.89725 -43.649525 -0.18138015
142.95311 -43.645741 -0.28144848
143.00885 -43.641979 -0.37912107
143.06436 -43.638302 -0.47280121
143.12181 -43.634037 -0.60001922
143.17932 -43.629757 -0.72803575
143.23799 -43.625134 -0.87601554
141.01891 -43.92313 -0.4438591
141.06552 -43.922085 -0.38502121
141.11264 -43.920895 -0.3349669
141.15953 -43.919773 -0.28092003
141.20667 -43.918575 -0.23086596
141.25607 -43.916706 -0.21993923
141.30585 -43.91473 -0.21540082
141.35587 -43.91267 -0.21485507
141.40573 -43.910664 -0.21191382
141.45602 -43.908527 -0.21615911
141.50679 -43.906254 -0.22838974
141.55638 -43.904331 -0.22065735
141.60606 -43.902378 -0.21452188
141.65627 -43.900272 -0.21717024
141.70576 -43.898373 -0.20784068
141.75558 -43.896374 -0.20410085
141.8056 -43.894329 -0.20355499
141.85539 -43.892345 -0.19901657
141.90558 -43.89024 -0.20166492
141.9549 -43.888393 -0.18914139
142.0051 -43.886295 -0.19178963
142.05585 -43.884014 -0.20402038
142.06943 -43.892796 0.42176962
142.11191 -43.892986 0.55167627
142.162 -43.890903 0.55062485
142.21234 -43.88876 0.5455811
142.26227 -43.886738 0.54772401
142.31586 -43.883625 0.4867835
142.36853 -43.880787 0.44181347
142.42119 -43.877941 0.39684296
142.47386 -43.875103 0.35187304
142.52783 -43.871883 0.28454423
142.58119 -43.868832 0.2275964
142.63507 -43.865635 0.16186452
142.68884 -43.862469 0.097729921
142.74277 -43.859249 0.031199694
142.79674 -43.856022 -0.036129117
142.85112 -43.852673 -0.11064458
142.90681 -43.848934 -0.20751882
142.96217 -43.845295 -0.29880333
143.01814 -43.841465 -0.40046847
143.07495 -43.837399 -0.51650727
143.13158 -43.833385 -0.62935191
143.18884 -43.829174 -0.75337589
143.24738 -43.824596 -0.89896005
143.30823 -43.819324 -1.0844703
140.99503 -44.119671 -0.75481808
141.02591 -44.123302 -0.42607892
141.07318 -44.122066 -0.37842035
141.11952 -44.121105 -0.3147912
141.16711 -44.119778 -0.27272201
141.21461 -44.118473 -0.22905612
141.26448 -44.116467 -0.22611475
141.31398 -44.114567 -0.21678519
141.36432 -44.112415 -0.22182918
141.41452 -44.11031 -0.22447753
141.465 -44.10812 -0.2319169
141.51483 -44.106129 -0.22817707
141.56424 -44.104259 -0.21725059
141.61462 -44.102093 -0.22309303
141.66435 -44.100124 -0.21775603
141.71436 -44.09808 -0.21721029
141.76414 -44.096088 -0.212672
141.81387 -44.094128 -0.207335
141.86375 -44.092121 -0.20439363
141.91357 -44.090122 -0.20065379
141.96323 -44.088184 -0.19371986
142.01389 -44.085941 -0.20435333
142.06389 -44.083889 -0.20380771
142.07738 -44.092693 0.42357922
142.12077 -44.092602 0.53751564
142.17029 -44.09071 0.54684496
142.22034 -44.088642 0.54659224
142.27104 -44.086384 0.5351603
142.32433 -44.083363 0.47980928
142.37744 -44.080395 0.4268539
142.43016 -44.077534 0.3810854
142.48343 -44.07452 0.32573438
142.53661 -44.071529 0.27198052
142.58983 -44.068516 0.21742821
142.64394 -44.06525 0.14770389
142.69772 -44.062084 0.083569169
142.75151 -44.05891 0.019434452
142.80682 -44.055286 -0.071051478
142.86057 -44.052128 -0.13438749
142.91541 -44.048634 -0.21688843
142.97198 -44.044636 -0.32893455
143.02762 -44.040905 -0.42501009
143.08322 -44.037197 -0.52028728
143.14198 -44.032551 -0.669864
143.20004 -44.028103 -0.80746281
143.25816 -44.023647 -0.94586033
140.98985 -44.32346 -0.52782452
141.0332 -44.323383 -0.41308975
141.07993 -44.322315 -0.35584879
141.12672 -44.321217 -0.30020499
141.17343 -44.320156 -0.24296403
141.22311 -44.318195 -0.23682857
141.27295 -44.316204 -0.23308873
141.32343 -44.314014 -0.24052811
141.37381 -44.311848 -0.24637055
141.42363 -44.309856 -0.24263072
141.4734 -44.307873 -0.23809242
141.52315 -44.305904 -0.23275542
141.57297 -44.303913 -0.22901559
141.62317 -44.3018 -0.23166394
141.67267 -44.299908 -0.22233438
141.72244 -44.297924 -0.21779609
141.77176 -44.296078 -0.20527244
141.82233 -44.293865 -0.21430898
141.87193 -44.291943 -0.20657635
141.92189 -44.289898 -0.20523214
141.97173 -44.287907 -0.20149231
142.02179 -44.285847 -0.20174503
142.05695 -44.288204 0.053529859
142.08104 -44.293858 0.49885345
142.129 -44.292416 0.53453422
142.17847 -44.290524 0.54466224
142.2287 -44.28841 0.54121542
142.27979 -44.286037 0.52339506
142.33316 -44.282993 0.46644735
142.38614 -44.280056 0.41588736
142.43927 -44.277081 0.36293209
142.49217 -44.274174 0.31396949
142.54544 -44.271152 0.25861847
142.59927 -44.267963 0.19368529
142.65286 -44.264851 0.13274479
142.70586 -44.261921 0.082184792
142.76019 -44.258579 0.0084679127
142.81482 -44.255161 -0.070040107
142.87036 -44.251469 -0.16451871
142.92503 -44.248028 -0.24382544
142.98003 -44.244503 -0.32872176
143.03627 -44.240589 -0.43517804
143.09308 -44.236523 -0.55121684
143.14961 -44.23254 -0.6624645
143.20874 -44.227772 -0.81842935
140.99263 -44.524883 -0.43737853
141.03929 -44.52383 -0.37933898
141.08736 -44.52235 -0.34525526
141.1356 -44.520832 -0.31436563
141.18259 -44.51968 -0.26191568
141.23222 -44.517735 -0.25498176
141.28186 -44.515797 -0.24804783
141.33192 -44.513737 -0.24830055
141.38142 -44.511837 -0.23897099
141.43102 -44.509914 -0.2312386
141.48108 -44.507839 -0.23149133
141.53133 -44.505726 -0.23493814
141.58069 -44.503872 -0.2232132
141.63046 -44.501881 -0.21867478
141.68071 -44.499767 -0.22212148
141.73016 -44.497883 -0.21199358
141.78064 -44.495693 -0.21943307
141.83041 -44.49371 -0.21489465
141.88039 -44.49168 -0.21355033
141.93011 -44.489704 -0.20821357
141.98013 -44.487659 -0.20766759
142.03024 -44.485584 -0.20871902
142.04503 -44.493992 0.39630938
142.0881 -44.494007 0.51583529
142.13686 -44.492329 0.53794098
142.18697 -44.490253 0.53688979
142.23685 -44.488247 0.53983116
142.28987 -44.485287 0.48847294
142.34232 -44.482525 0.44749546
142.39488 -44.47971 0.40412235
142.44843 -44.476604 0.34398031
142.50114 -44.473759 0.29821169
142.55423 -44.470798 0.24605477
142.60843 -44.467495 0.17473352
142.66132 -44.464588 0.12577069
142.71558 -44.461285 0.053650737
142.77023 -44.457844 -0.025655746
142.82452 -44.454525 -0.098574162
142.87958 -44.450985 -0.18426895
142.9346 -44.44743 -0.26996398
142.99048 -44.443638 -0.37003231
143.04651 -44.4398 -0.47249591
143.10205 -44.436108 -0.56697464
143.1604 -44.431583 -0.70936459
141.04976 -44.72298 -0.42064965
141.09651 -44.721889 -0.36420727
141.14383 -44.720646 -0.31734705
141.19044 -44.719608 -0.25850916
141.23999 -44.717693 -0.24997818
141.28976 -44.71571 -0.24543977
141.33974 -44.71368 -0.24409544
141.38956 -44.711674 -0.24035549
141.43967 -44.709599 -0.24140692
141.48949 -44.7076 -0.23766708
141.53937 -44.705593 -0.23472571
141.5891 -44.703632 -0.22938883
141.63962 -44.70142 -0.23762679
141.6888 -44.699619 -0.22270751
141.73871 -44.697605 -0.22056484
141.78868 -44.69556 -0.2192204
141.83856 -44.693554 -0.21627903
141.88829 -44.691586 -0.21094227
141.93826 -44.689548 -0.20959795
141.98849 -44.687428 -0.21304488
142.03824 -44.685467 -0.20770788
142.05325 -44.693806 0.39332771
142.0954 -44.694096 0.52882433
142.14522 -44.692097 0.53256416
142.19533 -44.690022 0.53151274
142.24539 -44.687962 0.53126001
142.29834 -44.685032 0.48149872
142.35141 -44.682072 0.42934179
142.4044 -44.679142 0.37878215
142.45703 -44.676311 0.33461058
142.51039 -44.673267 0.27766263
142.56329 -44.670361 0.2286998
142.61711 -44.667171 0.16376662
142.67142 -44.663853 0.090848327
142.72528 -44.660656 0.025116563
142.77972 -44.657284 -0.050197482
142.83411 -44.653934 -0.12471294
142.88956 -44.650272 -0.21759439
142.94423 -44.646832 -0.29690123
142.99992 -44.643093 -0.39377546
143.05617 -44.639187 -0.50023174
143.1134 -44.634998 -0.62345725
143.17053 -44.630833 -0.7450856
141.01001 -44.924221 -0.45931184
141.05598 -44.923382 -0.38929439
141.10417 -44.921864 -0.35760629
141.14949 -44.921215 -0.27640963
141.19843 -44.919483 -0.25749779
141.24817 -44.917507 -0.25216103
141.29822 -44.915447 -0.25241375
141.34805 -44.913456 -0.24867368
141.39792 -44.911442 -0.24573231
141.44812 -44.909336 -0.2483809
141.4978 -44.907375 -0.24224544
141.5475 -44.90543 -0.23610985
141.59709 -44.903507 -0.22837758
141.64757 -44.90131 -0.23581696
141.6972 -44.899372 -0.22888303
141.74727 -44.897312 -0.22913575
141.79677 -44.895405 -0.21980619
141.84683 -44.893345 -0.22005892
141.89679 -44.891308 -0.21871471
141.94676 -44.889271 -0.21737051
141.99724 -44.887081 -0.22480989
142.03915 -44.88744 -0.08532095
142.06055 -44.893894 0.40631723
142.10358 -44.893917 0.52664137
142.15308 -44.892025 0.53597093
142.20323 -44.889927 0.53412104
142.25366 -44.887753 0.52748013
142.30734 -44.884602 0.46494246
142.36034 -44.881672 0.41438293
142.41319 -44.87878 0.36621857
142.46671 -44.87569 0.30687499
142.51978 -44.872723 0.2547183
142.57295 -44.86974 0.20096433
142.62669 -44.866573 0.1376282
142.68037 -44.863438 0.075090647
142.73518 -44.859959 -0.0066117048
142.78879 -44.856838 -0.067552209
142.84369 -44.853344 -0.15085149
142.89859 -44.849842 -0.23415065
142.95418 -44.846127 -0.32942784
143.00958 -44.842472 -0.42151093
143.06635 -44.838413 -0.53675103
143.1232 -44.834332 -0.65358835
143.18137 -44.829861 -0.79278421
141.01671 -45.124493 -0.43594193
141.06346 -45.123417 -0.37949944
141.11063 -45.122204 -0.33024383
141.15701 -45.121235 -0.26741314
141.20717 -45.119144 -0.26926303
141.25681 -45.117199 -0.2623291
141.30621 -45.11533 -0.2514025
141.35596 -45.113369 -0.24606562
141.40619 -45.11124 -0.24951243
141.45616 -45.109203 -0.24816823
141.50632 -45.107113 -0.25001788
141.55623 -45.105091 -0.24787509
141.60555 -45.103252 -0.23535156
141.65556 -45.101192 -0.23480582
141.70506 -45.0993 -0.22547626
141.75545 -45.097141 -0.23131871
141.80522 -45.09515 -0.2267803
141.85477 -45.093243 -0.2182492
141.90492 -45.091152 -0.22009897
141.95456 -45.089207 -0.21316516
142.00462 -45.087147 -0.21341777
142.02011 -45.095364 0.37963259
142.06276 -45.095493 0.50634527
142.11171 -45.093761 0.52525711
142.16116 -45.091877 0.53538513
142.21159 -45.089695 0.52874422
142.26315 -45.087193 0.50293875
142.3167 -45.084087 0.44279671
142.36926 -45.08128 0.3994236
142.42282 -45.078182 0.33928144
142.4758 -45.075237 0.28872168
142.52908 -45.072224 0.23337078
142.58212 -45.069271 0.18201232
142.63651 -45.065922 0.10749698
142.68916 -45.063084 0.062526822
142.74118 -45.060436 0.028735995
142.7991 -45.056034 -0.10646725
142.85373 -45.052616 -0.18497539
142.90797 -45.049313 -0.25709522
142.96426 -45.045383 -0.36435032
143.02057 -45.04147 -0.4716053
143.07663 -45.037617 -0.57486749
143.13403 -45.033367 -0.70128715
143.19186 -45.028996 -0.83489335
140.99437 -45.320568 -0.77325213
141.02475 -45.32436 -0.43572927
141.07146 -45.323292 -0.37848818
141.11794 -45.322285 -0.31725478
141.16478 -45.321178 -0.26240921
141.2153 -45.318981 -0.27064729
141.26517 -45.316967 -0.26770592
141.31491 -45.314999 -0.26236904
141.36469 -45.313023 -0.25783062
141.41452 -45.311016 -0.25409079
141.46402 -45.309124 -0.24476123
141.51402 -45.307072 -0.24421549
141.56386 -45.305073 -0.24047565
141.61386 -45.303028 -0.23992991
141.66379 -45.300999 -0.23778701
141.71361 -45.299007 -0.23404717
141.76367 -45.296947 -0.2342999
141.81351 -45.294941 -0.23056006
141.86346 -45.292912 -0.22921586
141.91348 -45.290859 -0.22866988
141.96358 -45.288776 -0.22972131
142.01285 -45.286953 -0.21639919
142.02759 -45.295391 0.38942766
142.07053 -45.295437 0.5113492
142.12016 -45.293499 0.51828313
142.16991 -45.291523 0.52362013
142.22009 -45.289425 0.52097178
142.27319 -45.286457 0.46881485
142.32649 -45.283421 0.41266537
142.37898 -45.280643 0.37088943
142.43211 -45.277668 0.31793404
142.48538 -45.274647 0.26258314
142.53915 -45.271473 0.19844854
142.59206 -45.268566 0.14948571
142.64639 -45.265224 0.075768709
142.70047 -45.261974 0.0068430901
142.75424 -45.258808 -0.057291746
142.80887 -45.255383 -0.13579988
142.86371 -45.251896 -0.21830058
142.91917 -45.248234 -0.31118202
142.97496 -45.244457 -0.40965331
143.03168 -45.240421 -0.52409506
143.08727 -45.236706 -0.61937207
143.14496 -45.232372 -0.75058281
140.98477 -45.525661 -0.47039866
141.03143 -45.524609 -0.41235924
141.07716 -45.523838 -0.3383491
141.1235 -45.522869 -0.27472019
141.17375 -45.520756 -0.27816701
141.22321 -45.518871 -0.26803887
141.27316 -45.516834 -0.26669455
141.323 -45.514835 -0.26295471
141.37277 -45.512859 -0.25841641
141.42241 -45.510914 -0.25148237
141.47247 -45.508854 -0.25173521
141.52225 -45.50687 -0.24719679
141.57217 -45.504848 -0.24505389
141.62199 -45.502857 -0.24131417
141.67206 -45.500782 -0.2415669
141.72165 -45.498859 -0.23383439
141.77151 -45.496853 -0.23089314
141.8214 -45.494839 -0.22795177
141.87137 -45.492809 -0.22660744
141.92123 -45.490803 -0.22366607
141.97121 -45.488758 -0.22232175
141.98799 -45.496586 0.34837008
142.03093 -45.496639 0.47029161
142.07843 -45.495327 0.5139575
142.12811 -45.493382 0.52009296
142.17836 -45.491253 0.51664591
142.22925 -45.488941 0.50201988
142.28247 -45.485943 0.44746733
142.33566 -45.482944 0.39371347
142.38841 -45.480083 0.34714651
142.44113 -45.47723 0.30137777
142.49487 -45.474072 0.23804176
142.54869 -45.470882 0.17310846
142.60187 -45.467899 0.11935461
142.65543 -45.464794 0.059212565
142.71088 -45.461124 -0.033668876
142.76471 -45.457943 -0.098602176
142.81882 -45.45467 -0.1683265
142.8739 -45.451115 -0.25481987
142.9294 -45.447437 -0.34849977
142.985 -45.443722 -0.44377708
143.04176 -45.439663 -0.55901742
143.09969 -45.435261 -0.69422054
140.94202 -45.727825 -0.4571569
140.98914 -45.726627 -0.40710282
141.03621 -45.725445 -0.35625005
141.08185 -45.724697 -0.28064299
141.13155 -45.722744 -0.27450752
141.18123 -45.720791 -0.26837206
141.23091 -45.718838 -0.2622366
141.28143 -45.716633 -0.27047467
141.33109 -45.714695 -0.26354074
141.38109 -45.712643 -0.262995
141.43102 -45.710621 -0.2608521
141.48097 -45.708584 -0.25950789
141.53085 -45.70657 -0.25656652
141.58031 -45.704685 -0.2464385
141.63028 -45.702656 -0.24509418
141.6801 -45.700657 -0.24135435
141.72992 -45.698658 -0.23761439
141.7798 -45.696651 -0.23467326
141.83018 -45.694485 -0.24051547
141.87973 -45.692577 -0.23198462
141.9297 -45.69054 -0.23064017
141.97887 -45.68874 -0.21572113
141.9951 -45.696728 0.36455309
142.03683 -45.697147 0.507236
142.08665 -45.695141 0.51097584
142.13663 -45.693111 0.51232028
142.18677 -45.691013 0.51047039
142.23935 -45.688206 0.46709728
142.29239 -45.685253 0.41573906
142.345 -45.68243 0.37156749
142.39813 -45.679455 0.31861222
142.45131 -45.676464 0.26485825
142.50476 -45.673382 0.20631337
142.55798 -45.670383 0.15176094
142.61243 -45.667019 0.076446891
142.6662 -45.663845 0.012312174
142.7198 -45.660732 -0.04862833
142.77516 -45.657093 -0.13991284
142.83006 -45.653584 -0.22321224
142.88431 -45.65028 -0.29533195
142.94032 -45.646442 -0.3977958
142.99643 -45.642582 -0.5018568
143.05301 -45.638577 -0.61390293
140.80066 -45.933643 -0.46976089
140.85197 -45.931202 -0.49157381
140.89873 -45.930119 -0.43513131
140.94641 -45.928761 -0.39465928
140.99359 -45.927555 -0.34540367
141.0403 -45.926487 -0.28816271
141.09036 -45.924427 -0.28841543
141.14009 -45.922451 -0.28307855
141.19016 -45.920391 -0.28333127
141.23979 -45.918453 -0.27639723
141.28947 -45.916492 -0.270262
141.3394 -45.914471 -0.2681191
141.38899 -45.912548 -0.26038659
141.43887 -45.910534 -0.25744522
141.48911 -45.908421 -0.26089215
141.5387 -45.90649 -0.25315964
141.58867 -45.904453 -0.25181532
141.63901 -45.902309 -0.2568593
141.68842 -45.900433 -0.24593258
141.73848 -45.898373 -0.2461853
141.78857 -45.896297 -0.24723673
141.83789 -45.894444 -0.23471308
141.88777 -45.892437 -0.23177171
141.93768 -45.890423 -0.22962892
141.95364 -45.898487 0.35543633
141.99844 -45.897991 0.44541693
142.04529 -45.896885 0.50026226
142.09451 -45.895061 0.51438284
142.14461 -45.892986 0.51333165
142.19542 -45.890705 0.50030231
142.24933 -45.887486 0.43377209
142.30243 -45.884525 0.3816154
142.3548 -45.881763 0.34143639
142.40869 -45.878567 0.27570462
142.46158 -45.87566 0.22674191
142.51532 -45.872501 0.16340578
142.56868 -45.869457 0.10645795
142.62204 -45.866413 0.049509764
142.6769 -45.862919 -0.032990932
142.73077 -45.859722 -0.098722577
142.78558 -45.856251 -0.18042481
142.84058 -45.852711 -0.26532102
142.89584 -45.849102 -0.3550086
142.95157 -45.845356 -0.45268106
143.00783 -45.841442 -0.5591377
143.065 -45.837269 -0.68156469
140.67784 -46.133968 -0.80017734
140.70938 -46.137409 -0.4826175
140.75684 -46.136112 -0.43815291
140.80498 -46.134617 -0.40566635
140.85216 -46.133404 -0.3564105
140.89816 -46.132549 -0.28719163
140.94841 -46.130428 -0.29063845
140.99838 -46.128391 -0.28929424
141.04857 -46.126286 -0.2919426
141.09831 -46.124317 -0.2866056
141.14804 -46.122349 -0.28126884
141.19788 -46.120358 -0.27752888
141.24788 -46.118305 -0.27698314
141.29761 -46.116337 -0.27164626
141.34799 -46.114178 -0.27748871
141.39619 -46.112667 -0.2458005
141.44746 -46.110241 -0.26681471
141.49706 -46.108318 -0.25908244
141.54721 -46.10622 -0.26093221
141.5968 -46.104298 -0.2531997
141.64664 -46.102299 -0.24945998
141.69698 -46.100147 -0.25450373
141.74684 -46.098141 -0.25156236
141.79662 -46.096165 -0.24702406
141.84645 -46.094166 -0.24328423
141.89618 -46.092197 -0.23794723
141.94577 -46.090275 -0.23021472
141.96112 -46.098522 0.36523128
142.0036 -46.098713 0.49513793
142.05324 -46.096775 0.50207186
142.1031 -46.094761 0.50501323
142.15358 -46.092579 0.49757385
142.20676 -46.089588 0.44382
142.25905 -46.086857 0.40523791
142.31204 -46.08392 0.35467815
142.36531 -46.080898 0.29932725
142.4183 -46.077969 0.24876761
142.4713 -46.075031 0.19820762
142.52518 -46.071827 0.13247597
142.57913 -46.068607 0.065147281
142.6333 -46.065327 -0.0053756237
142.68745 -46.062038 -0.075898528
142.7417 -46.058735 -0.14801836
142.79663 -46.055218 -0.23211622
142.85242 -46.051449 -0.33058739
142.90756 -46.047878 -0.41787922
142.96283 -46.04427 -0.50756669
143.0208 -46.039845 -0.64356852
143.07727 -46.035877 -0.75401771
140.41566 -46.350071 -0.45693243
140.46605 -46.347904 -0.46277475
140.51508 -46.346149 -0.44546008
140.56351 -46.34457 -0.41776443
140.61105 -46.34325 -0.374897
140.65953 -46.341656 -0.34800005
140.70703 -46.340351 -0.30433393
140.75748 -46.338177 -0.31097484
140.80734 -46.33617 -0.30803347
140.85698 -46.334225 -0.30109954
140.9068 -46.332233 -0.2973597
140.9565 -46.33028 -0.29122424
141.00656 -46.328213 -0.29147708
141.05661 -46.326145 -0.29172981
141.10629 -46.3242 -0.28559434
141.15604 -46.322224 -0.28025746
141.2059 -46.320217 -0.27731609
141.25578 -46.318211 -0.27437472
141.30588 -46.316128 -0.27542615
141.35567 -46.314152 -0.27088773
141.40567 -46.312099 -0.27034187
141.45532 -46.310154 -0.26340795
141.50455 -46.308346 -0.24928737
141.5553 -46.306065 -0.261518
141.60503 -46.304104 -0.256181
141.655 -46.302067 -0.2548368
141.70441 -46.30019 -0.24391007
141.75479 -46.298031 -0.24975252
141.80447 -46.296078 -0.2436173
141.85449 -46.294025 -0.24307132
141.9039 -46.292156 -0.23214483
141.91989 -46.30022 0.35212207
141.96269 -46.300304 0.476439
142.01196 -46.298481 0.48976111
142.06131 -46.296627 0.5014863
142.11133 -46.294567 0.5020318
142.16302 -46.292027 0.4738307
142.21666 -46.288891 0.41209173
142.26947 -46.286015 0.36472607
142.32274 -46.282993 0.30937517
142.37605 -46.279957 0.25322568
142.42896 -46.27705 0.20426309
142.48222 -46.274036 0.14891207
142.53601 -46.270863 0.084777474
142.59003 -46.26762 0.0166502
142.64394 -46.264416 -0.049880147
142.69888 -46.260891 -0.13397789
142.75304 -46.25761 -0.20450079
142.80798 -46.254101 -0.28859854
142.86345 -46.250423 -0.38148022
142.91946 -46.246593 -0.48394394
142.9758 -46.242664 -0.59199739
140.32544 -46.553501 -0.48815525
140.3728 -46.552242 -0.44209361
140.42044 -46.5509 -0.40082312
140.46608 -46.550144 -0.32521605
140.51605 -46.548115 -0.32387185
140.56578 -46.546146 -0.31853485
140.61575 -46.544102 -0.31719065
140.66548 -46.542141 -0.31185377
140.71573 -46.54002 -0.31530058
140.76555 -46.538021 -0.31156063
140.81505 -46.536129 -0.30223131
140.86525 -46.534016 -0.30487943
140.91495 -46.532063 -0.29874408
140.965 -46.530003 -0.29899669
141.01479 -46.528019 -0.29445851
141.06479 -46.525967 -0.29391265
141.11438 -46.524044 -0.28618014
141.16431 -46.522015 -0.28403747
141.21414 -46.520023 -0.28029752
141.26414 -46.517979 -0.27975178
141.31401 -46.515965 -0.27681053
141.36407 -46.513897 -0.27706325
141.41376 -46.511951 -0.27092779
141.46364 -46.509937 -0.26798642
141.5135 -46.507931 -0.26504517
141.56357 -46.505856 -0.26529789
141.61334 -46.50388 -0.26075935
141.66295 -46.501957 -0.25302708
141.71281 -46.499943 -0.25008571
141.76288 -46.497883 -0.25033844
141.81279 -46.495861 -0.24819565
141.86244 -46.493916 -0.24126172
141.87862 -46.501919 0.33981097
141.925 -46.50095 0.40264177
141.97021 -46.500324 0.48543549
142.01935 -46.498539 0.50115299
142.06973 -46.49638 0.49531078
142.11964 -46.49435 0.49745345
142.17375 -46.491085 0.42772913
142.22699 -46.488079 0.37317681
142.27969 -46.485226 0.32740808
142.33325 -46.482121 0.26726604
142.38666 -46.479061 0.20951951
142.43945 -46.476185 0.16215384
142.49281 -46.473141 0.10520589
142.54697 -46.469852 0.034682989
142.60127 -46.466534 -0.038235426
142.65552 -46.463223 -0.11035538
142.7092 -46.460072 -0.17289305
142.76437 -46.456493 -0.26098335
142.81993 -46.452801 -0.35546196
142.87651 -46.448795 -0.46750808
142.9323 -46.445026 -0.56597924
142.98965 -46.440792 -0.6916002
143.04726 -46.436489 -0.82121396
143.10783 -46.431301 -1.0019332
143.16837 -46.426113 -1.1818538
143.22647 -46.421665 -1.3202512
140.33362 -46.75333 -0.49033809
140.37978 -46.75243 -0.42351484
140.42746 -46.751072 -0.38304281
140.47449 -46.749905 -0.33139157
140.52428 -46.747929 -0.32685328
140.57437 -46.745846 -0.32790446
140.62411 -46.743877 -0.32256746
140.67371 -46.741955 -0.31483519
140.72386 -46.739864 -0.31668496
140.77322 -46.738003 -0.30495977
140.82327 -46.735943 -0.30521274
140.87315 -46.733929 -0.30227137
140.92302 -46.731922 -0.29933
140.97308 -46.729855 -0.29958272
141.02296 -46.72784 -0.29664135
141.07301 -46.72578 -0.29689407
141.1228 -46.723804 -0.29235566
141.17258 -46.721813 -0.28781748
141.22226 -46.719868 -0.28168201
141.27246 -46.717762 -0.28433013
141.3223 -46.715763 -0.28059042
141.37225 -46.713726 -0.27924609
141.42209 -46.711735 -0.27550626
141.47125 -46.709927 -0.26058698
141.52132 -46.707867 -0.26083994
141.57184 -46.705654 -0.26907778
141.62213 -46.703526 -0.27332306
141.67126 -46.70174 -0.25760555
141.72086 -46.69981 -0.24987292
141.77101 -46.69772 -0.25172281
141.82083 -46.695728 -0.24798298
141.86978 -46.693989 -0.22907114
141.88484 -46.702328 0.37116611
141.9281 -46.70229 0.48749781
141.97787 -46.700298 0.4920361
142.02794 -46.698238 0.49178362
142.07841 -46.696049 0.48434401
142.13132 -46.693142 0.43538141
142.18417 -46.69025 0.38721704
142.23763 -46.687176 0.32867217
142.29053 -46.684261 0.27970922
142.34332 -46.681385 0.23234367
142.39711 -46.678211 0.16820908
142.45071 -46.675098 0.10726845
142.50458 -46.671902 0.041536689
142.5573 -46.669041 -0.004232049
142.61234 -46.665501 -0.08992672
142.6669 -46.662098 -0.16763639
142.72098 -46.65884 -0.23656225
142.77716 -46.654949 -0.34222007
142.83253 -46.65131 -0.43350458
142.88864 -46.647442 -0.53756547
142.94536 -46.643406 -0.65200716
134.61412 -47.1563 -2.6804488
134.66423 -47.154224 -2.6815
134.71339 -47.152416 -2.6665809
134.76378 -47.150257 -2.6724234
134.8131 -47.148418 -2.6598997
134.86288 -47.146435 -2.6553612
134.91257 -47.144482 -2.6492257
134.96248 -47.142452 -2.6470833
135.01288 -47.140293 -2.6529255
135.06311 -47.13818 -2.6563725
135.11485 -47.135609 -2.6853719
135.16589 -47.133259 -2.7023935
135.21622 -47.131115 -2.7074375
135.26578 -47.129192 -2.6989067
135.31564 -47.127186 -2.6959653
135.36798 -47.124447 -2.7353456
135.41725 -47.122616 -2.7220235
135.46643 -47.120815 -2.7071044
135.51593 -47.118923 -2.6977749
135.56268 -47.117832 -2.6413326
135.61525 -47.115025 -2.6847055
135.66411 -47.113323 -2.6641965
135.71225 -47.11182 -2.6317101
135.76097 -47.110157 -2.6088057
135.81136 -47.10799 -2.6146479
135.86215 -47.105709 -2.627677
135.91165 -47.103809 -2.6183476
135.96143 -47.101826 -2.6138091
136.01108 -47.099888 -2.6068752
136.06099 -47.097866 -2.6047325
136.11044 -47.095982 -2.5946045
136.16092 -47.093792 -2.6020436
136.21037 -47.091908 -2.5919156
136.26025 -47.089893 -2.5889745
136.30971 -47.088017 -2.5788465
136.35991 -47.085911 -2.5814946
136.40991 -47.083858 -2.5809488
136.45998 -47.081791 -2.5812018
136.50952 -47.079876 -2.5726705
136.5594 -47.077869 -2.5697293
136.60965 -47.075748 -2.5731764
136.65938 -47.07378 -2.5678391
136.70929 -47.071758 -2.5656967
136.75842 -47.069973 -2.5499787
136.80872 -47.067837 -2.5542243
136.85873 -47.065784 -2.5536783
136.90874 -47.06374 -2.5531325
136.95837 -47.061794 -2.5461988
137.00807 -47.059841 -2.5400631
137.05807 -47.057796 -2.5395174
137.10773 -47.055851 -2.5325835
137.15773 -47.053799 -2.5320377
137.20718 -47.051922 -2.5219097
137.25752 -47.04977 -2.5269537
137.30727 -47.047802 -2.5216169
137.35736 -47.045719 -2.5226679
137.40738 -47.043674 -2.5221224
137.45715 -47.041691 -2.5175838
137.50713 -47.039654 -2.5162396
137.55685 -47.037685 -2.5109026
137.60696 -47.03561 -2.5119538
137.65683 -47.033596 -2.5090127
137.70653 -47.031643 -2.5028772
137.75653 -47.029598 -2.5023313
137.80598 -47.027706 -2.4922035
137.85559 -47.025784 -2.4844708
137.90573 -47.023693 -2.4863207
137.95538 -47.021748 -2.4793868
138.00581 -47.019573 -2.4860277
138.05554 -47.017605 -2.480691
