# .PCD v0.7 - Point Cloud Data file format
VERSION 0.7
FIELDS x y z
SIZE 4 4 4
TYPE F F F
COUNT 1 1 1
WIDTH 1896
HEIGHT 1
VIEWPOINT 0 0 0 1 0 0 0
POINTS 1896
DATA ascii
80.599998 32.150002 0.50239998
80.599998 32.200001 0.71280003
80.599998 32.25 0.73680001
80.599998 32.299999 0.85519999
80.599998 32.349998 0.86080003
80.599998 32.400002 0.85519999
80.599998 32.450001 0.83600003
80.599998 32.5 0.77280003
80.599998 32.549999 0.7216
80.599998 32.599998 0.66720003
80.599998 32.650002 0.61519998
80.599998 32.700001 0.54960001
80.599998 32.75 0.49759999
80.599998 32.799999 0.4224
80.599998 32.849998 0.35839999
80.599998 32.900002 0.3048
80.599998 32.950001 0.18880001
80.599998 33 0.1136
80.599998 33.049999 0.024
80.599998 33.099998 -0.066399999
80.599998 33.150002 -0.17200001
80.800003 30.6 0.3344
80.800003 30.65 0.37200001
80.800003 30.700001 0.44159999
80.800003 30.75 0.4456
80.800003 30.799999 0.4368
80.800003 30.85 0.43520001
80.800003 30.9 0.43759999
80.800003 30.950001 0.43920001
80.800003 31 0.44
80.800003 31.049999 0.4368
80.800003 31.1 0.4384
80.800003 31.15 0.43360001
80.800003 31.200001 0.43200001
80.800003 31.25 0.42879999
80.800003 31.299999 0.43279999
80.800003 31.35 0.43200001
80.800003 31.4 0.43200001
80.800003 31.450001 0.43520001
80.800003 31.5 0.43200001
80.800003 31.549999 0.43599999
80.800003 31.6 0.4368
80.800003 31.65 0.43279999
80.800003 31.700001 0.43520001
80.800003 31.75 0.43759999
80.800003 31.799999 0.44
80.800003 31.85 0.44319999
80.800003 31.9 0.44479999
80.800003 31.950001 0.45280001
80.800003 32 0.45680001
80.800003 32.049999 0.4648
80.800003 32.099998 0.47839999
80.800003 32.150002 0.4808
80.800003 32.200001 0.72240001
80.800003 32.25 0.74800003
80.800003 32.299999 0.8592
80.800003 32.349998 0.8624
80.800003 32.400002 0.86400002
80.800003 32.450001 0.84320003
80.800003 32.5 0.7784
80.800003 32.549999 0.72799999
80.800003 32.599998 0.67360002
80.800003 32.650002 0.62239999
80.800003 32.700001 0.56080002
80.800003 32.75 0.4928
80.800003 32.799999 0.43759999
80.800003 32.849998 0.3536
80.800003 32.900002 0.29280001
80.800003 32.950001 0.19840001
80.800003 33 0.12800001
80.800003 33.049999 0.043200001
80.800003 33.099998 -0.059999999
80.800003 33.150002 -0.1768
80.800003 33.200001 -0.29359999
80.800003 33.25 -0.38159999
81 30.6 0.3224
81 30.65 0.3488
81 30.700001 0.4208
81 30.75 0.42719999
81 30.799999 0.428
81 30.85 0.4224
81 30.9 0.4296
81 30.950001 0.42879999
81 31 0.41839999
81 31.049999 0.42160001
81 31.1 0.42160001
81 31.15 0.4192
81 31.200001 0.41999999
81 31.25 0.41600001
81 31.299999 0.4136
81 31.35 0.41440001
81 31.4 0.41999999
81 31.450001 0.41280001
81 31.5 0.412
81 31.549999 0.41999999
81 31.6 0.4224
81 31.65 0.41600001
81 31.700001 0.41760001
81 31.75 0.43279999
81 31.799999 0.43439999
81 31.85 0.43599999
81 31.9 0.4296
81 31.950001 0.43279999
81 32 0.4472
81 32.049999 0.456
81 32.099998 0.4576
81 32.150002 0.47279999
81 32.200001 0.71759999
81 32.25 0.74879998
81 32.299999 0.86159998
81 32.349998 0.85680002
81 32.400002 0.86320001
81 32.450001 0.83359998
81 32.5 0.7784
81 32.549999 0.71679997
81 32.599998 0.6728
81 32.650002 0.62080002
81 32.700001 0.55839998
81 32.75 0.48640001
81 32.799999 0.41839999
81 32.849998 0.352
81 32.900002 0.27520001
81 32.950001 0.19599999
81 33 0.1136
81 33.049999 0.022399999
81 33.099998 -0.071999997
81 33.150002 -0.1648
81 33.200001 -0.24160001
81.199997 30.6 0.308
81.199997 30.65 0.32640001
81.199997 30.700001 0.39680001
81.199997 30.75 0.4104
81.199997 30.799999 0.40560001
81.199997 30.85 0.40959999
81.199997 30.9 0.40560001
81.199997 30.950001 0.40239999
81.199997 31 0.40400001
81.199997 31.049999 0.3944
81.199997 31.1 0.3976
81.199997 31.15 0.40000001
81.199997 31.200001 0.40079999
81.199997 31.25 0.3944
81.199997 31.299999 0.39840001
81.199997 31.35 0.39199999
81.199997 31.4 0.4048
81.199997 31.450001 0.40079999
81.199997 31.5 0.40079999
81.199997 31.549999 0.39680001
81.199997 31.6 0.39919999
81.199997 31.65 0.40720001
81.199997 31.700001 0.4032
81.199997 31.75 0.40720001
81.199997 31.799999 0.40880001
81.199997 31.85 0.412
81.199997 31.9 0.41760001
81.199997 31.950001 0.42640001
81.199997 32 0.43520001
81.199997 32.049999 0.43200001
81.199997 32.099998 0.4456
81.199997 32.150002 0.4664
81.199997 32.200001 0.71679997
81.199997 32.25 0.7712
81.199997 32.299999 0.8592
81.199997 32.349998 0.85439998
81.199997 32.400002 0.85519999
81.199997 32.450001 0.8272
81.199997 32.5 0.76639998
81.199997 32.549999 0.71679997
81.199997 32.599998 0.6728
81.199997 32.650002 0.60640001
81.199997 32.700001 0.5456
81.199997 32.75 0.48320001
81.199997 32.799999 0.41839999
81.199997 32.849998 0.352
81.199997 32.900002 0.28560001
81.199997 32.950001 0.192
81.199997 33 0.1192
81.199997 33.049999 0.030400001
81.199997 33.099998 -0.082400002
81.199997 33.150002 -0.2032
81.199997 33.200001 -0.30559999
81.199997 33.25 -0.45120001
81.199997 33.299999 -0.59600002
81.400002 30.6 0.30320001
81.400002 30.65 0.33840001
81.400002 30.700001 0.40239999
81.400002 30.75 0.39919999
81.400002 30.799999 0.4048
81.400002 30.85 0.40560001
81.400002 30.9 0.40079999
81.400002 30.950001 0.40000001
81.400002 31 0.38159999
81.400002 31.049999 0.38960001
81.400002 31.1 0.39199999
81.400002 31.15 0.39120001
81.400002 31.200001 0.38640001
81.400002 31.25 0.39039999
81.400002 31.299999 0.38800001
81.400002 31.35 0.38319999
81.400002 31.4 0.3856
81.400002 31.450001 0.38
81.400002 31.5 0.38319999
81.400002 31.549999 0.3944
81.400002 31.6 0.39840001
81.400002 31.65 0.3888
81.400002 31.700001 0.40079999
81.400002 31.75 0.4048
81.400002 31.799999 0.40799999
81.400002 31.85 0.4136
81.400002 31.9 0.41760001
81.400002 31.950001 0.4152
81.400002 32 0.43040001
81.400002 32.049999 0.43040001
81.400002 32.099998 0.44159999
81.400002 32.150002 0.44400001
81.400002 32.200001 0.71439999
81.400002 32.25 0.83200002
81.400002 32.299999 0.8624
81.400002 32.349998 0.86400002
81.400002 32.400002 0.85680002
81.400002 32.450001 0.82560003
81.400002 32.5 0.7784
81.400002 32.549999 0.72240001
81.400002 32.599998 0.66079998
81.400002 32.650002 0.61119998
81.400002 32.700001 0.55199999
81.400002 32.75 0.4752
81.400002 32.799999 0.43040001
81.400002 32.849998 0.34959999
81.400002 32.900002 0.27759999
81.400002 32.950001 0.19599999
81.400002 33 0.097599998
81.400002 33.049999 0.0392
81.400002 33.099998 -0.069600001
81.400002 33.150002 -0.184
81.400002 33.200001 -0.2744
81.599998 30.6 0.2816
81.599998 30.65 0.30239999
81.599998 30.700001 0.37760001
81.599998 30.75 0.384
81.599998 30.799999 0.38640001
81.599998 30.85 0.38479999
81.599998 30.9 0.384
81.599998 30.950001 0.36880001
81.599998 31 0.37599999
81.599998 31.049999 0.37279999
81.599998 31.1 0.37279999
81.599998 31.15 0.368
81.599998 31.200001 0.368
81.599998 31.25 0.36880001
81.599998 31.299999 0.368
81.599998 31.35 0.37040001
81.599998 31.4 0.36719999
81.599998 31.450001 0.37360001
81.599998 31.5 0.38
81.599998 31.549999 0.37279999
81.599998 31.6 0.38
81.599998 31.65 0.37920001
81.599998 31.700001 0.3752
81.599998 31.75 0.39359999
81.599998 31.799999 0.3944
81.599998 31.85 0.39199999
81.599998 31.9 0.3976
81.599998 31.950001 0.40239999
81.599998 32 0.40720001
81.599998 32.049999 0.4152
81.599998 32.099998 0.42879999
81.599998 32.150002 0.42399999
81.599998 32.200001 0.71920002
81.599998 32.25 0.8416
81.599998 32.299999 0.86080003
81.599998 32.349998 0.8592
81.599998 32.400002 0.85439998
81.599998 32.450001 0.82319999
81.599998 32.5 0.7608
81.599998 32.549999 0.73760003
81.599998 32.599998 0.6688
81.599998 32.650002 0.60479999
81.599998 32.700001 0.54159999
81.599998 32.75 0.46799999
81.599998 32.799999 0.41999999
81.599998 32.849998 0.35120001
81.599998 32.900002 0.26640001
81.599998 32.950001 0.1944
81.599998 33 0.097599998
81.599998 33.049999 0.0016
81.599998 33.099998 -0.0744
81.599998 33.150002 -0.21600001
81.599998 33.200001 -0.3184
81.599998 33.25 -0.46799999
81.800003 30.6 0.2656
81.800003 30.65 0.2816
81.800003 30.700001 0.3448
81.800003 30.75 0.36399999
81.800003 30.799999 0.3664
81.800003 30.85 0.3608
81.800003 30.9 0.35600001
81.800003 30.950001 0.35600001
81.800003 31 0.35679999
81.800003 31.049999 0.35839999
81.800003 31.1 0.35679999
81.800003 31.15 0.35679999
81.800003 31.200001 0.3592
81.800003 31.25 0.35600001
81.800003 31.299999 0.34799999
81.800003 31.35 0.35600001
81.800003 31.4 0.35280001
81.800003 31.450001 0.34959999
81.800003 31.5 0.35519999
81.800003 31.549999 0.36160001
81.800003 31.6 0.36160001
81.800003 31.65 0.3608
81.800003 31.700001 0.3592
81.800003 31.75 0.37200001
81.800003 31.799999 0.36399999
81.800003 31.85 0.3768
81.800003 31.9 0.38479999
81.800003 31.950001 0.38479999
81.800003 32 0.396
81.800003 32.049999 0.40079999
81.800003 32.099998 0.41440001
81.800003 32.150002 0.4048
81.800003 32.200001 0.71920002
81.800003 32.25 0.84640002
81.800003 32.299999 0.85519999
81.800003 32.349998 0.86000001
81.800003 32.400002 0.84560001
81.800003 32.450001 0.81199998
81.800003 32.5 0.7568
81.800003 32.549999 0.7112
81.800003 32.599998 0.67199999
81.800003 32.650002 0.59600002
81.800003 32.700001 0.53119999
81.800003 32.75 0.46880001
81.800003 32.799999 0.4064
81.800003 32.849998 0.33520001
81.800003 32.900002 0.2472
81.800003 32.950001 0.1752
81.800003 33 0.092799999
81.800003 33.049999 0.0024000001
81.800003 33.099998 -0.087200001
81.800003 33.150002 -0.2272
81.800003 33.200001 -0.3312
81.800003 33.25 -0.47040001
82 30.6 0.25119999
82 30.65 0.2712
82 30.700001 0.3136
82 30.75 0.3504
82 30.799999 0.34560001
82 30.85 0.35440001
82 30.9 0.34799999
82 30.950001 0.3432
82 31 0.34720001
82 31.049999 0.34639999
82 31.1 0.3432
82 31.15 0.34400001
82 31.200001 0.34079999
82 31.25 0.33919999
82 31.299999 0.34240001
82 31.35 0.34
82 31.4 0.34
82 31.450001 0.34079999
82 31.5 0.3432
82 31.549999 0.34079999
82 31.6 0.34639999
82 31.65 0.34959999
82 31.700001 0.34959999
82 31.75 0.35679999
82 31.799999 0.3576
82 31.85 0.35440001
82 31.9 0.3664
82 31.950001 0.36480001
82 32 0.3768
82 32.049999 0.37760001
82 32.099998 0.39359999
82 32.150002 0.68879998
82 32.200001 0.72000003
82 32.25 0.8448
82 32.299999 0.85600001
82 32.349998 0.84799999
82 32.400002 0.85439998
82 32.450001 0.80559999
82 32.5 0.75199997
82 32.549999 0.69919997
82 32.599998 0.63840002
82 32.650002 0.57920003
82 32.700001 0.51279998
82 32.75 0.45280001
82 32.799999 0.396
82 32.849998 0.31760001
82 32.900002 0.2464
82 32.950001 0.1672
82 33 0.0744
82 33.049999 -0.019200001
82 33.099998 -0.116
82 33.150002 -0.2368
82 33.200001 -0.3256
82.199997 30.65 0.2536
82.199997 30.700001 0.30880001
82.199997 30.75 0.336
82.199997 30.799999 0.33199999
82.199997 30.85 0.33199999
82.199997 30.9 0.3272
82.199997 30.950001 0.3328
82.199997 31 0.33520001
82.199997 31.049999 0.32879999
82.199997 31.1 0.32319999
82.199997 31.15 0.3312
82.199997 31.200001 0.3328
82.199997 31.25 0.32879999
82.199997 31.299999 0.3272
82.199997 31.35 0.33039999
82.199997 31.4 0.3272
82.199997 31.450001 0.32879999
82.199997 31.5 0.3256
82.199997 31.549999 0.3256
82.199997 31.6 0.32879999
82.199997 31.65 0.33680001
82.199997 31.700001 0.33680001
82.199997 31.75 0.34400001
82.199997 31.799999 0.34
82.199997 31.85 0.33840001
82.199997 31.9 0.3504
82.199997 31.950001 0.35280001
82.199997 32 0.3664
82.199997 32.049999 0.3696
82.199997 32.099998 0.3872
82.199997 32.150002 0.71600002
82.199997 32.200001 0.72399998
82.199997 32.25 0.84799999
82.199997 32.299999 0.85600001
82.199997 32.349998 0.85839999
82.199997 32.400002 0.84960002
82.199997 32.450001 0.7992
82.199997 32.5 0.73760003
82.199997 32.549999 0.68879998
82.199997 32.599998 0.63840002
82.199997 32.650002 0.5848
82.199997 32.700001 0.51599997
82.199997 32.75 0.44800001
82.199997 32.799999 0.37599999
82.199997 32.849998 0.3184
82.199997 32.900002 0.23360001
82.199997 32.950001 0.148
82.199997 33 0.0616
82.199997 33.049999 -0.0264
82.199997 33.099998 -0.1376
82.199997 33.150002 -0.24879999
82.199997 33.200001 -0.36000001
82.199997 33.25 -0.51679999
82.400002 30.6 0.2104
82.400002 30.65 0.2472
82.400002 30.700001 0.30880001
82.400002 30.75 0.3152
82.400002 30.799999 0.31600001
82.400002 30.85 0.31040001
82.400002 30.9 0.31760001
82.400002 30.950001 0.31760001
82.400002 31 0.3096
82.400002 31.049999 0.31600001
82.400002 31.1 0.3096
82.400002 31.15 0.3008
82.400002 31.200001 0.3048
82.400002 31.25 0.3136
82.400002 31.299999 0.31200001
82.400002 31.35 0.3152
82.400002 31.4 0.3184
82.400002 31.450001 0.32159999
82.400002 31.5 0.3152
82.400002 31.549999 0.31279999
82.400002 31.6 0.32159999
82.400002 31.65 0.32159999
82.400002 31.700001 0.31999999
82.400002 31.75 0.32480001
82.400002 31.799999 0.3272
82.400002 31.85 0.32879999
82.400002 31.9 0.33680001
82.400002 31.950001 0.33840001
82.400002 32 0.3504
82.400002 32.049999 0.36320001
82.400002 32.099998 0.3608
82.400002 32.150002 0.70480001
82.400002 32.200001 0.73280001
82.400002 32.25 0.85839999
82.400002 32.299999 0.85280001
82.400002 32.349998 0.85439998
82.400002 32.400002 0.83520001
82.400002 32.450001 0.7816
82.400002 32.5 0.72079998
82.400002 32.549999 0.67519999
82.400002 32.599998 0.61680001
82.400002 32.650002 0.55680001
82.400002 32.700001 0.50480002
82.400002 32.75 0.43040001
82.400002 32.799999 0.36880001
82.400002 32.849998 0.29120001
82.400002 32.900002 0.21600001
82.400002 32.950001 0.1312
82.400002 33 0.044
82.400002 33.049999 -0.058400001
82.400002 33.099998 -0.1608
82.599998 30.65 0.21600001
82.599998 30.700001 0.28560001
82.599998 30.75 0.29840001
82.599998 30.799999 0.3064
82.599998 30.85 0.3008
82.599998 30.9 0.2976
82.599998 30.950001 0.2992
82.599998 31 0.296
82.599998 31.049999 0.30000001
82.599998 31.1 0.29440001
82.599998 31.15 0.2976
82.599998 31.200001 0.296
82.599998 31.25 0.29679999
82.599998 31.299999 0.292
82.599998 31.35 0.29280001
82.599998 31.4 0.2976
82.599998 31.450001 0.3064
82.599998 31.5 0.30320001
82.599998 31.549999 0.30239999
82.599998 31.6 0.30320001
82.599998 31.65 0.31200001
82.599998 31.700001 0.3096
82.599998 31.75 0.31439999
82.599998 31.799999 0.31200001
82.599998 31.85 0.3224
82.599998 31.9 0.32800001
82.599998 31.950001 0.32480001
82.599998 32 0.33520001
82.599998 32.049999 0.3448
82.599998 32.099998 0.35280001
82.599998 32.150002 0.72479999
82.599998 32.200001 0.80320001
82.599998 32.25 0.85600001
82.599998 32.299999 0.85519999
82.599998 32.349998 0.85280001
82.599998 32.400002 0.81840003
82.599998 32.450001 0.75919998
82.599998 32.5 0.70880002
82.599998 32.549999 0.66079998
82.599998 32.599998 0.60159999
82.599998 32.650002 0.53759998
82.599998 32.700001 0.4912
82.599998 32.75 0.41839999
82.599998 32.799999 0.3576
82.599998 32.849998 0.2744
82.599998 32.900002 0.1864
82.599998 32.950001 0.1048
82.599998 33 0.030400001
82.599998 33.049999 -0.069600001
82.599998 33.099998 -0.17200001
82.599998 33.150002 -0.2976
82.599998 33.200001 -0.43920001
82.599998 33.25 -0.54879999
82.800003 30.6 0.1848
82.800003 30.65 0.1944
82.800003 30.700001 0.2608
82.800003 30.75 0.2832
82.800003 30.799999 0.28960001
82.800003 30.85 0.28400001
82.800003 30.9 0.2816
82.800003 30.950001 0.28400001
82.800003 31 0.2784
82.800003 31.049999 0.28400001
82.800003 31.1 0.27680001
82.800003 31.15 0.27919999
82.800003 31.200001 0.2744
82.800003 31.25 0.27200001
82.800003 31.299999 0.2744
82.800003 31.35 0.28240001
82.800003 31.4 0.28080001
82.800003 31.450001 0.28080001
82.800003 31.5 0.28639999
82.800003 31.549999 0.28639999
82.800003 31.6 0.2872
82.800003 31.65 0.29280001
82.800003 31.700001 0.29280001
82.800003 31.75 0.3008
82.800003 31.799999 0.3048
82.800003 31.85 0.3048
82.800003 31.9 0.31600001
82.800003 31.950001 0.3168
82.800003 32 0.3312
82.800003 32.049999 0.33680001
82.800003 32.099998 0.32080001
82.800003 32.150002 0.72799999
82.800003 32.200001 0.84960002
82.800003 32.25 0.85680002
82.800003 32.299999 0.85600001
82.800003 32.349998 0.8448
82.800003 32.400002 0.80879998
82.800003 32.450001 0.76160002
82.800003 32.5 0.7008
82.800003 32.549999 0.64240003
82.800003 32.599998 0.57840002
82.800003 32.650002 0.528
82.800003 32.700001 0.46880001
82.800003 32.75 0.39199999
82.800003 32.799999 0.32159999
82.800003 32.849998 0.2448
82.800003 32.900002 0.1728
82.800003 32.950001 0.090400003
82.800003 33 -0.0152
82.800003 33.049999 -0.1312
82.800003 33.099998 -0.2464
82.800003 33.150002 -0.3624
83 30.65 0.184
83 30.700001 0.25040001
83 30.75 0.26719999
83 30.799999 0.26640001
83 30.85 0.26719999
83 30.9 0.2656
83 30.950001 0.27599999
83 31 0.26320001
83 31.049999 0.26640001
83 31.1 0.26480001
83 31.15 0.2696
83 31.200001 0.26640001
83 31.25 0.26640001
83 31.299999 0.2608
83 31.35 0.26719999
83 31.4 0.26640001
83 31.450001 0.2712
83 31.5 0.2744
83 31.549999 0.27360001
83 31.6 0.2816
83 31.65 0.27599999
83 31.700001 0.28560001
83 31.75 0.2976
83 31.799999 0.28560001
83 31.85 0.29519999
83 31.9 0.30320001
83 31.950001 0.30880001
83 32 0.3168
83 32.049999 0.31760001
83 32.099998 0.70719999
83 32.150002 0.73199999
83 32.200001 0.84960002
83 32.25 0.85360003
83 32.299999 0.85360003
83 32.349998 0.8488
83 32.400002 0.78719997
83 32.450001 0.73360002
83 32.5 0.68400002
83 32.549999 0.62
83 32.599998 0.57279998
83 32.650002 0.51440001
83 32.700001 0.44
83 32.75 0.3752
83 32.799999 0.3008
83 32.849998 0.2208
83 32.900002 0.1408
83 32.950001 0.054400001
83 33 -0.039999999
83 33.049999 -0.14399999
83.199997 30.6 0.1328
83.199997 30.65 0.1576
83.199997 30.700001 0.2168
83.199997 30.75 0.2568
83.199997 30.799999 0.25279999
83.199997 30.85 0.25920001
83.199997 30.9 0.252
83.199997 30.950001 0.252
83.199997 31 0.252
83.199997 31.049999 0.25119999
83.199997 31.1 0.25999999
83.199997 31.15 0.25279999
83.199997 31.200001 0.2552
83.199997 31.25 0.2568
83.199997 31.299999 0.2568
83.199997 31.35 0.25600001
83.199997 31.4 0.2608
83.199997 31.450001 0.2608
83.199997 31.5 0.26480001
83.199997 31.549999 0.2624
83.199997 31.6 0.26480001
83.199997 31.65 0.26879999
83.199997 31.700001 0.26719999
83.199997 31.75 0.27919999
83.199997 31.799999 0.28
83.199997 31.85 0.2872
83.199997 31.9 0.2872
83.199997 31.950001 0.29519999
83.199997 32 0.30559999
83.199997 32.049999 0.29679999
83.199997 32.099998 0.71280003
83.199997 32.150002 0.85439998
83.199997 32.200001 0.85119998
83.199997 32.25 0.85680002
83.199997 32.299999 0.85600001
83.199997 32.349998 0.81840003
83.199997 32.400002 0.77280003
83.199997 32.450001 0.71280003
83.199997 32.5 0.66720003
83.199997 32.549999 0.6024
83.199997 32.599998 0.54159999
83.199997 32.650002 0.47119999
83.199997 32.700001 0.4152
83.199997 32.75 0.35280001
83.199997 32.799999 0.27759999
83.199997 32.849998 0.1936
83.199997 32.900002 0.112
83.199997 32.950001 0.0024000001
83.199997 33 -0.068000004
83.199997 33.049999 -0.1928
83.400002 30.6 0.1184
83.400002 30.65 0.1488
83.400002 30.700001 0.1992
83.400002 30.75 0.228
83.400002 30.799999 0.2352
83.400002 30.85 0.23360001
83.400002 30.9 0.2368
83.400002 30.950001 0.2376
83.400002 31 0.23280001
83.400002 31.049999 0.2344
83.400002 31.1 0.236
83.400002 31.15 0.2304
83.400002 31.200001 0.2392
83.400002 31.25 0.2368
83.400002 31.299999 0.236
83.400002 31.35 0.236
83.400002 31.4 0.2368
83.400002 31.450001 0.2456
83.400002 31.5 0.25279999
83.400002 31.549999 0.248
83.400002 31.6 0.2456
83.400002 31.65 0.25279999
83.400002 31.700001 0.25760001
83.400002 31.75 0.25920001
83.400002 31.799999 0.26480001
83.400002 31.85 0.2728
83.400002 31.9 0.2728
83.400002 31.950001 0.28080001
83.400002 32 0.292
83.400002 32.049999 0.71600002
83.400002 32.099998 0.72799999
83.400002 32.150002 0.85759997
83.400002 32.200001 0.85759997
83.400002 32.25 0.85360003
83.400002 32.299999 0.84719998
83.400002 32.349998 0.80479997
83.400002 32.400002 0.74479997
83.400002 32.450001 0.68400002
83.400002 32.5 0.64560002
83.400002 32.549999 0.57679999
83.400002 32.599998 0.5104
83.400002 32.650002 0.45039999
83.400002 32.700001 0.3928
83.400002 32.75 0.31920001
83.400002 32.799999 0.2368
83.400002 32.849998 0.1592
83.400002 32.900002 0.075999998
83.400002 32.950001 -0.0264
83.400002 33 -0.1216
83.400002 33.049999 -0.2448
83.599998 30.6 0.1064
83.599998 30.65 0.1328
83.599998 30.700001 0.18719999
83.599998 30.75 0.2216
83.599998 30.799999 0.22400001
83.599998 30.85 0.21600001
83.599998 30.9 0.21520001
83.599998 30.950001 0.2264
83.599998 31 0.22400001
83.599998 31.049999 0.2272
83.599998 31.1 0.22400001
83.599998 31.15 0.22480001
83.599998 31.200001 0.2208
83.599998 31.25 0.22400001
83.599998 31.299999 0.2256
83.599998 31.35 0.2272
83.599998 31.4 0.2296
83.599998 31.450001 0.23280001
83.599998 31.5 0.2368
83.599998 31.549999 0.23280001
83.599998 31.6 0.2384
83.599998 31.65 0.24079999
83.599998 31.700001 0.244
83.599998 31.75 0.248
83.599998 31.799999 0.25760001
83.599998 31.85 0.25920001
83.599998 31.9 0.27520001
83.599998 31.950001 0.27599999
83.599998 32 0.28080001
83.599998 32.049999 0.71359998
83.599998 32.099998 0.84320003
83.599998 32.150002 0.84960002
83.599998 32.200001 0.85280001
83.599998 32.25 0.86080003
83.599998 32.299999 0.82080001
83.599998 32.349998 0.77280003
83.599998 32.400002 0.708
83.599998 32.450001 0.66479999
83.599998 32.5 0.61040002
83.599998 32.549999 0.5456
83.599998 32.599998 0.4752
83.599998 32.650002 0.43279999
83.599998 32.700001 0.3488
83.599998 32.75 0.2784
83.599998 32.799999 0.20640001
83.599998 32.849998 0.1136
83.599998 32.900002 0.028000001
83.599998 32.950001 -0.0656
83.800003 30.6 0.084799998
83.800003 30.65 0.1128
83.800003 30.700001 0.1952
83.800003 30.75 0.20559999
83.800003 30.799999 0.212
83.800003 30.85 0.20559999
83.800003 30.9 0.2112
83.800003 30.950001 0.2096
83.800003 31 0.20640001
83.800003 31.049999 0.208
83.800003 31.1 0.20720001
83.800003 31.15 0.2088
83.800003 31.200001 0.20479999
83.800003 31.25 0.21520001
83.800003 31.299999 0.2128
83.800003 31.35 0.21439999
83.800003 31.4 0.2128
83.800003 31.450001 0.22400001
83.800003 31.5 0.22
83.800003 31.549999 0.21600001
83.800003 31.6 0.2288
83.800003 31.65 0.2296
83.800003 31.700001 0.2352
83.800003 31.75 0.2368
83.800003 31.799999 0.248
83.800003 31.85 0.25279999
83.800003 31.9 0.25999999
83.800003 31.950001 0.27520001
83.800003 32 0.68559998
83.800003 32.049999 0.72719997
83.800003 32.099998 0.85439998
83.800003 32.150002 0.86000001
83.800003 32.200001 0.85360003
83.800003 32.25 0.83920002
83.800003 32.299999 0.80080003
83.800003 32.349998 0.73839998
83.800003 32.400002 0.6904
83.800003 32.450001 0.64160001
83.800003 32.5 0.58319998
83.800003 32.549999 0.5104
83.800003 32.599998 0.46000001
83.800003 32.650002 0.384
83.800003 32.700001 0.3064
83.800003 32.75 0.2376
83.800003 32.799999 0.15360001
83.800003 32.849998 0.075199999
83.800003 32.900002 -0.012
83.800003 32.950001 -0.12639999
84 30.549999 0.071199998
84 30.6 0.075999998
84 30.65 0.1408
84 30.700001 0.18000001
84 30.75 0.18799999
84 30.799999 0.1928
84 30.85 0.18719999
84 30.9 0.19760001
84 30.950001 0.1992
84 31 0.1912
84 31.049999 0.192
84 31.1 0.1928
84 31.15 0.1912
84 31.200001 0.1912
84 31.25 0.1952
84 31.299999 0.2
84 31.35 0.19760001
84 31.4 0.2024
84 31.450001 0.2088
84 31.5 0.204
84 31.549999 0.21439999
84 31.6 0.2192
84 31.65 0.2216
84 31.700001 0.2272
84 31.75 0.23119999
84 31.799999 0.2352
84 31.85 0.2384
84 31.9 0.24959999
84 31.950001 0.25279999
84 32 0.72320002
84 32.049999 0.85280001
84 32.099998 0.85759997
84 32.150002 0.85839999
84 32.200001 0.8488
84 32.25 0.81840003
84 32.299999 0.76560003
84 32.349998 0.7112
84 32.400002 0.65600002
84 32.450001 0.61119998
84 32.5 0.5352
84 32.549999 0.48559999
84 32.599998 0.42320001
84 32.650002 0.3416
84 32.700001 0.2624
84 32.75 0.1832
84 32.799999 0.098399997
84 32.849998 0.02
84.199997 30.5 0.058400001
84.199997 30.549999 0.057599999
84.199997 30.6 0.1136
84.199997 30.65 0.1744
84.199997 30.700001 0.1744
84.199997 30.75 0.1768
84.199997 30.799999 0.176
84.199997 30.85 0.1768
84.199997 30.9 0.1744
84.199997 30.950001 0.1776
84.199997 31 0.18080001
84.199997 31.049999 0.1848
84.199997 31.1 0.1776
84.199997 31.15 0.1824
84.199997 31.200001 0.17839999
84.199997 31.25 0.18080001
84.199997 31.299999 0.1904
84.199997 31.35 0.1856
84.199997 31.4 0.18880001
84.199997 31.450001 0.1936
84.199997 31.5 0.18880001
84.199997 31.549999 0.2016
84.199997 31.6 0.2032
84.199997 31.65 0.212
84.199997 31.700001 0.2112
84.199997 31.75 0.2216
84.199997 31.799999 0.22480001
84.199997 31.85 0.2352
84.199997 31.9 0.25279999
84.199997 31.950001 0.7184
84.199997 32 0.74000001
84.199997 32.049999 0.85759997
84.199997 32.099998 0.85680002
84.199997 32.150002 0.85600001
84.199997 32.200001 0.8344
84.199997 32.25 0.7816
84.199997 32.299999 0.736
84.199997 32.349998 0.67360002
84.199997 32.400002 0.62
84.199997 32.450001 0.5632
84.199997 32.5 0.4928
84.199997 32.549999 0.42879999
84.199997 32.599998 0.37599999
84.199997 32.650002 0.29679999
84.199997 32.700001 0.2184
84.199997 32.75 0.1392
84.199997 32.799999 0.040800001
84.199997 32.849998 -0.048
84.199997 32.900002 -0.1464
84.199997 32.950001 -0.26320001
84.199997 33 -0.37920001
84.400002 30.450001 0.048799999
84.400002 30.5 0.046399999
84.400002 30.549999 0.093599997
84.400002 30.6 0.1664
84.400002 30.65 0.16240001
84.400002 30.700001 0.1728
84.400002 30.75 0.168
84.400002 30.799999 0.1728
84.400002 30.85 0.1696
84.400002 30.9 0.1688
84.400002 30.950001 0.168
84.400002 31 0.17200001
84.400002 31.049999 0.17039999
84.400002 31.1 0.1736
84.400002 31.15 0.1696
84.400002 31.200001 0.176
84.400002 31.25 0.17120001
84.400002 31.299999 0.1744
84.400002 31.35 0.176
84.400002 31.4 0.17200001
84.400002 31.450001 0.1752
84.400002 31.5 0.1816
84.400002 31.549999 0.18719999
84.400002 31.6 0.19599999
84.400002 31.65 0.19840001
84.400002 31.700001 0.2104
84.400002 31.75 0.212
84.400002 31.799999 0.2184
84.400002 31.85 0.236
84.400002 31.9 0.2288
84.400002 31.950001 0.73040003
84.400002 32 0.85439998
84.400002 32.049999 0.86000001
84.400002 32.099998 0.86320001
84.400002 32.150002 0.84640002
84.400002 32.200001 0.80320001
84.400002 32.25 0.74479997
84.400002 32.299999 0.68480003
84.400002 32.349998 0.63279998
84.400002 32.400002 0.5704
84.400002 32.450001 0.51520002
84.400002 32.5 0.44080001
84.400002 32.549999 0.39120001
84.400002 32.599998 0.3136
84.400002 32.650002 0.248
84.400002 32.700001 0.1584
84.400002 32.75 0.080799997
84.400002 32.799999 -0.0080000004
84.400002 32.849998 -0.1216
84.599998 30.35 0.081600003
84.599998 30.4 0.0176
84.599998 30.450001 0.068800002
84.599998 30.5 0.088799998
84.599998 30.549999 0.16240001
84.599998 30.6 0.16
84.599998 30.65 0.15360001
84.599998 30.700001 0.1696
84.599998 30.75 0.1592
84.599998 30.799999 0.1648
84.599998 30.85 0.16240001
84.599998 30.9 0.1608
84.599998 30.950001 0.16
84.599998 31 0.1592
84.599998 31.049999 0.16
84.599998 31.1 0.1664
84.599998 31.15 0.1664
84.599998 31.200001 0.16320001
84.599998 31.25 0.17039999
84.599998 31.299999 0.1688
84.599998 31.35 0.17039999
84.599998 31.4 0.17039999
84.599998 31.450001 0.176
84.599998 31.5 0.176
84.599998 31.549999 0.18000001
84.599998 31.6 0.184
84.599998 31.65 0.18960001
84.599998 31.700001 0.192
84.599998 31.75 0.1992
84.599998 31.799999 0.2128
84.599998 31.85 0.21600001
84.599998 31.9 0.72479999
84.599998 31.950001 0.84640002
84.599998 32 0.85439998
84.599998 32.049999 0.85280001
84.599998 32.099998 0.84719998
84.599998 32.150002 0.79839998
84.599998 32.200001 0.7608
84.599998 32.25 0.69599998
84.599998 32.299999 0.63679999
84.599998 32.349998 0.58560002
84.599998 32.400002 0.52719998
84.599998 32.450001 0.4752
84.599998 32.5 0.396
84.599998 32.549999 0.32640001
84.599998 32.599998 0.2536
84.599998 32.650002 0.18000001
84.599998 32.700001 0.088799998
84.599998 32.75 0.0031999999
84.599998 32.799999 -0.092799999
84.800003 30.25 0.0744
84.800003 30.299999 0.02
84.800003 30.35 0.044
84.800003 30.4 0.085600004
84.800003 30.450001 0.16240001
84.800003 30.5 0.1496
84.800003 30.549999 0.1576
84.800003 30.6 0.1576
84.800003 30.65 0.16320001
84.800003 30.700001 0.164
84.800003 30.75 0.1576
84.800003 30.799999 0.16159999
84.800003 30.85 0.16240001
84.800003 30.9 0.1568
84.800003 30.950001 0.156
84.800003 31 0.156
84.800003 31.049999 0.156
84.800003 31.1 0.1592
84.800003 31.15 0.1608
84.800003 31.200001 0.1648
84.800003 31.25 0.15440001
84.800003 31.299999 0.1584
84.800003 31.35 0.1648
84.800003 31.4 0.17039999
84.800003 31.450001 0.176
84.800003 31.5 0.1728
84.800003 31.549999 0.1736
84.800003 31.6 0.1744
84.800003 31.65 0.1824
84.800003 31.700001 0.1816
84.800003 31.75 0.2024
84.800003 31.799999 0.2176
84.800003 31.85 0.72399998
84.800003 31.9 0.86080003
84.800003 31.950001 0.85519999
84.800003 32 0.86479998
84.800003 32.049999 0.84960002
84.800003 32.099998 0.80239999
84.800003 32.150002 0.76480001
84.800003 32.200001 0.704
84.800003 32.25 0.64960003
84.800003 32.299999 0.59280002
84.800003 32.349998 0.54079998
84.800003 32.400002 0.4648
84.800003 32.450001 0.3976
84.800003 32.5 0.3488
84.800003 32.549999 0.25839999
84.800003 32.599998 0.2024
84.800003 32.650002 0.1048
84.800003 32.700001 0.0080000004
84.800003 32.75 -0.075999998
84.800003 32.799999 -0.2176
84.800003 32.849998 -0.3592
84.800003 32.900002 -0.50080001
84.800003 32.950001 -0.64160001
84.800003 33 -0.78240001
84.800003 33.049999 -0.83679998
85 30.15 0.093599997
85 30.200001 0.024800001
85 30.25 0.032000002
85 30.299999 0.078400001
85 30.35 0.15360001
85 30.4 0.1568
85 30.450001 0.1512
85 30.5 0.148
85 30.549999 0.1496
85 30.6 0.156
85 30.65 0.1568
85 30.700001 0.1504
85 30.75 0.16
85 30.799999 0.16
85 30.85 0.1512
85 30.9 0.1504
85 30.950001 0.15360001
85 31 0.1568
85 31.049999 0.15279999
85 31.1 0.15360001
85 31.15 0.15440001
85 31.200001 0.15440001
85 31.25 0.1504
85 31.299999 0.1552
85 31.35 0.1584
85 31.4 0.16320001
85 31.450001 0.1648
85 31.5 0.1664
85 31.549999 0.164
85 31.6 0.1664
85 31.65 0.168
85 31.700001 0.1816
85 31.75 0.1992
85 31.799999 0.7288
85 31.85 0.84799999
85 31.9 0.85519999
85 31.950001 0.8592
85 32 0.85119998
85 32.049999 0.8064
85 32.099998 0.7712
85 32.150002 0.70480001
85 32.200001 0.66079998
85 32.25 0.58560002
85 32.299999 0.54640001
85 32.349998 0.46959999
85 32.400002 0.4016
85 32.450001 0.34240001
85 32.5 0.2728
85 32.549999 0.192
85 32.599998 0.1128
85 32.650002 0.032000002
85 32.700001 -0.078400001
85 32.75 -0.1648
85.199997 30.049999 0.054400001
85.199997 30.1 0.0152
85.199997 30.15 0.048
85.199997 30.200001 0.1176
85.199997 30.25 0.156
85.199997 30.299999 0.1552
85.199997 30.35 0.156
85.199997 30.4 0.1496
85.199997 30.450001 0.156
85.199997 30.5 0.15279999
85.199997 30.549999 0.15440001
85.199997 30.6 0.1472
85.199997 30.65 0.15360001
85.199997 30.700001 0.1504
85.199997 30.75 0.1512
85.199997 30.799999 0.1576
85.199997 30.85 0.16
85.199997 30.9 0.1504
85.199997 30.950001 0.1488
85.199997 31 0.1512
85.199997 31.049999 0.1576
85.199997 31.1 0.1568
85.199997 31.15 0.15440001
85.199997 31.200001 0.1568
85.199997 31.25 0.1496
85.199997 31.299999 0.15360001
85.199997 31.35 0.1592
85.199997 31.4 0.1592
85.199997 31.450001 0.1592
85.199997 31.5 0.16240001
85.199997 31.549999 0.1608
85.199997 31.6 0.16
85.199997 31.65 0.2
85.199997 31.700001 0.2128
85.199997 31.75 0.7256
85.199997 31.799999 0.85439998
85.199997 31.85 0.85839999
85.199997 31.9 0.85680002
85.199997 31.950001 0.8448
85.199997 32 0.80239999
85.199997 32.049999 0.75279999
85.199997 32.099998 0.70480001
85.199997 32.150002 0.64960003
85.199997 32.200001 0.5984
85.199997 32.25 0.5352
85.199997 32.299999 0.48640001
85.199997 32.349998 0.40959999
85.199997 32.400002 0.34400001
85.199997 32.450001 0.28
85.199997 32.5 0.1952
85.199997 32.549999 0.1144
85.199997 32.599998 0.025599999
85.199997 32.650002 -0.068000004
85.199997 32.700001 -0.192
85.400002 29.9 -0.90079999
85.400002 29.950001 0.0232
85.400002 30 0.048
85.400002 30.049999 0.088799998
85.400002 30.1 0.1584
85.400002 30.15 0.15440001
85.400002 30.200001 0.15279999
85.400002 30.25 0.1568
85.400002 30.299999 0.1552
85.400002 30.35 0.15360001
85.400002 30.4 0.15360001
85.400002 30.450001 0.1512
85.400002 30.5 0.15360001
85.400002 30.549999 0.15360001
85.400002 30.6 0.152
85.400002 30.65 0.1512
85.400002 30.700001 0.1488
85.400002 30.75 0.1472
85.400002 30.799999 0.15360001
85.400002 30.85 0.15360001
85.400002 30.9 0.1496
85.400002 30.950001 0.148
85.400002 31 0.152
85.400002 31.049999 0.15279999
85.400002 31.1 0.1512
85.400002 31.15 0.1512
85.400002 31.200001 0.152
85.400002 31.25 0.15279999
85.400002 31.299999 0.1512
85.400002 31.35 0.15440001
85.400002 31.4 0.1584
85.400002 31.450001 0.1568
85.400002 31.5 0.1568
85.400002 31.549999 0.1552
85.400002 31.6 0.1744
85.400002 31.65 0.1904
85.400002 31.700001 0.73680001
85.400002 31.75 0.85839999
85.400002 31.799999 0.86159998
85.400002 31.85 0.85680002
85.400002 31.9 0.84240001
85.400002 31.950001 0.80239999
85.400002 32 0.74000001
85.400002 32.049999 0.69840002
85.400002 32.099998 0.63919997
85.400002 32.150002 0.57679999
85.400002 32.200001 0.52880001
85.400002 32.25 0.472
85.400002 32.299999 0.3928
85.400002 32.349998 0.34959999
85.400002 32.400002 0.264
85.400002 32.450001 0.1864
85.400002 32.5 0.090400003
85.400002 32.549999 0.0176
85.400002 32.599998 -0.082400002
85.599998 29.700001 0.1064
85.599998 29.75 0.040800001
85.599998 29.799999 0.0096000005
85.599998 29.85 0.059999999
85.599998 29.9 0.148
85.599998 29.950001 0.1696
85.599998 30 0.1576
85.599998 30.049999 0.1568
85.599998 30.1 0.16
85.599998 30.15 0.1552
85.599998 30.200001 0.1576
85.599998 30.25 0.16159999
85.599998 30.299999 0.1576
85.599998 30.35 0.15440001
85.599998 30.4 0.156
85.599998 30.450001 0.152
85.599998 30.5 0.1584
85.599998 30.549999 0.15360001
85.599998 30.6 0.15360001
85.599998 30.65 0.1568
85.599998 30.700001 0.1504
85.599998 30.75 0.1504
85.599998 30.799999 0.1504
85.599998 30.85 0.1504
85.599998 30.9 0.152
85.599998 30.950001 0.1488
85.599998 31 0.1512
85.599998 31.049999 0.148
85.599998 31.1 0.15440001
85.599998 31.15 0.16
85.599998 31.200001 0.1504
85.599998 31.25 0.1488
85.599998 31.299999 0.1488
85.599998 31.35 0.1552
85.599998 31.4 0.1496
85.599998 31.450001 0.152
85.599998 31.5 0.14480001
85.599998 31.549999 0.2016
85.599998 31.6 0.71600002
85.599998 31.65 0.74000001
85.599998 31.700001 0.85839999
85.599998 31.75 0.86400002
85.599998 31.799999 0.85839999
85.599998 31.85 0.83759999
85.599998 31.9 0.78640002
85.599998 31.950001 0.73199999
85.599998 32 0.68800002
85.599998 32.049999 0.63520002
85.599998 32.099998 0.5704
85.599998 32.150002 0.51840001
85.599998 32.200001 0.45280001
85.599998 32.25 0.38319999
85.599998 32.299999 0.30880001
85.599998 32.349998 0.24959999
85.599998 32.400002 0.17120001
85.599998 32.450001 0.080799997
85.800003 29.5 -0.93199998
85.800003 29.549999 0.051199999
85.800003 29.6 0.0184
85.800003 29.65 0.055199999
85.800003 29.700001 0.092799999
85.800003 29.75 0.1672
85.800003 29.799999 0.1568
85.800003 29.85 0.16320001
85.800003 29.9 0.1608
85.800003 29.950001 0.16
85.800003 30 0.1552
85.800003 30.049999 0.1608
85.800003 30.1 0.1576
85.800003 30.15 0.15440001
85.800003 30.200001 0.156
85.800003 30.25 0.1576
85.800003 30.299999 0.1552
85.800003 30.35 0.1552
85.800003 30.4 0.16240001
85.800003 30.450001 0.168
85.800003 30.5 0.1576
85.800003 30.549999 0.1568
85.800003 30.6 0.15360001
85.800003 30.65 0.1576
85.800003 30.700001 0.1568
85.800003 30.75 0.152
85.800003 30.799999 0.15279999
85.800003 30.85 0.152
85.800003 30.9 0.152
85.800003 30.950001 0.148
85.800003 31 0.1488
85.800003 31.049999 0.148
85.800003 31.1 0.152
85.800003 31.15 0.148
85.800003 31.200001 0.15440001
85.800003 31.25 0.1488
85.800003 31.299999 0.152
85.800003 31.35 0.1512
85.800003 31.4 0.152
85.800003 31.450001 0.1504
85.800003 31.5 0.22400001
85.800003 31.549999 0.72719997
85.800003 31.6 0.8696
85.800003 31.65 0.8664
85.800003 31.700001 0.86799997
85.800003 31.75 0.852
85.800003 31.799999 0.82639998
85.800003 31.85 0.77600002
85.800003 31.9 0.72320002
85.800003 31.950001 0.66640002
85.800003 32 0.61040002
85.800003 32.049999 0.55680001
85.800003 32.099998 0.49599999
85.800003 32.150002 0.44639999
85.800003 32.200001 0.3856
85.800003 32.25 0.29679999
85.800003 32.299999 0.2256
85.800003 32.349998 0.1392
85.800003 32.400002 0.0528
86 29.200001 0.2008
86 29.25 0.1464
86 29.299999 0.0656
86 29.35 0.048799999
86 29.4 0.024800001
86 29.450001 0.0704
86 29.5 0.1408
86 29.549999 0.152
86 29.6 0.14480001
86 29.65 0.15279999
86 29.700001 0.16159999
86 29.75 0.16159999
86 29.799999 0.1608
86 29.85 0.1672
86 29.9 0.1608
86 29.950001 0.16
86 30 0.16159999
86 30.049999 0.1608
86 30.1 0.156
86 30.15 0.1568
86 30.200001 0.1608
86 30.25 0.1584
86 30.299999 0.16159999
86 30.35 0.1552
86 30.4 0.16320001
86 30.450001 0.16
86 30.5 0.1576
86 30.549999 0.156
86 30.6 0.15360001
86 30.65 0.16
86 30.700001 0.1512
86 30.75 0.1568
86 30.799999 0.15279999
86 30.85 0.15279999
86 30.9 0.15279999
86 30.950001 0.1488
86 31 0.1488
86 31.049999 0.148
86 31.1 0.156
86 31.15 0.152
86 31.200001 0.1568
86 31.25 0.15440001
86 31.299999 0.14560001
86 31.35 0.1392
86 31.4 0.2024
86 31.450001 0.73119998
86 31.5 0.73839998
86 31.549999 0.86320001
86 31.6 0.86879998
86 31.65 0.8592
86 31.700001 0.8488
86 31.75 0.80479997
86 31.799999 0.7432
86 31.85 0.69999999
86 31.9 0.6408
86 31.950001 0.58960003
86 32 0.53039998
86 32.049999 0.47119999
86 32.099998 0.41600001
86 32.150002 0.352
86 32.200001 0.26879999
86 32.25 0.21520001
86 32.299999 0.1256
86 32.349998 0.028000001
86.199997 28.950001 -1.4471999
86.199997 29 0.049600001
86.199997 29.049999 0.045600001
86.199997 29.1 0.039999999
86.199997 29.15 0.0031999999
86.199997 29.200001 0.064800002
86.199997 29.25 0.1392
86.199997 29.299999 0.1416
86.199997 29.35 0.148
86.199997 29.4 0.152
86.199997 29.450001 0.14560001
86.199997 29.5 0.1488
86.199997 29.549999 0.1472
86.199997 29.6 0.15279999
86.199997 29.65 0.1488
86.199997 29.700001 0.16320001
86.199997 29.75 0.164
86.199997 29.799999 0.16159999
86.199997 29.85 0.1608
86.199997 29.9 0.1584
86.199997 29.950001 0.16159999
86.199997 30 0.15440001
86.199997 30.049999 0.156
86.199997 30.1 0.16320001
86.199997 30.15 0.1576
86.199997 30.200001 0.1576
86.199997 30.25 0.1552
86.199997 30.299999 0.1568
86.199997 30.35 0.1568
86.199997 30.4 0.1584
86.199997 30.450001 0.1512
86.199997 30.5 0.15279999
86.199997 30.549999 0.1504
86.199997 30.6 0.1504
86.199997 30.65 0.156
86.199997 30.700001 0.1512
86.199997 30.75 0.1504
86.199997 30.799999 0.148
86.199997 30.85 0.1464
86.199997 30.9 0.15360001
86.199997 30.950001 0.1552
86.199997 31 0.15279999
86.199997 31.049999 0.1504
86.199997 31.1 0.15440001
86.199997 31.15 0.152
86.199997 31.200001 0.1496
86.199997 31.25 0.14399999
86.199997 31.299999 0.1744
86.199997 31.35 0.27680001
86.199997 31.4 0.72799999
86.199997 31.450001 0.86080003
86.199997 31.5 0.86080003
86.199997 31.549999 0.86720002
86.199997 31.6 0.85759997
86.199997 31.65 0.82639998
86.199997 31.700001 0.76719999
86.199997 31.75 0.73119998
86.199997 31.799999 0.67040002
86.199997 31.85 0.62400001
86.199997 31.9 0.55440003
86.199997 31.950001 0.50480002
86.199997 32 0.456
86.199997 32.049999 0.3856
86.199997 32.099998 0.3184
86.199997 32.150002 0.2536
86.199997 32.200001 0.1736
86.199997 32.25 0.073600002
86.400002 28.549999 0.1856
86.400002 28.6 -1.2632
86.400002 28.65 0.046399999
86.400002 28.700001 0.0504
86.400002 28.75 0.052000001
86.400002 28.799999 0.035999998
86.400002 28.85 0.02
86.400002 28.9 0.076800004
86.400002 28.950001 0.1328
86.400002 29 0.1512
86.400002 29.049999 0.15279999
86.400002 29.1 0.152
86.400002 29.15 0.14560001
86.400002 29.200001 0.1488
86.400002 29.25 0.1496
86.400002 29.299999 0.14560001
86.400002 29.35 0.1504
86.400002 29.4 0.1496
86.400002 29.450001 0.15279999
86.400002 29.5 0.15279999
86.400002 29.549999 0.1504
86.400002 29.6 0.1568
86.400002 29.65 0.15440001
86.400002 29.700001 0.1592
86.400002 29.75 0.16
86.400002 29.799999 0.16
86.400002 29.85 0.16159999
86.400002 29.9 0.1584
86.400002 29.950001 0.1576
86.400002 30 0.15440001
86.400002 30.049999 0.1568
86.400002 30.1 0.1576
86.400002 30.15 0.156
86.400002 30.200001 0.15279999
86.400002 30.25 0.1584
86.400002 30.299999 0.1576
86.400002 30.35 0.15440001
86.400002 30.4 0.15360001
86.400002 30.450001 0.15440001
86.400002 30.5 0.1504
86.400002 30.549999 0.1472
86.400002 30.6 0.1472
86.400002 30.65 0.15279999
86.400002 30.700001 0.148
86.400002 30.75 0.1472
86.400002 30.799999 0.1496
86.400002 30.85 0.1512
86.400002 30.9 0.1488
86.400002 30.950001 0.15279999
86.400002 31 0.1488
86.400002 31.049999 0.1496
86.400002 31.1 0.1488
86.400002 31.15 0.1384
86.400002 31.200001 0.14
86.400002 31.25 0.204
86.400002 31.299999 0.71920002
86.400002 31.35 0.84719998
86.400002 31.4 0.8624
86.400002 31.450001 0.86479998
86.400002 31.5 0.85759997
86.400002 31.549999 0.84079999
86.400002 31.6 0.80239999
86.400002 31.65 0.74400002
86.400002 31.700001 0.69840002
86.400002 31.75 0.64719999
86.400002 31.799999 0.5952
86.400002 31.85 0.53280002
86.400002 31.9 0.46720001
86.400002 31.950001 0.40560001
86.400002 32 0.3448
86.400002 32.049999 0.27520001
86.400002 32.099998 0.20640001
86.400002 32.150002 0.1416
86.400002 32.200001 0.0416
86.400002 32.25 -0.067199998
86.400002 32.299999 -0.1768
86.400002 32.349998 -0.2872
86.400002 32.400002 -0.39680001
86.400002 32.450001 -0.5072
86.599998 28.1 0.1776
86.599998 28.15 0.1488
86.599998 28.200001 0.1208
86.599998 28.25 0.060800001
86.599998 28.299999 0.059999999
86.599998 28.35 0.059999999
86.599998 28.4 0.044799998
86.599998 28.450001 0.036800001
86.599998 28.5 0.0208
86.599998 28.549999 0.12639999
86.599998 28.6 0.1568
86.599998 28.65 0.1576
86.599998 28.700001 0.15440001
86.599998 28.75 0.15360001
86.599998 28.799999 0.156
86.599998 28.85 0.15279999
86.599998 28.9 0.15360001
86.599998 28.950001 0.152
86.599998 29 0.1496
86.599998 29.049999 0.1488
86.599998 29.1 0.15279999
86.599998 29.15 0.1552
86.599998 29.200001 0.15279999
86.599998 29.25 0.1504
86.599998 29.299999 0.1512
86.599998 29.35 0.1592
86.599998 29.4 0.1512
86.599998 29.450001 0.1568
86.599998 29.5 0.1584
86.599998 29.549999 0.1568
86.599998 29.6 0.152
86.599998 29.65 0.1608
86.599998 29.700001 0.16159999
86.599998 29.75 0.1656
86.599998 29.799999 0.1584
86.599998 29.85 0.1688
86.599998 29.9 0.1576
86.599998 29.950001 0.15279999
86.599998 30 0.16159999
86.599998 30.049999 0.1576
86.599998 30.1 0.16320001
86.599998 30.15 0.1488
86.599998 30.200001 0.16
86.599998 30.25 0.15279999
86.599998 30.299999 0.1488
86.599998 30.35 0.16240001
86.599998 30.4 0.15279999
86.599998 30.450001 0.1496
86.599998 30.5 0.1488
86.599998 30.549999 0.1512
86.599998 30.6 0.1472
86.599998 30.65 0.1488
86.599998 30.700001 0.1512
86.599998 30.75 0.1504
86.599998 30.799999 0.1504
86.599998 30.85 0.1568
86.599998 30.9 0.152
86.599998 30.950001 0.1504
86.599998 31 0.1504
86.599998 31.049999 0.148
86.599998 31.1 0.13519999
86.599998 31.15 0.23119999
86.599998 31.200001 0.7216
86.599998 31.25 0.74239999
86.599998 31.299999 0.86879998
86.599998 31.35 0.86000001
86.599998 31.4 0.8664
86.599998 31.450001 0.85039997
86.599998 31.5 0.81120002
86.599998 31.549999 0.76239997
86.599998 31.6 0.704
86.599998 31.65 0.67119998
86.599998 31.700001 0.60960001
86.599998 31.75 0.55839998
86.599998 31.799999 0.4912
86.599998 31.85 0.43360001
86.599998 31.9 0.38240001
86.599998 31.950001 0.30160001
86.599998 32 0.2344
86.599998 32.049999 0.1552
86.599998 32.099998 0.084799998
86.800003 27.25 -0.80080003
86.800003 27.299999 -0.85600001
86.800003 27.35 -0.60079998
86.800003 27.4 -0.25440001
86.800003 27.450001 0.0296
86.800003 27.5 0.021600001
86.800003 27.549999 0.032000002
86.800003 27.6 -1.36
86.800003 27.65 -1.252
86.800003 27.700001 0.0656
86.800003 27.75 0.0568
86.800003 27.799999 0.0568
86.800003 27.85 0.081600003
86.800003 27.9 0.095200002
86.800003 27.950001 0.1008
86.800003 28 0.1464
86.800003 28.049999 0.1608
86.800003 28.1 0.16240001
86.800003 28.15 0.1568
86.800003 28.200001 0.1584
86.800003 28.25 0.1592
86.800003 28.299999 0.156
86.800003 28.35 0.15279999
86.800003 28.4 0.15440001
86.800003 28.450001 0.156
86.800003 28.5 0.1568
86.800003 28.549999 0.15360001
86.800003 28.6 0.15440001
86.800003 28.65 0.1576
86.800003 28.700001 0.1512
86.800003 28.75 0.1496
86.800003 28.799999 0.1488
86.800003 28.85 0.152
86.800003 28.9 0.156
86.800003 28.950001 0.15279999
86.800003 29 0.152
86.800003 29.049999 0.15279999
86.800003 29.1 0.1552
86.800003 29.15 0.15279999
86.800003 29.200001 0.1464
86.800003 29.25 0.15279999
86.800003 29.299999 0.148
86.800003 29.35 0.152
86.800003 29.4 0.1512
86.800003 29.450001 0.152
86.800003 29.5 0.1504
86.800003 29.549999 0.1552
86.800003 29.6 0.1568
86.800003 29.65 0.1592
86.800003 29.700001 0.1584
86.800003 29.75 0.1576
86.800003 29.799999 0.1576
86.800003 29.85 0.1568
86.800003 29.9 0.1464
86.800003 29.950001 0.1552
86.800003 30 0.1504
86.800003 30.049999 0.1552
86.800003 30.1 0.152
86.800003 30.15 0.1504
86.800003 30.200001 0.15279999
86.800003 30.25 0.152
86.800003 30.299999 0.152
86.800003 30.35 0.1504
86.800003 30.4 0.1512
86.800003 30.450001 0.148
86.800003 30.5 0.1496
86.800003 30.549999 0.148
86.800003 30.6 0.1472
86.800003 30.65 0.1472
86.800003 30.700001 0.148
86.800003 30.75 0.15360001
86.800003 30.799999 0.14480001
86.800003 30.85 0.1512
86.800003 30.9 0.152
86.800003 30.950001 0.13519999
86.800003 31 0.1248
86.800003 31.049999 0.22319999
86.800003 31.1 0.7184
86.800003 31.15 0.73519999
86.800003 31.200001 0.8624
86.800003 31.25 0.85360003
86.800003 31.299999 0.85759997
86.800003 31.35 0.8448
86.800003 31.4 0.80800003
86.800003 31.450001 0.75599998
86.800003 31.5 0.70959997
86.800003 31.549999 0.66799998
86.800003 31.6 0.62080002
86.800003 31.65 0.56239998
86.800003 31.700001 0.50880003
86.800003 31.75 0.44639999
86.800003 31.799999 0.38159999
86.800003 31.85 0.31439999
86.800003 31.9 0.2448
86.800003 31.950001 0.1752
86.800003 32 0.1152
86.800003 32.049999 0.0055999998
87 22.200001 -0.73119998
87 22.25 -0.61440003
87 22.299999 -0.4984
87 22.35 -0.38240001
87 22.4 -0.26719999
87 22.450001 -0.1512
87 22.5 -0.035999998
87 22.549999 0.0792
87 22.6 0.0704
87 22.65 0.068000004
87 22.700001 0.067199998
87 22.75 0.0592
87 22.799999 0.064000003
87 22.85 0.071999997
87 22.9 0.0704
87 22.950001 0.0592
87 23 0.048
87 23.049999 0.0656
87 23.1 0.071199998
87 23.15 0.072800003
87 23.200001 0.060800001
87 23.25 0.046399999
87 23.299999 0.0416
87 23.35 0.048799999
87 23.4 0.0704
87 23.450001 0.081600003
87 23.5 0.073600002
87 23.549999 0.064000003
87 23.6 0.043200001
87 23.65 0.059999999
87 23.700001 0.0568
87 23.75 0.071199998
87 23.799999 0.049600001
87 23.85 0.0568
87 23.9 0.0504
87 23.950001 0.0528
87 24 0.048
87 24.049999 0.069600001
87 24.1 0.071999997
87 24.15 0.0744
87 24.200001 0.059999999
87 24.25 0.056000002
87 24.299999 0.054400001
87 24.35 0.067199998
87 24.4 0.068800002
87 24.450001 0.071999997
87 24.5 0.055199999
87 24.549999 0.060800001
87 24.6 0.069600001
87 24.65 0.072800003
87 24.700001 0.073600002
87 24.75 0.085600004
87 24.799999 0.071999997
87 24.85 0.0504
87 24.9 0.064800002
87 24.950001 0.066399999
87 25 0.092
87 25.049999 0.087200001
87 25.1 0.068800002
87 25.15 0.071199998
87 25.200001 0.055199999
87 25.25 0.064000003
87 25.299999 0.090400003
87 25.35 0.076800004
87 25.4 0.062399998
87 25.450001 0.0616
87 25.5 0.063199997
87 25.549999 0.069600001
87 25.6 0.092
87 25.65 0.092
87 25.700001 0.071199998
87 25.75 0.081600003
87 25.799999 0.084799998
87 25.85 0.084799998
87 25.9 0.090400003
87 25.950001 0.0832
87 26 0.087200001
87 26.049999 0.095200002
87 26.1 0.092
87 26.15 0.099200003
87 26.200001 0.087200001
87 26.25 0.093599997
87 26.299999 0.094400004
87 26.35 0.094400004
87 26.4 0.0832
87 26.450001 0.1128
87 26.5 0.096000001
87 26.549999 0.096799999
87 26.6 0.093599997
87 26.65 0.095200002
87 26.700001 0.1136
87 26.75 0.1096
87 26.799999 0.1144
87 26.85 0.1008
87 26.9 0.112
87 26.950001 0.1224
87 27 0.15279999
87 27.049999 0.1248
87 27.1 0.1328
87 27.15 0.16159999
87 27.200001 0.17200001
87 27.25 0.18960001
87 27.299999 0.184
87 27.35 0.17839999
87 27.4 0.1816
87 27.450001 0.1848
87 27.5 0.1832
87 27.549999 0.1696
87 27.6 0.1608
87 27.65 0.1688
87 27.700001 0.16320001
87 27.75 0.16240001
87 27.799999 0.1656
87 27.85 0.168
87 27.9 0.1672
87 27.950001 0.1648
87 28 0.164
87 28.049999 0.1608
87 28.1 0.1648
87 28.15 0.1648
87 28.200001 0.1608
87 28.25 0.1576
87 28.299999 0.1568
87 28.35 0.1608
87 28.4 0.1584
87 28.450001 0.1552
