# .PCD v0.7 - Point Cloud Data file format
VERSION 0.7
FIELDS x y z
SIZE 4 4 4
TYPE F F F
COUNT 1 1 1
WIDTH 1983
HEIGHT 1
VIEWPOINT 0 0 0 1 0 0 0
POINTS 1983
DATA ascii
128.8 29.5 0.64960003
128.8 29.549999 0.60000002
128.8 29.6 0.53439999
128.8 29.65 0.47040001
128.8 29.700001 0.3976
128.8 29.75 0.32879999
128.8 29.799999 0.24959999
128.8 29.85 0.184
128.8 29.9 0.092799999
128.8 29.950001 0
128.8 30 -0.1
128.8 30.049999 -0.2088
128.8 30.1 -0.3488
128.8 30.15 -0.4648
129 28.200001 0.14399999
129 28.25 0.2192
129 28.299999 0.27360001
129 28.35 0.292
129 28.4 0.30000001
129 28.450001 0.3064
129 28.5 0.30399999
129 28.549999 0.2976
129 28.6 0.31600001
129 28.65 0.31119999
129 28.700001 0.3136
129 28.75 0.45519999
129 28.799999 0.472
129 28.85 0.50800002
129 28.9 0.484
129 28.950001 0.4472
129 29 0.35839999
129 29.049999 0.16
129 29.1 0.72799999
129 29.15 0.85439998
129 29.200001 0.87760001
129 29.25 0.87840003
129 29.299999 0.88319999
129 29.35 0.81599998
129 29.4 0.76480001
129 29.450001 0.71359998
129 29.5 0.64319998
129 29.549999 0.59680003
129 29.6 0.53439999
129 29.65 0.47920001
129 29.700001 0.4064
129 29.75 0.32879999
129 29.799999 0.2568
129 29.85 0.1688
129 29.9 0.088799998
129 29.950001 -0.0071999999
129 30 -0.096000001
129 30.049999 -0.208
129 30.1 -0.3344
129 30.15 -0.46399999
129.2 28.200001 0.1552
129.2 28.25 0.2192
129.2 28.299999 0.26719999
129.2 28.35 0.296
129.2 28.4 0.30160001
129.2 28.450001 0.30239999
129.2 28.5 0.3944
129.2 28.549999 0.34400001
129.2 28.6 0.30880001
129.2 28.65 0.30880001
129.2 28.700001 0.30320001
129.2 28.75 0.34639999
129.2 28.799999 0.43520001
129.2 28.85 0.43920001
129.2 28.9 0.43520001
129.2 28.950001 0.4192
129.2 29 0.14480001
129.2 29.049999 0.13680001
129.2 29.1 0.73199999
129.2 29.15 0.85119998
129.2 29.200001 0.88080001
129.2 29.25 0.88
129.2 29.299999 0.87919998
129.2 29.35 0.81760001
129.2 29.4 0.7712
129.2 29.450001 0.72640002
129.2 29.5 0.6584
129.2 29.549999 0.60640001
129.2 29.6 0.53359997
129.2 29.65 0.46560001
129.2 29.700001 0.4064
129.2 29.75 0.33039999
129.2 29.799999 0.25440001
129.2 29.85 0.1752
129.2 29.9 0.1152
129.2 29.950001 -0.0063999998
129.2 30 -0.1048
129.2 30.049999 -0.2176
129.2 30.1 -0.3328
129.2 30.15 -0.46799999
129.2 30.200001 -0.60399997
129.39999 28.200001 0.1592
129.39999 28.25 0.2368
129.39999 28.299999 0.28960001
129.39999 28.35 0.3008
129.39999 28.4 0.3136
129.39999 28.450001 0.3152
129.39999 28.5 0.3048
129.39999 28.549999 0.3048
129.39999 28.6 0.3152
129.39999 28.65 0.31279999
129.39999 28.700001 0.3184
129.39999 28.75 0.33199999
129.39999 28.799999 0.34799999
129.39999 28.85 0.45280001
129.39999 28.9 0.43200001
129.39999 28.950001 0.38800001
129.39999 29 0.1552
129.39999 29.049999 0.1464
129.39999 29.1 0.7392
129.39999 29.15 0.83679998
129.39999 29.200001 0.88
129.39999 29.25 0.89279997
129.39999 29.299999 0.88
129.39999 29.35 0.81999999
129.39999 29.4 0.76719999
129.39999 29.450001 0.71439999
129.39999 29.5 0.65920001
129.39999 29.549999 0.60320002
129.39999 29.6 0.54079998
129.39999 29.65 0.472
129.39999 29.700001 0.40079999
129.39999 29.75 0.3344
129.39999 29.799999 0.2536
129.39999 29.85 0.19760001
129.39999 29.9 0.086400002
129.39999 29.950001 -0.0024000001
129.39999 30 -0.097599998
129.39999 30.049999 -0.2008
129.39999 30.1 -0.33039999
129.39999 30.15 -0.4576
129.60001 28.15 0.1328
129.60001 28.200001 0.164
129.60001 28.25 0.2264
129.60001 28.299999 0.28400001
129.60001 28.35 0.30000001
129.60001 28.4 0.31279999
129.60001 28.450001 0.31439999
129.60001 28.5 0.31600001
129.60001 28.549999 0.33680001
129.60001 28.6 0.3344
129.60001 28.65 0.32800001
129.60001 28.700001 0.3712
129.60001 28.75 0.38080001
129.60001 28.799999 0.35280001
129.60001 28.85 0.352
129.60001 28.9 0.292
129.60001 28.950001 0.1568
129.60001 29 0.156
129.60001 29.049999 0.1488
129.60001 29.1 0.7392
129.60001 29.15 0.83840001
129.60001 29.200001 0.88559997
129.60001 29.25 0.88080001
129.60001 29.299999 0.8768
129.60001 29.35 0.81840003
129.60001 29.4 0.77600002
129.60001 29.450001 0.70959997
129.60001 29.5 0.67360002
129.60001 29.549999 0.60879999
129.60001 29.6 0.53920001
129.60001 29.65 0.47440001
129.60001 29.700001 0.41600001
129.60001 29.75 0.33919999
129.60001 29.799999 0.27039999
129.60001 29.85 0.19599999
129.60001 29.9 0.092
129.60001 29.950001 0.0144
129.60001 30 -0.089599997
129.60001 30.049999 -0.1992
129.60001 30.1 -0.32640001
129.8 28.15 0.248
129.8 28.200001 0.2888
129.8 28.25 0.30000001
129.8 28.299999 0.30880001
129.8 28.35 0.31279999
129.8 28.4 0.32319999
129.8 28.450001 0.3344
129.8 28.5 0.3488
129.8 28.549999 0.3624
129.8 28.6 0.32080001
129.8 28.65 0.308
129.8 28.700001 0.35440001
129.8 28.75 0.41440001
129.8 28.799999 0.396
129.8 28.85 0.3928
129.8 28.9 0.27520001
129.8 28.950001 0.1312
129.8 29 0.1176
129.8 29.049999 0.1424
129.8 29.1 0.73199999
129.8 29.15 0.8344
129.8 29.200001 0.87519997
129.8 29.25 0.88959998
129.8 29.299999 0.88160002
129.8 29.35 0.82160002
129.8 29.4 0.76880002
129.8 29.450001 0.72399998
129.8 29.5 0.66399997
129.8 29.549999 0.60879999
129.8 29.6 0.54320002
129.8 29.65 0.4928
129.8 29.700001 0.41760001
129.8 29.75 0.34799999
129.8 29.799999 0.26800001
129.8 29.85 0.18080001
129.8 29.9 0.1112
129.8 29.950001 0.0112
129.8 30 -0.089599997
129.8 30.049999 -0.18880001
129.8 30.1 -0.32480001
129.8 30.15 -0.43599999
130 28.15 0.1568
130 28.200001 0.28
130 28.25 0.30559999
130 28.299999 0.31920001
130 28.35 0.336
130 28.4 0.3328
130 28.450001 0.34799999
130 28.5 0.33759999
130 28.549999 0.33919999
130 28.6 0.3256
130 28.65 0.32879999
130 28.700001 0.35440001
130 28.75 0.368
130 28.799999 0.34720001
130 28.85 0.37040001
130 28.9 0.3008
130 28.950001 0.1496
130 29 0.1512
130 29.049999 0.1232
130 29.1 0.72399998
130 29.15 0.85839999
130 29.200001 0.87599999
130 29.25 0.88
130 29.299999 0.87599999
130 29.35 0.82639998
130 29.4 0.77359998
130 29.450001 0.72079998
130 29.5 0.66799998
130 29.549999 0.60960001
130 29.6 0.55199999
130 29.65 0.48559999
130 29.700001 0.42399999
130 29.75 0.3432
130 29.799999 0.2728
130 29.85 0.2024
130 29.9 0.1056
130 29.950001 0.0088
130 30 -0.088
130 30.049999 -0.2
130 30.1 -0.27759999
130 30.15 -0.43439999
130.2 28.15 0.092799999
130.2 28.200001 0.2904
130.2 28.25 0.32480001
130.2 28.299999 0.3152
130.2 28.35 0.31439999
130.2 28.4 0.31439999
130.2 28.450001 0.31040001
130.2 28.5 0.30880001
130.2 28.549999 0.30000001
130.2 28.6 0.30720001
130.2 28.65 0.2904
130.2 28.700001 0.32080001
130.2 28.75 0.33360001
130.2 28.799999 0.31279999
130.2 28.85 0.30160001
130.2 28.9 0.292
130.2 28.950001 0.17919999
130.2 29 0.1392
130.2 29.049999 0.3888
130.2 29.1 0.73360002
130.2 29.15 0.82880002
130.2 29.200001 0.88160002
130.2 29.25 0.884
130.2 29.299999 0.88959998
130.2 29.35 0.8312
130.2 29.4 0.77200001
130.2 29.450001 0.72960001
130.2 29.5 0.6728
130.2 29.549999 0.6128
130.2 29.6 0.55119997
130.2 29.65 0.48640001
130.2 29.700001 0.42559999
130.2 29.75 0.35839999
130.2 29.799999 0.26879999
130.2 29.85 0.2024
130.2 29.9 0.1104
130.2 29.950001 0.0136
130.2 30 -0.071999997
130.2 30.049999 -0.2008
130.2 30.1 -0.28479999
130.2 30.15 -0.41999999
130.39999 28.200001 0.25119999
130.39999 28.25 0.2976
130.39999 28.299999 0.31040001
130.39999 28.35 0.30880001
130.39999 28.4 0.31040001
130.39999 28.450001 0.32480001
130.39999 28.5 0.31760001
130.39999 28.549999 0.31279999
130.39999 28.6 0.33199999
130.39999 28.65 0.3136
130.39999 28.700001 0.29679999
130.39999 28.75 0.2992
130.39999 28.799999 0.30160001
130.39999 28.85 0.30399999
130.39999 28.9 0.29280001
130.39999 28.950001 0.29679999
130.39999 29 0.29120001
130.39999 29.049999 0.28960001
130.39999 29.1 0.73199999
130.39999 29.15 0.77039999
130.39999 29.200001 0.88160002
130.39999 29.25 0.88080001
130.39999 29.299999 0.88080001
130.39999 29.35 0.81919998
130.39999 29.4 0.7744
130.39999 29.450001 0.72719997
130.39999 29.5 0.6688
130.39999 29.549999 0.61680001
130.39999 29.6 0.55440003
130.39999 29.65 0.49439999
130.39999 29.700001 0.42559999
130.39999 29.75 0.35600001
130.39999 29.799999 0.27680001
130.39999 29.85 0.1952
130.39999 29.9 0.1224
130.39999 29.950001 0.0152
130.39999 30 -0.0744
130.39999 30.049999 -0.1848
130.39999 30.1 -0.3048
130.39999 30.15 -0.42559999
130.39999 30.200001 -0.60320002
130.60001 28.15 0.092799999
130.60001 28.200001 0.2296
130.60001 28.25 0.30160001
130.60001 28.299999 0.32159999
130.60001 28.35 0.32879999
130.60001 28.4 0.3256
130.60001 28.450001 0.32480001
130.60001 28.5 0.32480001
130.60001 28.549999 0.3224
130.60001 28.6 0.30399999
130.60001 28.65 0.308
130.60001 28.700001 0.31040001
130.60001 28.75 0.30720001
130.60001 28.799999 0.29440001
130.60001 28.85 0.28560001
130.60001 28.9 0.28080001
130.60001 28.950001 0.28479999
130.60001 29 0.2608
130.60001 29.049999 0.27520001
130.60001 29.1 0.72960001
130.60001 29.15 0.78960001
130.60001 29.200001 0.87919998
130.60001 29.25 0.87760001
130.60001 29.299999 0.88
130.60001 29.35 0.82480001
130.60001 29.4 0.77280003
130.60001 29.450001 0.72479999
130.60001 29.5 0.66720003
130.60001 29.549999 0.61680001
130.60001 29.6 0.55360001
130.60001 29.65 0.49360001
130.60001 29.700001 0.42160001
130.60001 29.75 0.3608
130.60001 29.799999 0.2816
130.60001 29.85 0.19840001
130.60001 29.9 0.1048
130.60001 29.950001 0.0328
130.60001 30 -0.068800002
130.60001 30.049999 -0.1656
130.60001 30.1 -0.3184
130.60001 30.15 -0.44
130.60001 30.200001 -0.57200003
130.8 28.15 0.1152
130.8 28.200001 0.17919999
130.8 28.25 0.27360001
130.8 28.299999 0.292
130.8 28.35 0.31600001
130.8 28.4 0.31040001
130.8 28.450001 0.31040001
130.8 28.5 0.31119999
130.8 28.549999 0.31119999
130.8 28.6 0.31119999
130.8 28.65 0.30559999
130.8 28.700001 0.3096
130.8 28.75 0.32319999
130.8 28.799999 0.3008
130.8 28.85 0.31999999
130.8 28.9 0.2904
130.8 28.950001 0.30399999
130.8 29 0.30320001
130.8 29.049999 0.3224
130.8 29.1 0.73280001
130.8 29.15 0.78560001
130.8 29.200001 0.87919998
130.8 29.25 0.88639998
130.8 29.299999 0.88239998
130.8 29.35 0.83679998
130.8 29.4 0.78640002
130.8 29.450001 0.736
130.8 29.5 0.6728
130.8 29.549999 0.62
130.8 29.6 0.55360001
130.8 29.65 0.49759999
130.8 29.700001 0.4208
130.8 29.75 0.36000001
130.8 29.799999 0.2816
130.8 29.85 0.2088
130.8 29.9 0.124
130.8 29.950001 0.0176
130.8 30 -0.071999997
130.8 30.049999 -0.1728
130.8 30.1 -0.2712
130.8 30.15 -0.41760001
131 28.15 0.1032
131 28.200001 0.15440001
131 28.25 0.27680001
131 28.299999 0.3008
131 28.35 0.30880001
131 28.4 0.3048
131 28.450001 0.308
131 28.5 0.31600001
131 28.549999 0.30720001
131 28.6 0.30239999
131 28.65 0.3048
131 28.700001 0.29840001
131 28.75 0.31600001
131 28.799999 0.3064
131 28.85 0.3008
131 28.9 0.30239999
131 28.950001 0.32159999
131 29 0.30239999
131 29.049999 0.32319999
131 29.1 0.72719997
131 29.15 0.77039999
131 29.200001 0.87840003
131 29.25 0.88480002
131 29.299999 0.884
131 29.35 0.83200002
131 29.4 0.77999997
131 29.450001 0.73680001
131 29.5 0.67680001
131 29.549999 0.62480003
131 29.6 0.56
131 29.65 0.50480002
131 29.700001 0.428
131 29.75 0.36480001
131 29.799999 0.28080001
131 29.85 0.20640001
131 29.9 0.1224
131 29.950001 0.024800001
131 30 -0.064800002
131 30.049999 -0.17839999
131 30.1 -0.27680001
131 30.15 -0.41600001
131 30.200001 -0.57520002
131.2 28.15 0.062399998
131.2 28.200001 0.1488
131.2 28.25 0.29120001
131.2 28.299999 0.3152
131.2 28.35 0.32879999
131.2 28.4 0.33680001
131.2 28.450001 0.3312
131.2 28.5 0.32319999
131.2 28.549999 0.30559999
131.2 28.6 0.30559999
131.2 28.65 0.30320001
131.2 28.700001 0.292
131.2 28.75 0.29840001
131.2 28.799999 0.3064
131.2 28.85 0.31999999
131.2 28.9 0.30720001
131.2 28.950001 0.31119999
131.2 29 0.27919999
131.2 29.049999 0.252
131.2 29.1 0.72479999
131.2 29.15 0.77600002
131.2 29.200001 0.87519997
131.2 29.25 0.88480002
131.2 29.299999 0.88319999
131.2 29.35 0.83999997
131.2 29.4 0.78640002
131.2 29.450001 0.73680001
131.2 29.5 0.67919999
131.2 29.549999 0.61839998
131.2 29.6 0.56559998
131.2 29.65 0.49680001
131.2 29.700001 0.4296
131.2 29.75 0.36320001
131.2 29.799999 0.29120001
131.2 29.85 0.192
131.2 29.9 0.1304
131.2 29.950001 0.035999998
131.2 30 -0.064800002
131.2 30.049999 -0.16240001
131.2 30.1 -0.2816
131.2 30.15 -0.4064
131.2 30.200001 -0.56160003
131.39999 28.200001 0.1464
131.39999 28.25 0.28479999
131.39999 28.299999 0.3008
131.39999 28.35 0.3184
131.39999 28.4 0.32879999
131.39999 28.450001 0.32960001
131.39999 28.5 0.3184
131.39999 28.549999 0.3224
131.39999 28.6 0.32800001
131.39999 28.65 0.324
131.39999 28.700001 0.31999999
131.39999 28.75 0.33199999
131.39999 28.799999 0.33039999
131.39999 28.85 0.34240001
131.39999 28.9 0.32480001
131.39999 28.950001 0.32159999
131.39999 29 0.30239999
131.39999 29.049999 0.28080001
131.39999 29.1 0.72240001
131.39999 29.15 0.74800003
131.39999 29.200001 0.86879998
131.39999 29.25 0.88480002
131.39999 29.299999 0.87840003
131.39999 29.35 0.84640002
131.39999 29.4 0.78799999
131.39999 29.450001 0.73439997
131.39999 29.5 0.6832
131.39999 29.549999 0.62480003
131.39999 29.6 0.56800002
131.39999 29.65 0.48800001
131.39999 29.700001 0.43279999
131.39999 29.75 0.37040001
131.39999 29.799999 0.28639999
131.39999 29.85 0.21520001
131.39999 29.9 0.1168
131.39999 29.950001 0.047200002
131.39999 30 -0.045600001
131.39999 30.049999 -0.1576
131.39999 30.1 -0.26800001
131.39999 30.15 -0.4048
131.39999 30.200001 -0.5528
131.39999 30.25 -0.71359998
131.60001 28.200001 0.17200001
131.60001 28.25 0.27599999
131.60001 28.299999 0.30160001
131.60001 28.35 0.308
131.60001 28.4 0.30000001
131.60001 28.450001 0.2976
131.60001 28.5 0.30320001
131.60001 28.549999 0.30239999
131.60001 28.6 0.29679999
131.60001 28.65 0.29840001
131.60001 28.700001 0.3008
131.60001 28.75 0.3008
131.60001 28.799999 0.30320001
131.60001 28.85 0.324
131.60001 28.9 0.27919999
131.60001 28.950001 0.27759999
131.60001 29 0.2656
131.60001 29.049999 0.248
131.60001 29.1 0.73439997
131.60001 29.15 0.75440001
131.60001 29.200001 0.8696
131.60001 29.25 0.87919998
131.60001 29.299999 0.88080001
131.60001 29.35 0.84240001
131.60001 29.4 0.79280001
131.60001 29.450001 0.7392
131.60001 29.5 0.68559998
131.60001 29.549999 0.62800002
131.60001 29.6 0.56480002
131.60001 29.65 0.50400001
131.60001 29.700001 0.43599999
131.60001 29.75 0.36719999
131.60001 29.799999 0.29840001
131.60001 29.85 0.2208
131.60001 29.9 0.1312
131.60001 29.950001 0.034400001
131.60001 30 -0.053599998
131.60001 30.049999 -0.1656
131.60001 30.1 -0.26800001
131.60001 30.15 -0.4016
131.60001 30.200001 -0.55760002
131.8 28.200001 0.1464
131.8 28.25 0.27039999
131.8 28.299999 0.29679999
131.8 28.35 0.30559999
131.8 28.4 0.32480001
131.8 28.450001 0.3256
131.8 28.5 0.29840001
131.8 28.549999 0.30320001
131.8 28.6 0.30399999
131.8 28.65 0.3064
131.8 28.700001 0.3048
131.8 28.75 0.29679999
131.8 28.799999 0.2976
131.8 28.85 0.29840001
131.8 28.9 0.34
131.8 28.950001 0.3504
131.8 29 0.33680001
131.8 29.049999 0.28479999
131.8 29.1 0.54479998
131.8 29.15 0.74720001
131.8 29.200001 0.87360001
131.8 29.25 0.88080001
131.8 29.299999 0.88319999
131.8 29.35 0.84240001
131.8 29.4 0.78320003
131.8 29.450001 0.74080002
131.8 29.5 0.6864
131.8 29.549999 0.62400001
131.8 29.6 0.56559998
131.8 29.65 0.52079999
131.8 29.700001 0.4384
131.8 29.75 0.38
131.8 29.799999 0.30720001
131.8 29.85 0.22239999
131.8 29.9 0.1304
131.8 29.950001 0.039999999
131.8 30 -0.055199999
131.8 30.049999 -0.1592
131.8 30.1 -0.26159999
131.8 30.15 -0.37439999
131.8 30.200001 -0.54640001
131.8 30.25 -0.70719999
132 28.200001 0.1136
132 28.25 0.2696
132 28.299999 0.30000001
132 28.35 0.30399999
132 28.4 0.31600001
132 28.450001 0.33199999
132 28.5 0.33360001
132 28.549999 0.3136
132 28.6 0.31040001
132 28.65 0.31279999
132 28.700001 0.32879999
132 28.75 0.32800001
132 28.799999 0.32159999
132 28.85 0.30239999
132 28.9 0.31920001
132 28.950001 0.41119999
132 29 0.31200001
132 29.049999 0.30720001
132 29.1 0.70719999
132 29.15 0.74559999
132 29.200001 0.87599999
132 29.25 0.87919998
132 29.299999 0.88480002
132 29.35 0.86080003
132 29.4 0.79680002
132 29.450001 0.74559999
132 29.5 0.68400002
132 29.549999 0.62720001
132 29.6 0.57440001
132 29.65 0.50959998
132 29.700001 0.43759999
132 29.75 0.37040001
132 29.799999 0.29440001
132 29.85 0.2184
132 29.9 0.13600001
132 29.950001 0.047200002
132 30 -0.034400001
132 30.049999 -0.1464
132 30.1 -0.2728
132 30.15 -0.39199999
132 30.200001 -0.55040002
132 30.25 -0.71200001
132.2 28.200001 0.1216
132.2 28.25 0.24240001
132.2 28.299999 0.29440001
132.2 28.35 0.30000001
132.2 28.4 0.30559999
132.2 28.450001 0.3152
132.2 28.5 0.3048
132.2 28.549999 0.31200001
132.2 28.6 0.30239999
132.2 28.65 0.3152
132.2 28.700001 0.3256
132.2 28.75 0.31920001
132.2 28.799999 0.31279999
132.2 28.85 0.3328
132.2 28.9 0.32319999
132.2 28.950001 0.3168
132.2 29 0.30000001
132.2 29.049999 0.3064
132.2 29.1 0.69520003
132.2 29.15 0.75120002
132.2 29.200001 0.88880002
132.2 29.25 0.88639998
132.2 29.299999 0.884
132.2 29.35 0.85360003
132.2 29.4 0.80239999
132.2 29.450001 0.74080002
132.2 29.5 0.69760001
132.2 29.549999 0.63999999
132.2 29.6 0.56239998
132.2 29.65 0.50559998
132.2 29.700001 0.45039999
132.2 29.75 0.36880001
132.2 29.799999 0.29359999
132.2 29.85 0.2192
132.2 29.9 0.14560001
132.2 29.950001 0.051199999
132.2 30 -0.0504
132.2 30.049999 -0.1472
132.2 30.1 -0.27599999
132.2 30.15 -0.38479999
132.2 30.200001 -0.54000002
132.2 30.25 -0.70880002
132.39999 28.200001 0.1392
132.39999 28.25 0.2608
132.39999 28.299999 0.292
132.39999 28.35 0.30720001
132.39999 28.4 0.30720001
132.39999 28.450001 0.31279999
132.39999 28.5 0.31119999
132.39999 28.549999 0.31439999
132.39999 28.6 0.32080001
132.39999 28.65 0.31279999
132.39999 28.700001 0.3048
132.39999 28.75 0.308
132.39999 28.799999 0.3256
132.39999 28.85 0.30880001
132.39999 28.9 0.3008
132.39999 28.950001 0.29359999
132.39999 29 0.2872
132.39999 29.049999 0.2816
132.39999 29.1 0.71679997
132.39999 29.15 0.75599998
132.39999 29.200001 0.87599999
132.39999 29.25 0.88559997
132.39999 29.299999 0.88559997
132.39999 29.35 0.85119998
132.39999 29.4 0.80239999
132.39999 29.450001 0.74239999
132.39999 29.5 0.69840002
132.39999 29.549999 0.62959999
132.39999 29.6 0.56959999
132.39999 29.65 0.50959998
132.39999 29.700001 0.44
132.39999 29.75 0.3856
132.39999 29.799999 0.292
132.39999 29.85 0.2216
132.39999 29.9 0.1432
132.39999 29.950001 0.053599998
132.39999 30 -0.040800001
132.39999 30.049999 -0.1472
132.39999 30.1 -0.264
132.39999 30.15 -0.3768
132.39999 30.200001 -0.53119999
132.39999 30.25 -0.6864
132.60001 28.200001 0.1168
132.60001 28.25 0.1912
132.60001 28.299999 0.28479999
132.60001 28.35 0.29679999
132.60001 28.4 0.2976
132.60001 28.450001 0.29440001
132.60001 28.5 0.29840001
132.60001 28.549999 0.2992
132.60001 28.6 0.31279999
132.60001 28.65 0.31760001
132.60001 28.700001 0.31040001
132.60001 28.75 0.32879999
132.60001 28.799999 0.33520001
132.60001 28.85 0.31999999
132.60001 28.9 0.3008
132.60001 28.950001 0.29280001
132.60001 29 0.29359999
132.60001 29.049999 0.28799999
132.60001 29.1 0.34799999
132.60001 29.15 0.75279999
132.60001 29.200001 0.87360001
132.60001 29.25 0.884
132.60001 29.299999 0.88480002
132.60001 29.35 0.8592
132.60001 29.4 0.79040003
132.60001 29.450001 0.75279999
132.60001 29.5 0.68959999
132.60001 29.549999 0.63520002
132.60001 29.6 0.58560002
132.60001 29.65 0.51679999
132.60001 29.700001 0.45359999
132.60001 29.75 0.38
132.60001 29.799999 0.3096
132.60001 29.85 0.22400001
132.60001 29.9 0.1488
132.60001 29.950001 0.0704
132.60001 30 -0.0288
132.60001 30.049999 -0.156
132.60001 30.1 -0.25279999
132.60001 30.15 -0.37279999
132.60001 30.200001 -0.5248
132.60001 30.25 -0.68879998
132.8 28.200001 0.13680001
132.8 28.25 0.248
132.8 28.299999 0.29679999
132.8 28.35 0.29679999
132.8 28.4 0.30320001
132.8 28.450001 0.30399999
132.8 28.5 0.31200001
132.8 28.549999 0.30720001
132.8 28.6 0.308
132.8 28.65 0.30160001
132.8 28.700001 0.30320001
132.8 28.75 0.31760001
132.8 28.799999 0.352
132.8 28.85 0.3872
132.8 28.9 0.32319999
132.8 28.950001 0.30720001
132.8 29 0.29280001
132.8 29.049999 0.28479999
132.8 29.1 0.336
132.8 29.15 0.736
132.8 29.200001 0.86479998
132.8 29.25 0.88480002
132.8 29.299999 0.88880002
132.8 29.35 0.86159998
132.8 29.4 0.796
132.8 29.450001 0.75520003
132.8 29.5 0.69279999
132.8 29.549999 0.63440001
132.8 29.6 0.57840002
132.8 29.65 0.51440001
132.8 29.700001 0.45199999
132.8 29.75 0.38479999
132.8 29.799999 0.30880001
132.8 29.85 0.23199999
132.8 29.9 0.15360001
132.8 29.950001 0.063199997
132.8 30 -0.0328
132.8 30.049999 -0.1432
132.8 30.1 -0.2392
132.8 30.15 -0.3768
132.8 30.200001 -0.51440001
132.8 30.25 -0.66720003
132.8 30.299999 -0.86799997
132.8 30.35 -1.1576
133 28.200001 0.086400002
133 28.25 0.2608
133 28.299999 0.2992
133 28.35 0.2976
133 28.4 0.30160001
133 28.450001 0.30720001
133 28.5 0.32800001
133 28.549999 0.32319999
133 28.6 0.3224
133 28.65 0.32319999
133 28.700001 0.3328
133 28.75 0.3224
133 28.799999 0.34720001
133 28.85 0.35839999
133 28.9 0.34720001
133 28.950001 0.35280001
133 29 0.296
133 29.049999 0.2904
133 29.1 0.57120001
133 29.15 0.74159998
133 29.200001 0.86400002
133 29.25 0.88480002
133 29.299999 0.88480002
133 29.35 0.85600001
133 29.4 0.80080003
133 29.450001 0.75440001
133 29.5 0.69999999
133 29.549999 0.64719999
133 29.6 0.58639997
133 29.65 0.51920003
133 29.700001 0.45199999
133 29.75 0.38640001
133 29.799999 0.3184
133 29.85 0.25279999
133 29.9 0.1552
133 29.950001 0.057599999
133 30 -0.033599999
133 30.049999 -0.1312
133 30.1 -0.24240001
133 30.15 -0.3752
133.2 28.200001 0.1432
133.2 28.25 0.27680001
133.2 28.299999 0.3168
133.2 28.35 0.3224
133.2 28.4 0.31600001
133.2 28.450001 0.31760001
133.2 28.5 0.3224
133.2 28.549999 0.32319999
133.2 28.6 0.324
133.2 28.65 0.3184
133.2 28.700001 0.31600001
133.2 28.75 0.3344
133.2 28.799999 0.32480001
133.2 28.85 0.32480001
133.2 28.9 0.32480001
133.2 28.950001 0.3184
133.2 29 0.29679999
133.2 29.049999 0.30880001
133.2 29.1 0.30239999
133.2 29.15 0.74080002
133.2 29.200001 0.86479998
133.2 29.25 0.88239998
133.2 29.299999 0.88239998
133.2 29.35 0.86000001
133.2 29.4 0.80800003
133.2 29.450001 0.75120002
133.2 29.5 0.70560002
133.2 29.549999 0.64240003
133.2 29.6 0.57840002
133.2 29.65 0.51599997
133.2 29.700001 0.45919999
133.2 29.75 0.39039999
133.2 29.799999 0.3168
133.2 29.85 0.23999999
133.2 29.9 0.1496
133.2 29.950001 0.062399998
133.2 30 -0.024800001
133.2 30.049999 -0.1328
133.2 30.1 -0.252
133.2 30.15 -0.3576
133.2 30.200001 -0.52399999
133.2 30.25 -0.66079998
133.39999 28.15 -0.0744
133.39999 28.200001 0.1088
133.39999 28.25 0.164
133.39999 28.299999 0.2888
133.39999 28.35 0.3008
133.39999 28.4 0.29679999
133.39999 28.450001 0.30160001
133.39999 28.5 0.30559999
133.39999 28.549999 0.32879999
133.39999 28.6 0.30880001
133.39999 28.65 0.32480001
133.39999 28.700001 0.31920001
133.39999 28.75 0.324
133.39999 28.799999 0.34
133.39999 28.85 0.32800001
133.39999 28.9 0.3184
133.39999 28.950001 0.32080001
133.39999 29 0.31040001
133.39999 29.049999 0.32480001
133.39999 29.1 0.4224
133.39999 29.15 0.74400002
133.39999 29.200001 0.86479998
133.39999 29.25 0.87919998
133.39999 29.299999 0.88319999
133.39999 29.35 0.87440002
133.39999 29.4 0.80400002
133.39999 29.450001 0.76639998
133.39999 29.5 0.70639998
133.39999 29.549999 0.65280002
133.39999 29.6 0.59039998
133.39999 29.65 0.528
133.39999 29.700001 0.4632
133.39999 29.75 0.38960001
133.39999 29.799999 0.31760001
133.39999 29.85 0.24240001
133.39999 29.9 0.14480001
133.39999 29.950001 0.081600003
133.39999 30 -0.0152
133.39999 30.049999 -0.12800001
133.39999 30.1 -0.192
133.39999 30.15 -0.38640001
133.39999 30.200001 -0.49520001
133.39999 30.25 -0.68159997
133.39999 30.299999 -0.84640002
133.60001 28.15 -0.1504
133.60001 28.200001 0.0832
133.60001 28.25 0.2008
133.60001 28.299999 0.29359999
133.60001 28.35 0.30320001
133.60001 28.4 0.30399999
133.60001 28.450001 0.30239999
133.60001 28.5 0.32879999
133.60001 28.549999 0.32800001
133.60001 28.6 0.31920001
133.60001 28.65 0.33039999
133.60001 28.700001 0.33680001
133.60001 28.75 0.33680001
133.60001 28.799999 0.32800001
133.60001 28.85 0.3224
133.60001 28.9 0.30880001
133.60001 28.950001 0.30000001
133.60001 29 0.2992
133.60001 29.049999 0.29120001
133.60001 29.1 0.41760001
133.60001 29.15 0.74879998
133.60001 29.200001 0.86559999
133.60001 29.25 0.88480002
133.60001 29.299999 0.88639998
133.60001 29.35 0.86879998
133.60001 29.4 0.7992
133.60001 29.450001 0.75760001
133.60001 29.5 0.704
133.60001 29.549999 0.63999999
133.60001 29.6 0.58560002
133.60001 29.65 0.52640003
133.60001 29.700001 0.4648
133.60001 29.75 0.3784
133.60001 29.799999 0.32480001
133.60001 29.85 0.2304
133.60001 29.9 0.17039999
133.60001 29.950001 0.082400002
133.60001 30 -0.0184
133.60001 30.049999 -0.1136
133.60001 30.1 -0.2376
133.60001 30.15 -0.35280001
133.60001 30.200001 -0.49039999
133.60001 30.25 -0.66799998
133.60001 30.299999 -0.8272
133.8 28.200001 0.083999999
133.8 28.25 0.25839999
133.8 28.299999 0.29280001
133.8 28.35 0.29359999
133.8 28.4 0.31200001
133.8 28.450001 0.32879999
133.8 28.5 0.33680001
133.8 28.549999 0.3344
133.8 28.6 0.32800001
133.8 28.65 0.3256
133.8 28.700001 0.33199999
133.8 28.75 0.34959999
133.8 28.799999 0.33360001
133.8 28.85 0.32800001
133.8 28.9 0.33520001
133.8 28.950001 0.32080001
133.8 29 0.31439999
133.8 29.049999 0.31200001
133.8 29.1 0.49680001
133.8 29.15 0.74400002
133.8 29.200001 0.85759997
133.8 29.25 0.88480002
133.8 29.299999 0.8872
133.8 29.35 0.87840003
133.8 29.4 0.80720001
133.8 29.450001 0.76639998
133.8 29.5 0.7008
133.8 29.549999 0.64399999
133.8 29.6 0.58319998
133.8 29.65 0.528
133.8 29.700001 0.4664
133.8 29.75 0.4048
133.8 29.799999 0.32159999
133.8 29.85 0.24879999
133.8 29.9 0.1584
133.8 29.950001 0.091200002
133.8 30 -0.0031999999
133.8 30.049999 -0.104
133.8 30.1 -0.212
133.8 30.15 -0.37599999
133.8 30.200001 -0.44080001
133.8 30.25 -0.60960001
134 28.200001 0.1656
134 28.25 0.26159999
134 28.299999 0.28799999
134 28.35 0.29679999
134 28.4 0.3048
134 28.450001 0.32879999
134 28.5 0.336
134 28.549999 0.336
134 28.6 0.33199999
134 28.65 0.33199999
134 28.700001 0.34400001
134 28.75 0.33840001
134 28.799999 0.3328
134 28.85 0.32879999
134 28.9 0.32879999
134 28.950001 0.34799999
134 29 0.33039999
134 29.049999 0.32879999
134 29.1 0.33919999
134 29.15 0.74080002
134 29.200001 0.85839999
134 29.25 0.88319999
134 29.299999 0.88160002
134 29.35 0.86400002
134 29.4 0.81040001
134 29.450001 0.75760001
134 29.5 0.70560002
134 29.549999 0.64160001
134 29.6 0.59439999
134 29.65 0.54079998
134 29.700001 0.46560001
134 29.75 0.4032
134 29.799999 0.32080001
134 29.85 0.25920001
134 29.9 0.1608
134 29.950001 0.082400002
134 30 -0.0176
134 30.049999 -0.116
134 30.1 -0.21439999
134 30.15 -0.34
134 30.200001 -0.48320001
134 30.25 -0.62159997
134.2 28.200001 0.086400002
134.2 28.25 0.24879999
134.2 28.299999 0.27039999
134.2 28.35 0.29359999
134.2 28.4 0.30399999
134.2 28.450001 0.32640001
134.2 28.5 0.33199999
134.2 28.549999 0.32960001
134.2 28.6 0.33039999
134.2 28.65 0.32800001
134.2 28.700001 0.32319999
134.2 28.75 0.3168
134.2 28.799999 0.32800001
134.2 28.85 0.32800001
134.2 28.9 0.336
134.2 28.950001 0.3504
134.2 29 0.33360001
134.2 29.049999 0.29359999
134.2 29.1 0.42160001
134.2 29.15 0.73439997
134.2 29.200001 0.85519999
134.2 29.25 0.87760001
134.2 29.299999 0.884
134.2 29.35 0.87440002
134.2 29.4 0.81120002
134.2 29.450001 0.7712
134.2 29.5 0.70480001
134.2 29.549999 0.65439999
134.2 29.6 0.5984
134.2 29.65 0.53359997
134.2 29.700001 0.47279999
134.2 29.75 0.3976
134.2 29.799999 0.33199999
134.2 29.85 0.252
134.2 29.9 0.1696
134.2 29.950001 0.0832
134.2 30 -0.012
134.2 30.049999 -0.1112
134.2 30.1 -0.2184
134.2 30.15 -0.3432
134.2 30.200001 -0.484
134.2 30.25 -0.65200001
134.39999 28.200001 -0.0031999999
134.39999 28.25 0.13600001
134.39999 28.299999 0.28
134.39999 28.35 0.3008
134.39999 28.4 0.30880001
134.39999 28.450001 0.31439999
134.39999 28.5 0.3224
134.39999 28.549999 0.32640001
134.39999 28.6 0.32480001
134.39999 28.65 0.32080001
134.39999 28.700001 0.31439999
134.39999 28.75 0.3136
134.39999 28.799999 0.31999999
134.39999 28.85 0.32800001
134.39999 28.9 0.35280001
134.39999 28.950001 0.31200001
134.39999 29 0.32800001
134.39999 29.049999 0.3752
134.39999 29.1 0.36480001
134.39999 29.15 0.73760003
134.39999 29.200001 0.85839999
134.39999 29.25 0.87440002
134.39999 29.299999 0.87840003
134.39999 29.35 0.88319999
134.39999 29.4 0.82160002
134.39999 29.450001 0.76800001
134.39999 29.5 0.70639998
134.39999 29.549999 0.6584
134.39999 29.6 0.60000002
134.39999 29.65 0.54000002
134.39999 29.700001 0.46880001
134.39999 29.75 0.40799999
134.39999 29.799999 0.324
134.39999 29.85 0.2624
134.39999 29.9 0.17839999
134.39999 29.950001 0.085600004
134.39999 30 -0.012
134.39999 30.049999 -0.1064
134.39999 30.1 -0.22319999
134.39999 30.15 -0.33039999
134.39999 30.200001 -0.48719999
134.60001 28.200001 0.084799998
134.60001 28.25 0.16159999
134.60001 28.299999 0.208
134.60001 28.35 0.296
134.60001 28.4 0.30559999
134.60001 28.450001 0.2992
134.60001 28.5 0.3096
134.60001 28.549999 0.32080001
134.60001 28.6 0.31200001
134.60001 28.65 0.3064
134.60001 28.700001 0.3048
134.60001 28.75 0.3008
134.60001 28.799999 0.308
134.60001 28.85 0.32640001
134.60001 28.9 0.32640001
134.60001 28.950001 0.31760001
134.60001 29 0.30880001
134.60001 29.049999 0.3184
134.60001 29.1 0.41600001
134.60001 29.15 0.73839998
134.60001 29.200001 0.8592
134.60001 29.25 0.88480002
134.60001 29.299999 0.88080001
134.60001 29.35 0.88319999
134.60001 29.4 0.82560003
134.60001 29.450001 0.76719999
134.60001 29.5 0.70880002
134.60001 29.549999 0.66079998
134.60001 29.6 0.59680003
134.60001 29.65 0.53200001
134.60001 29.700001 0.47440001
134.60001 29.75 0.40799999
134.60001 29.799999 0.32800001
134.60001 29.85 0.25440001
134.60001 29.9 0.1928
134.60001 29.950001 0.085600004
134.60001 30 0.0048000002
134.60001 30.049999 -0.1008
134.60001 30.1 -0.2256
134.60001 30.15 -0.32319999
134.60001 30.200001 -0.46959999
134.8 28.200001 0.077600002
134.8 28.25 0.13600001
134.8 28.299999 0.21520001
134.8 28.35 0.29679999
134.8 28.4 0.3008
134.8 28.450001 0.3008
134.8 28.5 0.30559999
134.8 28.549999 0.308
134.8 28.6 0.30399999
134.8 28.65 0.32159999
134.8 28.700001 0.3064
134.8 28.75 0.3064
134.8 28.799999 0.324
134.8 28.85 0.31920001
134.8 28.9 0.32319999
134.8 28.950001 0.3048
134.8 29 0.29840001
134.8 29.049999 0.30559999
134.8 29.1 0.37439999
134.8 29.15 0.7288
134.8 29.200001 0.84079999
134.8 29.25 0.88080001
134.8 29.299999 0.8768
134.8 29.35 0.87760001
134.8 29.4 0.81999999
134.8 29.450001 0.7744
134.8 29.5 0.71439999
134.8 29.549999 0.66479999
134.8 29.6 0.60399997
134.8 29.65 0.54479998
134.8 29.700001 0.47839999
134.8 29.75 0.40560001
134.8 29.799999 0.33199999
134.8 29.85 0.26320001
134.8 29.9 0.18880001
134.8 29.950001 0.096799999
134.8 30 0.0048000002
134.8 30.049999 -0.088
134.8 30.1 -0.20559999
134.8 30.15 -0.324
134.8 30.200001 -0.4576
134.8 30.25 -0.63440001
135 28.200001 0.092
135 28.25 0.13600001
135 28.299999 0.18880001
135 28.35 0.29440001
135 28.4 0.2992
135 28.450001 0.3008
135 28.5 0.30720001
135 28.549999 0.308
135 28.6 0.31200001
135 28.65 0.3152
135 28.700001 0.3096
135 28.75 0.33039999
135 28.799999 0.31040001
135 28.85 0.3168
135 28.9 0.3136
135 28.950001 0.32080001
135 29 0.3448
135 29.049999 0.40000001
135 29.1 0.35679999
135 29.15 0.73280001
135 29.200001 0.83520001
135 29.25 0.87760001
135 29.299999 0.88239998
135 29.35 0.88080001
135 29.4 0.81999999
135 29.450001 0.76959997
135 29.5 0.72240001
135 29.549999 0.66159999
135 29.6 0.60640001
135 29.65 0.5352
135 29.700001 0.48559999
135 29.75 0.41119999
135 29.799999 0.3344
135 29.85 0.27039999
135 29.9 0.18000001
135 29.950001 0.098399997
135 30 0.0071999999
135 30.049999 -0.088
135 30.1 -0.1992
135 30.15 -0.3256
135 30.200001 -0.46160001
135 30.25 -0.60479999
135.2 28.200001 0.0568
135.2 28.25 0.1248
135.2 28.299999 0.18960001
135.2 28.35 0.3168
135.2 28.4 0.32800001
135.2 28.450001 0.31999999
135.2 28.5 0.31999999
135.2 28.549999 0.32960001
135.2 28.6 0.3224
135.2 28.65 0.30880001
135.2 28.700001 0.30399999
135.2 28.75 0.32319999
135.2 28.799999 0.32960001
135.2 28.85 0.3312
135.2 28.9 0.3312
135.2 28.950001 0.34560001
135.2 29 0.30399999
135.2 29.049999 0.37360001
135.2 29.1 0.38640001
135.2 29.15 0.7256
135.2 29.200001 0.85039997
135.2 29.25 0.87760001
135.2 29.299999 0.88639998
135.2 29.35 0.89039999
135.2 29.4 0.82959998
135.2 29.450001 0.77039999
135.2 29.5 0.71679997
135.2 29.549999 0.66079998
135.2 29.6 0.60320002
135.2 29.65 0.5424
135.2 29.700001 0.4808
135.2 29.75 0.40799999
135.2 29.799999 0.34079999
135.2 29.85 0.2744
135.2 29.9 0.18080001
135.2 29.950001 0.1032
135.2 30 0.0063999998
135.2 30.049999 -0.092799999
135.2 30.1 -0.2024
135.2 30.15 -0.31279999
135.2 30.200001 -0.44479999
135.2 30.25 -0.5808
135.2 30.299999 -0.79040003
135.2 30.35 -1.0688
135.39999 28.200001 0.048799999
135.39999 28.25 0.1176
135.39999 28.299999 0.25760001
135.39999 28.35 0.32640001
135.39999 28.4 0.34
135.39999 28.450001 0.34240001
135.39999 28.5 0.3328
135.39999 28.549999 0.32960001
135.39999 28.6 0.33759999
135.39999 28.65 0.3416
135.39999 28.700001 0.32480001
135.39999 28.75 0.3256
135.39999 28.799999 0.32640001
135.39999 28.85 0.3344
135.39999 28.9 0.34560001
135.39999 28.950001 0.34
135.39999 29 0.36480001
135.39999 29.049999 0.2904
135.39999 29.1 0.31760001
135.39999 29.15 0.73280001
135.39999 29.200001 0.80320001
135.39999 29.25 0.88160002
135.39999 29.299999 0.88639998
135.39999 29.35 0.87599999
135.39999 29.4 0.83999997
135.39999 29.450001 0.77280003
135.39999 29.5 0.72320002
135.39999 29.549999 0.66240001
135.39999 29.6 0.60799998
135.39999 29.65 0.54879999
135.39999 29.700001 0.47760001
135.39999 29.75 0.4136
135.39999 29.799999 0.33520001
135.39999 29.85 0.26800001
135.39999 29.9 0.1856
135.39999 29.950001 0.1
135.39999 30 0.0088
135.39999 30.049999 -0.088
135.39999 30.1 -0.192
135.39999 30.15 -0.3136
135.39999 30.200001 -0.44639999
135.39999 30.25 -0.58399999
135.39999 30.299999 -0.7712
135.60001 28.200001 -0.1016
135.60001 28.25 0.097599998
135.60001 28.299999 0.17919999
135.60001 28.35 0.40959999
135.60001 28.4 0.32800001
135.60001 28.450001 0.3328
135.60001 28.5 0.34
135.60001 28.549999 0.34959999
135.60001 28.6 0.34639999
135.60001 28.65 0.33039999
135.60001 28.700001 0.3168
135.60001 28.75 0.31040001
135.60001 28.799999 0.31040001
135.60001 28.85 0.3168
135.60001 28.9 0.31600001
135.60001 28.950001 0.36480001
135.60001 29 0.3856
135.60001 29.049999 0.38800001
135.60001 29.1 0.44400001
135.60001 29.15 0.73680001
135.60001 29.200001 0.77600002
135.60001 29.25 0.87519997
135.60001 29.299999 0.8872
135.60001 29.35 0.88639998
135.60001 29.4 0.83200002
135.60001 29.450001 0.7712
135.60001 29.5 0.72640002
135.60001 29.549999 0.66799998
135.60001 29.6 0.60879999
135.60001 29.65 0.54879999
135.60001 29.700001 0.47920001
135.60001 29.75 0.42160001
135.60001 29.799999 0.3488
135.60001 29.85 0.28
135.60001 29.9 0.18080001
135.60001 29.950001 0.1056
135.60001 30 0.0144
135.60001 30.049999 -0.079999998
135.60001 30.1 -0.1816
135.60001 30.15 -0.33360001
135.60001 30.200001 -0.45919999
135.60001 30.25 -0.59280002
135.8 28.200001 -0.0063999998
135.8 28.25 0.1192
135.8 28.299999 0.1664
135.8 28.35 0.30000001
135.8 28.4 0.32159999
135.8 28.450001 0.3272
135.8 28.5 0.31760001
135.8 28.549999 0.324
135.8 28.6 0.3184
135.8 28.65 0.3184
135.8 28.700001 0.3184
135.8 28.75 0.30320001
135.8 28.799999 0.296
135.8 28.85 0.30160001
135.8 28.9 0.31200001
135.8 28.950001 0.36480001
135.8 29 0.4032
135.8 29.049999 0.3416
135.8 29.1 0.35440001
135.8 29.15 0.72240001
135.8 29.200001 0.80239999
135.8 29.25 0.88
135.8 29.299999 0.88319999
135.8 29.35 0.87440002
135.8 29.4 0.82959998
135.8 29.450001 0.77200001
135.8 29.5 0.71039999
135.8 29.549999 0.66399997
135.8 29.6 0.61119998
135.8 29.65 0.55040002
135.8 29.700001 0.49039999
135.8 29.75 0.41839999
135.8 29.799999 0.3488
135.8 29.85 0.2656
135.8 29.9 0.192
135.8 29.950001 0.1072
135.8 30 0.0152
135.8 30.049999 -0.081600003
135.8 30.1 -0.19679999
135.8 30.15 -0.32080001
135.8 30.200001 -0.44479999
136 28.15 0.1408
136 28.200001 0.12720001
136 28.25 0.13680001
136 28.299999 0.16240001
136 28.35 0.30000001
136 28.4 0.31920001
136 28.450001 0.3224
136 28.5 0.32640001
136 28.549999 0.31279999
136 28.6 0.31920001
136 28.65 0.3224
136 28.700001 0.32800001
136 28.75 0.3184
136 28.799999 0.31999999
136 28.85 0.3136
136 28.9 0.3064
136 28.950001 0.33199999
136 29 0.4104
136 29.049999 0.39520001
136 29.1 0.30880001
136 29.15 0.74080002
136 29.200001 0.77520001
136 29.25 0.87440002
136 29.299999 0.8872
136 29.35 0.8872
136 29.4 0.83039999
136 29.450001 0.77759999
136 29.5 0.71920002
136 29.549999 0.67199999
136 29.6 0.62800002
136 29.65 0.54320002
136 29.700001 0.4912
136 29.75 0.41440001
136 29.799999 0.34639999
136 29.85 0.27599999
136 29.9 0.19599999
136 29.950001 0.1048
136 30 0.024800001
136 30.049999 -0.082400002
136 30.1 -0.18960001
136 30.15 -0.3064
136 30.200001 -0.4312
136 30.25 -0.57999998
136 30.299999 -0.76719999
136.2 28.049999 0.1912
136.2 28.1 0.1744
136.2 28.15 0.15440001
136.2 28.200001 0.1344
136.2 28.25 0.1152
136.2 28.299999 0.2368
136.2 28.35 0.30000001
136.2 28.4 0.29840001
136.2 28.450001 0.31999999
136.2 28.5 0.33520001
136.2 28.549999 0.3328
136.2 28.6 0.32080001
136.2 28.65 0.32080001
136.2 28.700001 0.32480001
136.2 28.75 0.32960001
136.2 28.799999 0.32800001
136.2 28.85 0.3344
136.2 28.9 0.3768
136.2 28.950001 0.3504
136.2 29 0.31999999
136.2 29.049999 0.28560001
136.2 29.1 0.31040001
136.2 29.15 0.73199999
136.2 29.200001 0.78079998
136.2 29.25 0.88080001
136.2 29.299999 0.87760001
136.2 29.35 0.87279999
136.2 29.4 0.83279997
136.2 29.450001 0.7784
136.2 29.5 0.72719997
136.2 29.549999 0.6688
136.2 29.6 0.6232
136.2 29.65 0.55199999
136.2 29.700001 0.49439999
136.2 29.75 0.41280001
136.2 29.799999 0.36320001
136.2 29.85 0.2816
136.2 29.9 0.20640001
136.2 29.950001 0.1144
136.2 30 0.021600001
136.2 30.049999 -0.0704
136.2 30.1 -0.1752
136.2 30.15 -0.29679999
136.2 30.200001 -0.42480001
136.2 30.25 -0.57920003
136.2 30.299999 -0.76800001
136.2 30.35 -0.94480002
136.39999 28.25 0.1608
136.39999 28.299999 0.26480001
136.39999 28.35 0.27680001
136.39999 28.4 0.29359999
136.39999 28.450001 0.30720001
136.39999 28.5 0.3224
136.39999 28.549999 0.3256
136.39999 28.6 0.33199999
136.39999 28.65 0.32960001
136.39999 28.700001 0.3272
136.39999 28.75 0.31920001
136.39999 28.799999 0.3256
136.39999 28.85 0.32879999
136.39999 28.9 0.31279999
136.39999 28.950001 0.29679999
136.39999 29 0.29280001
136.39999 29.049999 0.2696
136.39999 29.1 0.3888
136.39999 29.15 0.71920002
136.39999 29.200001 0.7992
136.39999 29.25 0.87360001
136.39999 29.299999 0.88
136.39999 29.35 0.88239998
136.39999 29.4 0.84399998
136.39999 29.450001 0.78240001
136.39999 29.5 0.7288
136.39999 29.549999 0.67519999
136.39999 29.6 0.61680001
136.39999 29.65 0.56400001
136.39999 29.700001 0.49439999
136.39999 29.75 0.42640001
136.39999 29.799999 0.35679999
136.39999 29.85 0.2832
136.39999 29.9 0.2032
136.39999 29.950001 0.1224
136.39999 30 0.0352
136.39999 30.049999 -0.076800004
136.39999 30.1 -0.18080001
136.39999 30.15 -0.29519999
136.39999 30.200001 -0.428
136.60001 28.25 0.236
136.60001 28.299999 0.27520001
136.60001 28.35 0.29519999
136.60001 28.4 0.30239999
136.60001 28.450001 0.3048
136.60001 28.5 0.30880001
136.60001 28.549999 0.32080001
136.60001 28.6 0.31920001
136.60001 28.65 0.3272
136.60001 28.700001 0.46239999
136.60001 28.75 0.44479999
136.60001 28.799999 0.61680001
136.60001 28.85 0.55519998
136.60001 28.9 0.3256
136.60001 28.950001 0.31279999
136.60001 29 0.30160001
136.60001 29.049999 0.19840001
136.60001 29.1 0.1768
136.60001 29.15 0.73199999
136.60001 29.200001 0.76880002
136.60001 29.25 0.87279999
136.60001 29.299999 0.88160002
136.60001 29.35 0.88319999
136.60001 29.4 0.84320003
136.60001 29.450001 0.78240001
136.60001 29.5 0.73360002
136.60001 29.549999 0.68000001
136.60001 29.6 0.61680001
136.60001 29.65 0.56080002
136.60001 29.700001 0.50160003
136.60001 29.75 0.43279999
136.60001 29.799999 0.3536
136.60001 29.85 0.2816
136.60001 29.9 0.20479999
136.60001 29.950001 0.1296
136.60001 30 0.0288
136.60001 30.049999 -0.045600001
136.60001 30.1 -0.1592
136.60001 30.15 -0.27599999
136.60001 30.200001 -0.40959999
136.8 28.200001 0.264
136.8 28.25 0.2216
136.8 28.299999 0.2568
136.8 28.35 0.28
136.8 28.4 0.296
136.8 28.450001 0.31040001
136.8 28.5 0.31439999
136.8 28.549999 0.3168
136.8 28.6 0.3184
136.8 28.65 0.31920001
136.8 28.700001 0.33759999
136.8 28.75 0.38319999
136.8 28.799999 0.412
136.8 28.85 0.42640001
136.8 28.9 0.44
136.8 28.950001 0.43520001
136.8 29 0.30559999
136.8 29.049999 0.1104
136.8 29.1 0.1432
136.8 29.15 0.73439997
136.8 29.200001 0.75440001
136.8 29.25 0.87519997
136.8 29.299999 0.88480002
136.8 29.35 0.87919998
136.8 29.4 0.83679998
136.8 29.450001 0.79759997
136.8 29.5 0.72479999
136.8 29.549999 0.67760003
136.8 29.6 0.61440003
136.8 29.65 0.56239998
136.8 29.700001 0.49360001
136.8 29.75 0.42879999
136.8 29.799999 0.36719999
136.8 29.85 0.296
136.8 29.9 0.20559999
136.8 29.950001 0.1208
136.8 30 0.036800001
136.8 30.049999 -0.064800002
136.8 30.1 -0.1688
136.8 30.15 -0.27599999
136.8 30.200001 -0.41440001
136.8 30.25 -0.54640001
136.8 30.299999 -0.73280001
137 28.25 0.16240001
137 28.299999 0.1936
137 28.35 0.23280001
137 28.4 0.26480001
137 28.450001 0.28
137 28.5 0.3048
137 28.549999 0.3184
137 28.6 0.31600001
137 28.65 0.3272
137 28.700001 0.32319999
137 28.75 0.34560001
137 28.799999 0.3432
137 28.85 0.35679999
137 28.9 0.3448
137 28.950001 0.31439999
137 29 0.1584
137 29.049999 0.1608
137 29.1 0.148
137 29.15 0.1424
137 29.200001 0.7712
137 29.25 0.88239998
137 29.299999 0.88080001
137 29.35 0.89279997
137 29.4 0.8448
137 29.450001 0.79040003
137 29.5 0.736
137 29.549999 0.6864
137 29.6 0.62159997
137 29.65 0.56559998
137 29.700001 0.49759999
137 29.75 0.4296
137 29.799999 0.36880001
137 29.85 0.28799999
137 29.9 0.20720001
137 29.950001 0.12
137 30 0.032000002
137 30.049999 -0.058400001
137 30.1 -0.176
137 30.15 -0.27200001
137 30.200001 -0.39919999
137 30.25 -0.57599998
137 30.299999 -0.75279999
137.2 28.25 0.124
137.2 28.299999 0.1848
137.2 28.35 0.236
137.2 28.4 0.2728
137.2 28.450001 0.296
137.2 28.5 0.3064
137.2 28.549999 0.31200001
137.2 28.6 0.33039999
137.2 28.65 0.3312
137.2 28.700001 0.3328
137.2 28.75 0.32800001
137.2 28.799999 0.34079999
137.2 28.85 0.33919999
137.2 28.9 0.3312
137.2 28.950001 0.2976
137.2 29 0.1392
137.2 29.049999 0.14399999
137.2 29.1 0.152
137.2 29.15 0.1136
137.2 29.200001 0.7568
137.2 29.25 0.88080001
137.2 29.299999 0.88480002
137.2 29.35 0.88
137.2 29.4 0.84240001
137.2 29.450001 0.79119998
137.2 29.5 0.74000001
137.2 29.549999 0.68559998
137.2 29.6 0.63440001
137.2 29.65 0.56639999
137.2 29.700001 0.49039999
137.2 29.75 0.43759999
137.2 29.799999 0.38159999
137.2 29.85 0.29679999
137.2 29.9 0.21359999
137.2 29.950001 0.14
137.2 30 0.031199999
137.2 30.049999 -0.0528
137.2 30.1 -0.1664
137.2 30.15 -0.28479999
137.2 30.200001 -0.39520001
137.2 30.25 -0.55839998
137.2 30.299999 -0.70639998
137.39999 28.25 0.096799999
137.39999 28.299999 0.15279999
137.39999 28.35 0.21359999
137.39999 28.4 0.2608
137.39999 28.450001 0.292
137.39999 28.5 0.308
137.39999 28.549999 0.33039999
137.39999 28.6 0.3344
137.39999 28.65 0.3312
137.39999 28.700001 0.33360001
137.39999 28.75 0.33199999
137.39999 28.799999 0.3272
137.39999 28.85 0.3312
137.39999 28.9 0.32480001
137.39999 28.950001 0.15279999
137.39999 29 0.14560001
137.39999 29.049999 0.1384
137.39999 29.1 0.13600001
137.39999 29.15 0.70480001
137.39999 29.200001 0.75040001
137.39999 29.25 0.87440002
137.39999 29.299999 0.884
137.39999 29.35 0.89039999
137.39999 29.4 0.84640002
137.39999 29.450001 0.78799999
137.39999 29.5 0.73519999
137.39999 29.549999 0.68879998
137.39999 29.6 0.62959999
137.39999 29.65 0.56879997
137.39999 29.700001 0.50800002
137.39999 29.75 0.4368
137.39999 29.799999 0.368
137.39999 29.85 0.29280001
137.39999 29.9 0.2168
137.39999 29.950001 0.1328
137.39999 30 0.046399999
137.39999 30.049999 -0.058400001
137.39999 30.1 -0.15279999
137.39999 30.15 -0.28560001
137.39999 30.200001 -0.40560001
137.39999 30.25 -0.55199999
137.39999 30.299999 -0.73760003
137.39999 30.35 -0.89520001
137.60001 28.25 0.048799999
137.60001 28.299999 0.1312
137.60001 28.35 0.22
137.60001 28.4 0.2624
137.60001 28.450001 0.296
137.60001 28.5 0.3184
137.60001 28.549999 0.336
137.60001 28.6 0.32879999
137.60001 28.65 0.3256
137.60001 28.700001 0.31999999
137.60001 28.75 0.34079999
137.60001 28.799999 0.33680001
137.60001 28.85 0.33199999
137.60001 28.9 0.33520001
137.60001 28.950001 0.1568
137.60001 29 0.1568
137.60001 29.049999 0.14399999
137.60001 29.1 0.1392
137.60001 29.15 0.1248
137.60001 29.200001 0.75840002
137.60001 29.25 0.87040001
137.60001 29.299999 0.88080001
137.60001 29.35 0.88480002
137.60001 29.4 0.8488
137.60001 29.450001 0.79360002
137.60001 29.5 0.73760003
137.60001 29.549999 0.68720001
137.60001 29.6 0.6336
137.60001 29.65 0.57520002
137.60001 29.700001 0.50080001
137.60001 29.75 0.44240001
137.60001 29.799999 0.38159999
137.60001 29.85 0.29519999
137.60001 29.9 0.22480001
137.60001 29.950001 0.14480001
137.60001 30 0.047200002
137.60001 30.049999 -0.045600001
137.60001 30.1 -0.148
137.60001 30.15 -0.26800001
137.60001 30.200001 -0.40079999
137.60001 30.25 -0.54400003
137.8 28.299999 0.073600002
137.8 28.35 0.2088
137.8 28.4 0.2608
137.8 28.450001 0.29679999
137.8 28.5 0.33680001
137.8 28.549999 0.33680001
137.8 28.6 0.34959999
137.8 28.65 0.34079999
137.8 28.700001 0.32879999
137.8 28.75 0.31999999
137.8 28.799999 0.3224
137.8 28.85 0.32640001
137.8 28.9 0.29519999
137.8 28.950001 0.148
137.8 29 0.1488
137.8 29.049999 0.14480001
137.8 29.1 0.14480001
137.8 29.15 0.1208
137.8 29.200001 0.74400002
137.8 29.25 0.86799997
137.8 29.299999 0.87919998
137.8 29.35 0.88239998
137.8 29.4 0.85839999
137.8 29.450001 0.78479999
137.8 29.5 0.75279999
137.8 29.549999 0.69279999
137.8 29.6 0.63520002
137.8 29.65 0.57599998
137.8 29.700001 0.51920003
137.8 29.75 0.44960001
137.8 29.799999 0.3696
137.8 29.85 0.30320001
137.8 29.9 0.22239999
137.8 29.950001 0.1384
137.8 30 0.048799999
137.8 30.049999 -0.0296
137.8 30.1 -0.13680001
137.8 30.15 -0.26480001
137.8 30.200001 -0.37200001
137.8 30.25 -0.5072
137.8 30.299999 -0.69440001
137.8 30.35 -0.89840001
138 28.299999 0.0176
138 28.35 0.176
138 28.4 0.228
138 28.450001 0.2712
138 28.5 0.30399999
138 28.549999 0.32640001
138 28.6 0.33360001
138 28.65 0.33520001
138 28.700001 0.33919999
138 28.75 0.33680001
138 28.799999 0.35280001
138 28.85 0.32879999
138 28.9 0.32480001
138 28.950001 0.1464
138 29 0.15279999
138 29.049999 0.1432
138 29.1 0.14480001
138 29.15 0.1176
138 29.200001 0.7432
138 29.25 0.8664
138 29.299999 0.87519997
138 29.35 0.88319999
138 29.4 0.85600001
138 29.450001 0.81199998
138 29.5 0.74800003
138 29.549999 0.70240003
138 29.6 0.63840002
138 29.65 0.57999998
138 29.700001 0.50880003
138 29.75 0.45359999
138 29.799999 0.37760001
138 29.85 0.31040001
138 29.9 0.2256
138 29.950001 0.14560001
138 30 0.0528
138 30.049999 -0.0392
138 30.1 -0.1408
138 30.15 -0.25600001
138 30.200001 -0.3712
138 30.25 -0.54400003
138 30.299999 -0.68400002
138.2 28.35 0.1288
138.2 28.4 0.22319999
138.2 28.450001 0.2568
138.2 28.5 0.2992
138.2 28.549999 0.31760001
138.2 28.6 0.33520001
138.2 28.65 0.34079999
138.2 28.700001 0.3344
138.2 28.75 0.32159999
138.2 28.799999 0.32800001
138.2 28.85 0.32800001
138.2 28.9 0.3136
138.2 28.950001 0.1472
138.2 29 0.14399999
138.2 29.049999 0.1432
138.2 29.1 0.1464
138.2 29.15 0.1256
138.2 29.200001 0.7432
138.2 29.25 0.86799997
138.2 29.299999 0.87840003
138.2 29.35 0.8872
138.2 29.4 0.85360003
138.2 29.450001 0.80080003
138.2 29.5 0.7536
138.2 29.549999 0.69919997
138.2 29.6 0.63999999
138.2 29.65 0.57999998
138.2 29.700001 0.51520002
138.2 29.75 0.45039999
138.2 29.799999 0.384
138.2 29.85 0.30320001
138.2 29.9 0.23280001
138.2 29.950001 0.14560001
138.2 30 0.058400001
138.2 30.049999 -0.0416
138.2 30.1 -0.1376
138.2 30.15 -0.2568
138.2 30.200001 -0.3888
138.2 30.25 -0.44800001
138.2 30.299999 -0.69520003
138.39999 28.299999 0.016799999
138.39999 28.35 0.1928
138.39999 28.4 0.24079999
