# .PCD v0.7 - Point Cloud Data file format
VERSION 0.7
FIELDS x y z
SIZE 4 4 4
TYPE F F F
COUNT 1 1 1
WIDTH 1347
HEIGHT 1
VIEWPOINT 0 0 0 1 0 0 0
POINTS 1347
DATA ascii
0.18196563 0.095716812 0.012459256
0.22068098 0.10542966 -0.073661417
0.20039076 0.11758355 -0.012114478
0.20125943 0.071921892 -0.05151353
0.21326458 0.10023695 -0.058333468
0.21800734 0.10603702 -0.071061552
0.14768028 0.097371466 0.012530539
0.20227103 0.073172964 -0.026086295
0.19545388 0.074606366 -0.02896465
0.19553931 0.074284837 -0.027981985
0.18753304 0.089819357 0.017695922
0.18304352 0.090657346 -0.048627283
0.18414055 0.097674862 0.014169198
0.20465121 0.053563971 -0.086829782
0.11512652 0.035599671 -0.082779512
0.20177095 0.074609056 -0.031102514
0.21502806 0.053149052 -0.095149472
0.21191108 0.098782502 0.00017411634
0.15158394 0.1202731 0.0039222315
0.22658488 0.111412 -0.089685202
0.21401094 0.051548235 -0.091670051
0.22316636 0.096584894 -0.061387319
0.2141511 0.10641339 -0.017335346
0.22551374 0.10853353 -0.057929829
0.22470425 0.1017501 -0.072228789
0.19246857 0.079041585 -0.035735518
0.20263256 0.070527464 -0.019457847
0.12085444 0.016815305 -0.056590654
0.21906674 0.10461795 -0.019362399
0.12569967 0.035513438 -0.083697587
0.12524004 0.033713147 -0.082437664
0.12436533 0.030202828 -0.079880893
0.12402572 0.028507963 -0.078623921
0.2247245 0.10017774 -0.012625869
0.18042155 0.1192781 -0.0034961104
0.18289062 0.11441667 -0.0028860793
0.18509069 0.1125068 -0.002807457
0.18323497 0.11640322 -0.0051712655
0.18313508 0.11574505 -0.0043992884
0.21449833 0.096004188 0.0032385178
0.094067492 0.039658528 -0.074043743
0.094216034 0.040459603 -0.074741215
0.094336838 0.0411782 -0.075473994
0.094472408 0.041917581 -0.076178588
0.09460865 0.042707596 -0.076887682
0.094740309 0.043435179 -0.077604413
0.094918519 0.044267468 -0.078252882
0.095132798 0.045189518 -0.07885918
0.095359467 0.046125479 -0.079436541
0.095606327 0.047133237 -0.080008566
0.095832273 0.048066985 -0.080585301
0.096143901 0.049194954 -0.0810505
0.096535422 0.050507184 -0.081444368
0.096941769 0.051840618 -0.081769884
0.097331047 0.053151704 -0.082173653
0.097685054 0.054377876 -0.082581848
0.098051861 0.055617984 -0.082934588
0.098473817 0.056958266 -0.083203733
0.099041678 0.058676135 -0.083357289
0.099468768 0.060096964 -0.083687246
0.099761456 0.061129857 -0.084146872
0.10009494 0.06235306 -0.084598005
0.10050084 0.063581243 -0.084903434
0.15338045 0.047881983 -0.078901201
0.17328958 0.076033391 -0.052991424
0.17379297 0.076822594 -0.052561935
0.21587674 0.10503755 -0.020461954
0.2067616 0.11101679 -0.0053884424
0.20403351 0.11513483 -0.023983551
0.18508704 0.11876428 -0.014216691
0.19230492 0.11893731 -0.022181584
0.19638282 0.10415494 0.014705639
0.19558051 0.11962596 -0.016868765
0.19861434 0.11632358 -0.0047347769
0.19857714 0.11673281 -0.0056498684
0.21572274 0.094152838 -0.051412977
0.19817859 0.11837568 -0.016369194
0.19802973 0.11863549 -0.017384604
0.21596095 0.10113523 -0.063544616
0.22795373 0.10831999 -0.085667238
0.22068648 0.10447871 -0.044156309
0.14663912 0.10319573 0.011951704
0.22307891 0.097770333 -0.064170316
0.22323614 0.096222699 -0.060269363
0.20324303 0.051721528 -0.080140784
0.14533122 0.10038536 -0.068946779
0.20229918 0.064246088 -0.054876424
0.14961413 0.11778435 0.0060511976
0.19712113 0.078689918 -0.036945753
0.19979461 0.079029515 -0.040205691
0.20818907 0.067830853 -0.068161793
0.19497071 0.10436124 0.014788635
0.17548028 0.087898165 -0.054484591
0.18929392 0.11559443 -0.0043008439
0.17898324 0.094659612 0.0078082122
0.14610021 0.10486288 0.011734381
0.12037744 0.019551121 -0.064326316
0.20413691 0.070144393 -0.019637857
0.20119606 0.071377449 -0.050648257
0.20452468 0.053455912 -0.086132407
0.22382121 0.10971878 -0.06076213
0.1980156 0.092234261 -0.043191928
0.195438 0.077813685 -0.035195079
0.21774967 0.10457882 -0.069606557
0.19565301 0.073617704 -0.026059747
0.1092407 0.021407932 -0.062427387
0.18226297 0.094006211 -0.048865784
0.21301264 0.09691631 -0.053334661
0.20418826 0.051764123 -0.083611131
0.10851333 0.030820228 -0.076605424
0.10925162 0.02096989 -0.061522953
0.17714924 0.1209159 -0.0014234819
0.10925823 0.022815615 -0.065086097
0.20465444 0.073099606 -0.030706791
0.19701061 0.075212836 -0.03086932
0.10927142 0.023290232 -0.065962821
0.10805003 0.019828379 -0.057582445
0.20102276 0.054472808 -0.072831482
0.12355465 0.016994514 -0.058742221
0.1235168 0.017768905 -0.060596384
0.17134537 0.12937568 -0.021017667
0.22366372 0.063987486 -0.065262385
0.21206449 0.097597703 0.0029713847
0.21720518 0.10442832 -0.03958765
0.20424259 0.10033037 0.010261219
0.18536408 0.11679965 -0.027306307
0.1121497 0.041252188 -0.085289091
0.19449028 0.11658831 -0.0035279915
0.18042573 0.11974661 -0.0043775849
0.21229331 0.10133199 -0.0029526651
0.20217632 0.10347781 0.0086075999
0.1830688 0.11518803 -0.0035859235
0.18332048 0.1170201 -0.0059615299
0.094868354 0.037235461 -0.073172882
0.095082924 0.038157515 -0.073779881
0.095267951 0.038996831 -0.074417368
0.095384471 0.039715696 -0.075153306
0.095495567 0.040425003 -0.075893268
0.095632806 0.041163493 -0.076601975
0.09578678 0.041967023 -0.077285811
0.095924139 0.042707846 -0.077988297
0.096127003 0.043615408 -0.078615785
0.096345514 0.04454216 -0.07920818
0.096583679 0.045491412 -0.079751045
0.09683805 0.0465055 -0.080308735
0.097140059 0.047619391 -0.080810368
0.097452514 0.048749253 -0.081264898
0.097895637 0.050166257 -0.081579387
0.098343946 0.051589943 -0.081870422
0.098694533 0.052806437 -0.0823071
0.099009752 0.053943191 -0.082739413
0.099358976 0.055163544 -0.083172396
0.099721059 0.056394711 -0.083554417
0.10014905 0.057732522 -0.083826482
0.1005882 0.059239846 -0.084177554
0.10087097 0.060270689 -0.084666297
0.10121569 0.061494268 -0.085101694
0.10159768 0.062725842 -0.085452646
0.12628268 0.070225067 -0.088298291
0.15274626 0.047133815 -0.079090364
0.16873331 0.077714235 -0.059780173
0.14224179 0.10927662 0.0085742809
0.2258139 0.11345608 -0.072484203
0.17929752 0.10259552 0.0050408654
0.18432286 0.11709847 -0.0082180612
0.16172309 0.12953094 -0.033959817
0.19621614 0.10291439 0.016274001
0.19483632 0.11948457 -0.019392589
0.21183267 0.10904318 -0.025063543
0.19741276 0.10765663 0.0063320138
0.19743203 0.10720363 0.0072279908
0.19854826 0.11802773 -0.014235185
0.19835544 0.11818511 -0.015300646
0.20088032 0.05501036 -0.07188265
0.22793242 0.10875783 -0.086577207
0.20244531 0.052176308 -0.077506855
0.1806279 0.087809347 0.01391957
0.18945216 0.11140946 3.1627715e-05
0.22338368 0.10440888 -0.075349376
0.14526784 0.098819017 -0.072260395
0.11939466 0.027596883 -0.076991126
0.1945177 0.11947933 -0.020580152
0.20183824 0.063945793 -0.056258436
0.13744999 0.095417164 0.00811911
0.19721366 0.079324074 -0.037723597
0.23498127 0.10847538 -0.093515061
0.21719684 0.064625859 -0.073375404
0.10926275 0.020536616 -0.060613971
0.18402351 0.11952323 -0.013768546
0.21839365 0.096480116 -0.059275061
0.1204432 0.019163474 -0.063376442
0.12046129 0.018781573 -0.06244611
0.12036078 0.01995492 -0.065248415
0.22520939 0.10924268 -0.08403711
0.20232689 0.11203364 -0.00021127239
0.10925705 0.023720905 -0.066872217
0.20960093 0.095836997 0.0088407584
0.20881706 0.095971704 -0.047042441
0.19088715 0.11286718 -0.00018372387
0.18795289 0.10567776 0.0058754496
0.21872437 0.10965866 -0.074671209
0.20636199 0.070744619 -0.026222074
0.20643854 0.070400432 -0.025249561
0.21303961 0.097436249 -0.054190535
0.21310419 0.098042503 -0.054988503
0.21313503 0.098572984 -0.055837933
0.22467463 0.1012491 -0.0713671
0.10928318 0.020131081 -0.059695952
0.13185526 0.094956771 0.0046489947
0.20547345 0.06993261 -0.020883191
0.11895235 0.018858351 -0.062455468
0.21711946 0.051424731 -0.092792183
0.21704113 0.052142192 -0.094855055
0.10933601 0.019774027 -0.058734819
0.10685236 0.036459588 -0.080225393
0.1081226 0.019543596 -0.056598958
0.10794935 0.020981379 -0.060389079
0.21587959 0.09309376 -0.048558231
0.10797696 0.024691515 -0.067494579
0.10809302 0.035893135 -0.080539092
0.1078883 0.034991965 -0.07991001
0.1963793 0.11936578 -0.01934389
0.22714652 0.11647767 -0.0858697
0.21332856 0.10078805 -0.059165161
0.2105647 0.10650954 -0.0068627298
0.14353153 0.10218143 -0.072591066
0.09548682 0.033958822 -0.071616799
0.095655322 0.034762278 -0.072302252
0.095833659 0.035592012 -0.072952613
0.096061423 0.036521472 -0.073539048
0.096240848 0.037399918 -0.074203968
0.096408963 0.038225781 -0.074863389
0.096551314 0.038901504 -0.075574189
0.096678391 0.039691743 -0.076287694
0.096843392 0.040511195 -0.076951832
0.097008646 0.041330568 -0.077621505
0.097179249 0.04215394 -0.078282818
0.097363472 0.043002661 -0.078900456
0.097617179 0.044008046 -0.079466283
0.097879276 0.045033909 -0.07999675
0.098175071 0.046133369 -0.080529049
0.098481804 0.047248542 -0.08103101
0.098764777 0.048312951 -0.081438079
0.099297419 0.049918618 -0.081669554
0.09977749 0.051418912 -0.081978574
0.10005179 0.052462947 -0.08244285
0.1003665 0.05359453 -0.082894266
0.10069992 0.054793831 -0.083382197
0.10098243 0.055842269 -0.083845362
0.10130124 0.056973167 -0.084292591
0.10169267 0.058294244 -0.084666789
0.10203499 0.05951374 -0.085103929
0.10240057 0.060743883 -0.085495934
0.10278005 0.061975669 -0.085848019
0.12482047 0.068783805 -0.088327736
0.17709397 0.1237179 -0.0067288131
0.20107941 0.10232648 0.012559284
0.22477435 0.099754892 -0.0117268
0.21358757 0.10089539 -0.0031740963
0.16685027 0.06457074 -0.064015239
0.1843133 0.11660247 -0.0073561072
0.15971574 0.12659301 -0.037832379
0.20641273 0.11378505 -0.011899177
0.12210457 0.10892714 -0.011862569
0.17667381 0.08942841 -0.053967871
0.19745465 0.10822483 0.0055171885
0.19762892 0.1089747 0.0048025921
0.19908527 0.11796787 -0.011939678
0.19885224 0.11805436 -0.01305984
0.19874528 0.10638162 0.0079330355
0.11887129 0.019641533 -0.064329609
0.22509061 0.10714487 -0.080641389
0.2279547 0.10926715 -0.087433398
0.10940765 0.019478053 -0.057750687
0.093516208 0.081259102 0.01321518
0.22354986 0.10565667 -0.076928928
0.22347032 0.10503425 -0.076136202
0.20274474 0.053673863 -0.081241116
0.22403753 0.10003544 -0.009238882
0.11324862 0.020666294 -0.06390772
0.20160665 0.064314827 -0.05710417
0.18589413 0.097371198 0.016654499
0.19745038 0.080687806 -0.039221186
0.11190251 0.025171317 -0.071743064
0.18774953 0.11911008 -0.016313974
0.18974239 0.11922615 -0.014962254
0.10825974 0.019354522 -0.055511985
0.17937231 0.12343627 -0.015021265
0.21001811 0.094482332 -0.046726666
0.19568996 0.086233675 -0.04180143
0.151388 0.1150054 0.0084415041
0.20082264 0.056253005 -0.070051834
0.2199201 0.09606304 -0.059468769
0.12480904 0.020543575 -0.067072965
0.22480741 0.10379709 -0.075663984
0.2118632 0.098972321 -0.054473236
0.23127633 0.10561618 -0.081343487
0.22272541 0.11067982 -0.082081661
0.18420181 0.10214411 0.0066288225
0.23494089 0.10884142 -0.094473541
0.20647822 0.07002537 -0.024310993
0.20151909 0.070521973 -0.04758808
0.10935768 0.035360068 -0.080805957
0.21363094 0.10328965 -0.062330209
0.13546839 0.11780628 -0.0013231821
0.13616526 0.11855163 -0.0014166497
0.20324591 0.053194642 -0.082931705
0.22650138 0.11238562 -0.091549098
0.22658494 0.11091372 -0.08882077
0.22659549 0.10998408 -0.087047502
0.22658101 0.10947685 -0.086185545
0.23507129 0.10778352 -0.09162946
0.10826095 0.028935723 -0.074255452
0.22148275 0.096187338 -0.060509287
0.2129676 0.10583012 -0.0083698295
0.21442251 0.09264262 -0.046534386
0.14239822 0.12135177 -0.0010904111
0.21306247 0.10669073 -0.046661191
0.21733442 0.10143574 -0.065660655
0.20961723 0.069535136 -0.0245116
0.096469879 0.031014957 -0.068718277
0.09653978 0.031602323 -0.06953235
0.096588209 0.032171696 -0.070343181
0.096693493 0.032842003 -0.071112834
0.096791007 0.033502787 -0.071858957
0.096922919 0.034234069 -0.072572835
0.097088888 0.035037287 -0.07325431
0.097249575 0.035851263 -0.073928729
0.09739323 0.03659232 -0.074628025
0.097535774 0.037384979 -0.075332716
0.097665742 0.038115595 -0.07604602
0.097871251 0.039024718 -0.076662973
0.098050684 0.039858736 -0.07731092
0.098262072 0.040782142 -0.077911474
0.098468408 0.041683506 -0.078547999
0.098665439 0.042551599 -0.079126321
0.098920852 0.043562122 -0.079685792
0.099222399 0.04466974 -0.080192089
0.099530503 0.045788724 -0.080681726
0.099799886 0.046824243 -0.08118473
0.10015767 0.048051585 -0.081577197
0.10066102 0.049582303 -0.08177869
0.10109594 0.050990853 -0.082128368
0.10136034 0.052014474 -0.082659058
0.10166839 0.053137988 -0.083136231
0.10197676 0.054260511 -0.083613992
0.10226718 0.055371366 -0.084130764
0.10248412 0.056231242 -0.084678128
0.10280488 0.057359122 -0.085125715
0.10318454 0.058670316 -0.085528493
0.10359617 0.060000326 -0.085844889
0.10400937 0.06132758 -0.086155877
0.17519945 0.083905965 -0.053573687
0.17713261 0.12329678 -0.0058212616
0.21203317 0.1085614 -0.017271465
0.22236905 0.11182763 -0.064210787
0.17745939 0.12485642 -0.024734588
0.16860132 0.068687081 -0.060393229
0.18432139 0.1161298 -0.0064714476
0.21359013 0.077356987 -0.054781135
0.19124268 0.11814774 -0.007344503
0.19131927 0.11779808 -0.0063905232
0.14161809 0.035392508 -0.080060571
0.2334137 0.11019585 -0.096058942
0.19751479 0.10685825 0.0081958063
0.19943048 0.11755913 -0.0098111555
0.19931099 0.1178513 -0.010818321
0.19879581 0.10598221 0.0088680536
0.11459634 0.020766191 -0.064974338
0.11460999 0.02033335 -0.064065009
0.22794485 0.10972261 -0.088331759
0.20974241 0.091571279 -0.042716227
0.22486028 0.097817488 -0.064078495
0.11890969 0.023821831 -0.0723124
0.2292138 0.10976684 -0.090571128
0.2025889 0.053543568 -0.080449469
0.12988724 0.10824462 -0.0016546659
0.2263934 0.10024416 -0.069573142
0.13216719 0.11014295 -0.00013999641
0.19731079 0.079972148 -0.038488477
0.15316148 0.11897688 0.005594328
0.18874207 0.11858571 -0.011847049
0.18800347 0.11901222 -0.015183002
0.20596491 0.072858021 -0.032004006
0.20609522 0.072589323 -0.030960493
0.20952208 0.095194176 0.0096265934
0.22655207 0.10895479 -0.085334301
0.22655337 0.10802108 -0.08356443
0.13329588 0.11178236 0.00011945888
0.22527456 0.11029162 -0.085736625
0.22529723 0.11233595 -0.089192063
0.12330617 0.022942841 -0.071517274
0.12353025 0.025164299 -0.074840084
0.21696883 0.051609948 -0.093843237
0.21678351 0.052698933 -0.095283046
0.20542736 0.10800388 0.00094085559
0.19792075 0.072701678 -0.021817567
0.22208251 0.11810789 -0.083059102
0.20384604 0.11563657 -0.013186108
0.13495255 0.11424688 0.00058037415
0.20148543 0.068355471 -0.051276933
0.12036949 0.023677975 -0.072346732
0.1797328 0.091282293 0.010982547
0.13683629 0.11928603 -0.0014605895
0.13836747 0.10602105 0.0075633042
0.1885497 0.10803638 0.0026967041
0.11192373 0.020174585 -0.061914291
0.10775404 0.10598409 0.02202769
0.22657219 0.10852493 -0.084425256
0.22652502 0.10750206 -0.082711443
0.20344622 0.073074594 -0.028414281
0.19762462 0.07318233 -0.023917722
0.10819365 0.028339572 -0.073444873
0.10951369 0.019236185 -0.056716658
0.097603865 0.028373003 -0.06561368
0.097640187 0.028911091 -0.06645266
0.097704574 0.029494531 -0.067264408
0.097719416 0.029990904 -0.068128288
0.097774714 0.030557021 -0.068951972
0.097821936 0.031114727 -0.069777437
0.097890571 0.031712011 -0.070581421
0.0979691 0.03233438 -0.071361452
0.098090284 0.033049151 -0.07209456
0.098211572 0.033756763 -0.072832495
0.098327309 0.034471132 -0.073566623
0.098431632 0.035126485 -0.074316502
0.098571807 0.035907902 -0.075027063
0.098695405 0.036633961 -0.075751685
0.098847419 0.037386924 -0.076431841
0.0990576 0.038300134 -0.077040166
0.099266976 0.039218523 -0.077646777
0.099487349 0.040144324 -0.078241907
0.099731117 0.041142542 -0.07881996
0.099940255 0.04202212 -0.079365447
0.10022751 0.043110128 -0.07991077
0.10057387 0.044326317 -0.080354109
0.10087518 0.04543101 -0.080868512
0.10118927 0.046560854 -0.081325561
0.10155866 0.047798619 -0.081690773
0.10204959 0.04931815 -0.081930906
0.10230515 0.05033835 -0.082475588
0.10256238 0.051356215 -0.083041072
0.10287666 0.052415151 -0.083460629
0.10321355 0.053625833 -0.083915748
0.10349815 0.054730467 -0.084449872
0.10372523 0.055662479 -0.085024714
0.10400395 0.056696832 -0.085526571
0.10436794 0.057924308 -0.085910767
0.10488538 0.059533577 -0.086177364
0.22035606 0.073027626 -0.055121154
0.17302169 0.127653 -0.023225259
0.22612612 0.053477176 -0.077525809
0.090509787 0.043004189 -0.073825657
0.2435046 0.11123285 -0.09292917
0.17782782 0.12494151 -0.023491791
0.17884421 0.12356399 -0.011450961
0.18420632 0.11547923 -0.0057023056
0.18416508 0.11483096 -0.0048878677
0.18415913 0.11439012 -0.0040131435
0.19116226 0.11851206 -0.0082994029
0.14173347 0.075679153 -0.077418685
0.19764018 0.10562834 0.010961663
0.19755422 0.10645534 0.0091134273
0.19963789 0.11693715 -0.0078384448
0.19955444 0.11728053 -0.0088005904
0.1987875 0.10548919 0.0097345673
0.2000363 0.11722093 -0.025229124
0.11652294 0.027986228 -0.076865956
0.22787094 0.11053455 -0.090181455
0.22791064 0.11013258 -0.089254715
0.11897577 0.02491942 -0.0739723
0.11894082 0.024350673 -0.073158845
0.22923952 0.11031429 -0.09143126
0.15402637 0.10162092 -0.059686363
0.20134273 0.075636365 -0.035150588
0.19154327 0.10323373 0.015968289
0.19707102 0.074433789 -0.029010031
0.10962047 0.019002825 -0.055680111
0.10977335 0.018855475 -0.054581553
0.20652948 0.069666967 -0.023372989
0.20675051 0.069122627 -0.02133823
0.11478937 0.026198693 -0.074509457
0.11112478 0.037245303 -0.083123632
0.21687308 0.10264875 -0.0055251196
0.23193464 0.11371502 -0.080381796
0.19860819 0.11490295 -0.0020965263
0.22173175 0.10409274 -0.013837958
0.11069749 0.019422874 -0.058900725
0.19237573 0.11291986 0.00064597651
0.12337077 0.024024867 -0.073189989
0.12384549 0.027711332 -0.077938482
0.12501036 0.032807365 -0.081818268
0.1107631 0.019105822 -0.057921678
0.2282434 0.10855142 -0.053121913
0.21181029 0.10474296 -0.04202256
0.22299133 0.099990517 -0.068682119
0.20100744 0.075982742 -0.037272707
0.19656394 0.072001204 -0.018796409
0.11213906 0.035255864 -0.081957653
0.19207571 0.076043822 -0.031716004
0.11064082 0.01976493 -0.059867963
0.11192251 0.021070443 -0.063703582
0.22475287 0.10274878 -0.073963016
0.14163506 0.091068126 -0.080006793
0.11208121 0.018666677 -0.058148362
0.20130856 0.061724812 -0.062443689
0.2429868 0.11374631 -0.086998358
0.14821233 0.040350143 -0.079323336
0.17505556 0.12683627 -0.014241796
0.21767542 0.11831287 -0.070452511
0.098860279 0.026910588 -0.064121708
0.098876193 0.027396597 -0.064993732
0.098884761 0.027874336 -0.065875739
0.098910674 0.028385974 -0.06672769
0.09896712 0.028958239 -0.067548409
0.099008322 0.029499002 -0.068383828
0.099074408 0.030097619 -0.069191769
0.09911941 0.030648902 -0.070018545
0.09917888 0.031236336 -0.070830621
0.099264249 0.031865165 -0.071613021
0.099348739 0.032505512 -0.072382361
0.099441618 0.03314738 -0.07315059
0.099549182 0.033844039 -0.073900253
0.099664018 0.034549154 -0.07464309
0.099761367 0.035200454 -0.075396165
0.099909365 0.035989262 -0.076096445
0.10006666 0.036755309 -0.076758608
0.10026527 0.037655011 -0.077388689
0.10048236 0.038575344 -0.077987745
0.10071644 0.039517358 -0.078548156
0.1009713 0.040528536 -0.079099178
0.10125446 0.041618124 -0.079644039
0.10153897 0.042664897 -0.080125824
0.10187892 0.043869056 -0.08058387
0.10215512 0.044903792 -0.081089213
0.10246518 0.046024892 -0.081567541
0.102823 0.047248323 -0.081978664
0.1031583 0.048463441 -0.082435593
0.10340823 0.049479276 -0.082999885
0.10368526 0.050430551 -0.083487056
0.10406011 0.051666483 -0.08386524
0.10441019 0.052962977 -0.084310122
0.10463552 0.053890288 -0.084896319
0.10489912 0.054912917 -0.08543244
0.10519665 0.055958908 -0.085871145
0.10565501 0.057458255 -0.086232111
0.20298563 0.11582728 -0.010764658
0.17429523 0.11891595 0.0031056069
0.17345139 0.1278149 -0.02192221
0.22814898 0.11392608 -0.076824315
0.21211763 0.10821883 -0.01630633
0.22299187 0.057987139 -0.078340292
0.17817095 0.12498163 -0.02231722
0.1802585 0.12336309 -0.017398547
0.2021594 0.10296908 0.0094666816
0.21186282 0.10739636 -0.028516293
0.18399291 0.11369762 -0.0032948181
0.19096558 0.11874254 -0.009350691
0.13835403 0.031054847 -0.078482956
0.2352839 0.10764089 -0.090515666
0.19761808 0.10607518 0.010060295
0.19979779 0.11624416 -0.005918093
0.19972007 0.11659329 -0.0068808608
0.20229797 0.052566797 -0.078506798
0.17469926 0.12337352 -0.0035028309
0.17296426 0.11877413 0.0041535087
0.22781852 0.11145582 -0.092004672
0.22786117 0.11101382 -0.091061682
0.12935612 0.079113752 -0.086882621
0.11951505 0.028270766 -0.077759109
0.22310914 0.09737803 -0.063240141
0.11430107 0.031533077 -0.079481155
0.21463376 0.10963516 -0.054496214
0.19727193 0.073479086 -0.026098795
0.21704549 0.09810131 -0.06067054
0.19055417 0.077787079 -0.03421928
0.11717539 0.031152479 -0.079588369
0.19886497 0.073689394 -0.027068622
0.198717 0.073884249 -0.028126366
0.19868706 0.074223876 -0.029066831
0.19859959 0.074550547 -0.030048661
0.19850914 0.077632502 -0.036370203
0.19855763 0.078187525 -0.03720405
0.11408469 0.030656464 -0.07882677
0.18377864 0.11288586 -0.0025978163
0.11199509 0.045977283 -0.087121978
0.21429512 0.095168993 -0.052014507
0.12029706 0.020334661 -0.066198707
0.12030962 0.021263637 -0.067972012
0.12414092 0.029288359 -0.07927537
0.1235908 0.026309811 -0.076461866
0.15485936 0.10298738 -0.058469083
0.13159032 0.076147005 -0.087251484
0.20177257 0.11668137 -0.017273596
0.20057425 0.076910757 -0.040183738
0.23502499 0.10810602 -0.092574641
0.18421213 0.093118072 -0.046620823
0.17938472 0.12156159 -0.029021103
0.17767274 0.12514451 -0.018698299
0.12508574 0.016475596 -0.057820216
0.22597156 0.11277708 -0.070551783
0.10015695 0.023257338 -0.058109049
0.21692906 0.10681999 -0.045163296
0.19884385 0.11839215 -0.019858994
0.11534566 0.036496758 -0.083409391
0.10011011 0.024985731 -0.061738104
0.10013069 0.025484845 -0.062601626
0.10013495 0.025954522 -0.06349045
0.10014936 0.026437029 -0.064364314
0.10015003 0.026897803 -0.065257646
0.10017414 0.027398489 -0.066117503
0.1001944 0.027890228 -0.066986352
0.10022323 0.028413944 -0.067835525
0.10028335 0.028999142 -0.068647772
0.10031098 0.029499829 -0.069506913
0.10036597 0.030080236 -0.070322722
0.10042681 0.03067302 -0.071133241
0.10048419 0.031240627 -0.071946815
0.1005864 0.031922109 -0.072706498
0.10067968 0.032574616 -0.073464006
0.10079738 0.033283852 -0.074199326
0.10089549 0.033940464 -0.074953817
0.1010121 0.03465604 -0.075681679
0.10114607 0.035387278 -0.076392353
0.10130497 0.036192261 -0.077070087
0.10151773 0.037103094 -0.077683508
0.10174079 0.038029868 -0.078269288
0.10200085 0.03904368 -0.078818634
0.10223018 0.039978113 -0.079394147
0.10246453 0.040915668 -0.079959005
0.10276011 0.042016447 -0.080472961
0.10308139 0.04314756 -0.080927812
0.10331742 0.044077627 -0.081512406
0.10355555 0.045080472 -0.082093224
0.1038375 0.046109375 -0.082605079
0.10419059 0.047413819 -0.083026275
0.1044583 0.048350893 -0.083554164
0.10479516 0.049568169 -0.083994851
0.10517112 0.050799657 -0.084374763
0.10551691 0.052023333 -0.084796473
0.1057951 0.053134397 -0.085331947
0.10611121 0.054259218 -0.085801706
0.10645279 0.055400576 -0.086165875
0.10697977 0.057014596 -0.086392224
0.20249484 0.10591587 0.0054250434
0.17435248 0.11947381 0.0023021512
0.17374964 0.12778476 -0.020793941
0.22827135 0.11365736 -0.075805575
0.21652256 0.10108481 -0.0041472614
0.24504432 0.11419515 -0.085444465
0.17852922 0.12503354 -0.021133149
0.1786501 0.12473969 -0.020116655
0.17901589 0.12433109 -0.018020073
0.21200122 0.097973838 0.0020251237
0.20481186 0.11493799 -0.020595752
0.19084801 0.118954 -0.010370754
0.15926978 0.054918803 -0.073803484
0.19220151 0.077133387 -0.033393711
0.20453292 0.10320003 0.0061651208
0.2047419 0.1044599 0.0046179071
0.19983603 0.1158329 -0.0050043166
0.21256211 0.05151654 -0.090572029
0.22813198 0.10076556 -0.070374459
0.17115574 0.12725852 -0.029299872
0.13382699 0.10085946 0.0055703521
0.087716244 0.0713441 0.006196335
0.14464164 0.10185695 -0.06805142
0.22329873 0.1037913 -0.074555546
0.22798067 0.10456789 -0.078581676
0.13734658 0.10952816 0.0050469935
0.19715644 0.074101463 -0.028031131
0.19718596 0.073747277 -0.027093928
0.19759281 0.081419155 -0.039947167
0.19070767 0.078476921 -0.034968607
0.19901215 0.073519357 -0.026003169
0.11257458 0.017870337 -0.053933039
0.13571088 0.10569419 0.0056222118
0.14073914 0.12135728 -0.0015431829
0.10282778 0.10001776 0.017770179
0.10312845 0.1010605 0.018303335
0.19860144 0.078728899 -0.038037006
0.19741955 0.073293522 -0.025035867
0.22470543 0.098959625 -0.066902846
0.094522148 0.084320962 0.012665022
0.21292083 0.10621852 -0.0093112998
0.12029536 0.02171009 -0.068872496
0.12027706 0.022150926 -0.069775149
0.12332404 0.02247759 -0.070628345
0.22378819 0.11013243 -0.061677195
0.18226838 0.1071738 0.0020743869
0.16642526 0.10825812 -0.052375905
0.23783183 0.11349431 -0.081507146
0.23685218 0.10774253 -0.091556549
0.19960676 0.11115243 0.0026911832
0.10813098 0.02774632 -0.072635651
0.10805916 0.027139157 -0.071839787
0.10801021 0.026581958 -0.071018979
0.10159012 0.02218391 -0.05637975
0.1015155 0.022473298 -0.057365313
0.10143313 0.022770338 -0.058375426
0.101399 0.023146816 -0.05930613
0.10138364 0.023566499 -0.060218275
0.10140932 0.024072155 -0.061075982
0.10141134 0.024537519 -0.061965305
0.10140821 0.024994656 -0.062864386
0.10142936 0.025491446 -0.063726835
0.10144764 0.025983125 -0.064595439
0.10144374 0.026432693 -0.065495171
0.10146427 0.026930012 -0.066359326
0.10146508 0.027383201 -0.067255162
0.10148782 0.027884029 -0.068115443
0.10152529 0.028420582 -0.068957664
0.10158315 0.029001288 -0.069770738
0.10162883 0.029548295 -0.070600539
0.10168813 0.030138679 -0.071413174
0.1017392 0.030699402 -0.072230458
0.10184489 0.031385079 -0.072985828
0.10193595 0.032037921 -0.073741585
0.10205081 0.03274098 -0.074485786
0.10214367 0.033398062 -0.07523492
0.102299 0.034182638 -0.075935043
0.10243876 0.034942031 -0.076613843
0.1026412 0.035822146 -0.077264257
0.10282283 0.036660314 -0.077905148
0.10303902 0.03757751 -0.078506976
0.1032465 0.038483247 -0.079132706
0.10343207 0.03931779 -0.079768986
0.1036516 0.040239353 -0.080371417
0.10394858 0.041288376 -0.080852203
0.10418335 0.042278759 -0.081455484
0.10439496 0.043198828 -0.082062863
0.1046108 0.044045709 -0.082665011
0.10484593 0.045050103 -0.083241954
0.10513039 0.045996405 -0.083759636
0.10543905 0.047198292 -0.084227338
0.105785 0.048328619 -0.084658235
0.10616687 0.049641009 -0.085029885
0.10652884 0.050870765 -0.085420847
0.10690518 0.052280579 -0.085840143
0.10726939 0.053416766 -0.086180873
0.10779247 0.055037245 -0.086385056
0.17334935 0.12128743 0.0010327883
0.24044907 0.11298974 -0.089916781
0.17443213 0.12008281 0.0014976226
0.21503647 0.10555202 -0.024897397
0.22418699 0.11576801 -0.076972649
0.2183484 0.10274135 -0.038294494
0.22905521 0.11465526 -0.081046216
0.2320988 0.1118304 -0.06272494
0.22998342 0.11246405 -0.072969973
0.17877096 0.1244365 -0.019150456
0.20148449 0.11668195 -0.018450772
0.20967054 0.096892096 0.0071537085
0.1858592 0.11709623 -0.025952697
0.18640022 0.11761421 -0.024655081
0.19864212 0.11589537 -0.0038245618
0.16331065 0.11923354 -0.043969803
0.22514296 0.056567993 -0.073315337
0.1999045 0.11546734 -0.004050605
0.22484471 0.10434127 -0.076501459
0.22807623 0.10156033 -0.072228923
0.22810517 0.10116066 -0.071299896
0.22808532 0.10243245 -0.074030414
0.17224497 0.12197319 0.0014175475
0.2031011 0.074320123 -0.032364964
0.22322133 0.10318868 -0.073752329
0.21742006 0.0932111 -0.049599584
0.14117327 0.094913267 0.010468766
0.1416637 0.12198216 -0.0019935705
0.18013874 0.088321976 0.012601737
0.14788724 0.11513003 0.0077720918
0.17842348 0.12386744 -0.01365478
0.19941707 0.072296381 -0.022004843
0.2098351 0.092281483 -0.043395322
0.10723407 0.030862324 -0.075440258
0.21450834 0.09931843 -0.058848545
0.22633305 0.10388449 -0.076727509
0.207559 0.09642189 -0.045675658
0.19868657 0.079391897 -0.038819462
0.20219299 0.073530704 -0.027061978
0.21698724 0.0961219 -0.057192668
0.22476473 0.098160997 -0.065049902
0.22036731 0.11669328 -0.082888842
0.21467237 0.10150661 -0.062194861
0.1232937 0.021995142 -0.069756553
0.21787302 0.1053065 -0.07033582
0.11326423 0.021131575 -0.064788163
0.20765048 0.10180301 -0.041610178
0.24088165 0.1132237 -0.088532045
0.12547086 0.034606613 -0.083072364
0.12339884 0.019409113 -0.064298697
0.14462635 0.12507112 -0.0046985336
0.10797685 0.026062831 -0.070169166
0.10308243 0.021220304 -0.054589603
0.10300685 0.021514848 -0.055569261
0.1028982 0.021748014 -0.056602947
0.10282262 0.022040747 -0.057587907
0.10275783 0.022360101 -0.058563419
0.10272759 0.022740535 -0.059491463
0.10269235 0.023138545 -0.060435437
0.1027154 0.023643382 -0.06129422
0.10272035 0.024110839 -0.062183086
0.10271405 0.024562024 -0.063079819
0.10272746 0.025034957 -0.063958257
0.10274982 0.025536358 -0.064820781
0.1027465 0.025993414 -0.065719567
0.10275921 0.026468605 -0.066594675
0.10275711 0.026920632 -0.067491204
0.10277692 0.027414463 -0.068357736
0.10280763 0.027931772 -0.069209337
0.10284338 0.028465562 -0.070053294
0.10288445 0.029012397 -0.070883393
0.10295811 0.029620141 -0.071678132
0.10303523 0.030243598 -0.072461069
0.10311876 0.030882984 -0.073232189
0.1032307 0.03158126 -0.073975094
0.10332029 0.032237433 -0.074723721
0.1035063 0.033071026 -0.075420275
0.10364588 0.033833347 -0.076098584
0.10381982 0.034657225 -0.076760873
0.1039912 0.035472587 -0.077430665
0.10416505 0.036209844 -0.078126729
0.10429554 0.037024401 -0.078806579
0.10446924 0.037847642 -0.079465747
0.10465115 0.038676791 -0.080113068
0.10487278 0.039600741 -0.080708921
0.10509689 0.040523026 -0.081306301
0.10529526 0.041367315 -0.081942275
0.10547546 0.042257015 -0.082591295
0.10567242 0.04309696 -0.083219305
0.10590374 0.044095382 -0.083798513
0.10615624 0.045035698 -0.084350273
0.10642618 0.046055086 -0.084877476
0.10671541 0.047083408 -0.085373014
0.10712538 0.048490472 -0.085722759
0.10747454 0.049619444 -0.086122513
0.10791169 0.051035874 -0.086410522
0.10842257 0.052657779 -0.086632207
0.17328253 0.12022565 0.0027136467
0.17333728 0.12078317 0.001895126
0.10845103 0.12223352 -0.049763486
0.17453369 0.12119526 -0.00015931576
0.20055638 0.11757433 -0.023811797
0.22389553 0.11720105 -0.080818087
0.21455054 0.105704 -0.027169831
0.21703497 0.10343684 -0.031950518
0.21505402 0.10369658 -0.034231201
0.23172626 0.10643678 -0.054322373
0.18003315 0.12252103 -0.010881718
0.21196744 0.098385923 0.0011048727
0.20964836 0.096375659 0.0080091991
0.18724643 0.11841616 -0.022772435
0.15970296 0.055718392 -0.073257953
0.19763193 0.10514484 0.011829749
0.19764827 0.10468287 0.012725312
0.21018332 0.11095245 -0.0228754
0.19993091 0.11502638 -0.003146451
0.22813976 0.1020482 -0.073213875
0.22805299 0.10286811 -0.074940711
0.2207634 0.1060583 -0.074448496
0.22490357 0.097415775 -0.063000783
0.21606711 0.10233834 -0.065164559
0.22320569 0.097010627 -0.06227728
0.21997419 0.098969966 -0.064722016
0.20084147 0.07616961 -0.038330592
0.20874964 0.095368095 -0.046242498
0.13307023 0.11462523 -0.0016186349
0.19780363 0.082272179 -0.040587202
0.19939639 0.072756499 -0.022910822
0.1998127 0.077916965 -0.038478896
0.20039231 0.07753557 -0.041008316
0.22037873 0.10345073 -0.071357876
0.22029358 0.10282493 -0.070568576
0.11462297 0.01990103 -0.063157596
0.20745623 0.09577287 -0.044933692
0.19876891 0.079964161 -0.039621085
0.19892204 0.080763154 -0.040327027
0.13076602 0.11125036 -0.0021301843
0.21989597 0.09743885 -0.062148757
0.11192997 0.025684528 -0.072595179
0.12373368 0.016384088 -0.056745142
0.2122837 0.051939845 -0.092689723
0.2198651 0.096926481 -0.061295208
0.1161197 0.03307654 -0.080776349
0.20173347 0.061375257 -0.058945883
0.21733016 0.093493812 -0.050595742
0.23346731 0.10938112 -0.094190478
0.10457037 0.020251147 -0.052750684
0.10796732 0.025596283 -0.069291264
0.10435863 0.020712323 -0.054826714
0.10425148 0.020941265 -0.055862807
0.10417748 0.021242358 -0.056846604
0.10410301 0.02154965 -0.057857323
0.10406451 0.021919437 -0.058786534
0.10401379 0.022276089 -0.059745017
0.10402597 0.022748411 -0.060616963
0.10402748 0.023216754 -0.061510332
0.10402546 0.023674987 -0.062404256
0.10403781 0.024145462 -0.063283645
0.10403375 0.024602383 -0.064177148
0.10405555 0.025097832 -0.065045789
0.10405196 0.025551803 -0.065942362
0.10406463 0.02602502 -0.066819713
0.10406195 0.026480243 -0.067715146
0.1040815 0.026970886 -0.068583041
0.1040786 0.027426936 -0.069473758
0.10413586 0.027996108 -0.070294693
0.10418376 0.028559938 -0.071112305
0.10425713 0.029169522 -0.071906984
0.10435693 0.029832445 -0.072679706
0.1044468 0.030483581 -0.073439822
0.10457888 0.031224042 -0.074145645
0.10471918 0.031980157 -0.074831441
0.10488029 0.0327911 -0.075507931
0.10503189 0.033593103 -0.076180257
0.10516747 0.034297355 -0.076936923
0.10527164 0.034978695 -0.077705286
0.10536638 0.035634115 -0.078462496
0.10551104 0.03636574 -0.079167157
0.1056553 0.037124194 -0.079846352
0.10585232 0.038017794 -0.080485374
0.10604798 0.038861953 -0.081113435
0.10623793 0.039755885 -0.081755191
0.106435 0.040598791 -0.082382575
0.10661796 0.041433211 -0.083028987
0.10681821 0.04233798 -0.083653808
0.10703248 0.043256119 -0.08425805
0.10729434 0.044273604 -0.084802166
0.10756138 0.045295548 -0.085331798
0.10781886 0.046313386 -0.085884526
0.10818132 0.047537569 -0.086285055
0.10856439 0.048766933 -0.086636849
0.10905457 0.050075818 -0.087013587
0.1860933 0.097272001 -0.043153927
0.14575525 0.10007837 -0.06676653
0.20552467 0.11345664 -0.0086214915
0.17329723 0.12801015 -0.017117254
0.17446692 0.12060997 0.0006548427
0.2022534 0.10455004 0.0069255158
0.21048801 0.10827859 -0.010445755
0.22529952 0.10510191 -0.045954991
0.22003615 0.072956197 -0.056324355
0.21229795 0.10423615 -0.039902665
0.21227883 0.10751328 -0.014385615
0.17918739 0.12410309 -0.016995819
0.24163373 0.11272925 -0.091168046
0.15989263 0.11928909 -0.045217857
0.19059551 0.11910549 -0.011480967
0.1952872 0.11920277 -0.02309829
0.19766156 0.10422829 0.013617653
0.19764504 0.10372136 0.014479607
0.13947022 0.077266544 -0.08125215
0.19991364 0.11452356 -0.0022857673
0.20573767 0.11093429 -0.0031305291
0.22633286 0.10294447 -0.074957095
0.22805442 0.10372823 -0.076748028
0.22808559 0.10333841 -0.0758183
0.10797711 0.025156856 -0.068388194
0.19882704 0.10796258 0.0054017194
0.22487526 0.10487431 -0.077347353
0.22915632 0.11064187 -0.092420563
0.10884073 0.11145185 0.021360811
0.22211275 0.10576542 -0.075741217
0.20138623 0.064402908 -0.05833248
0.20867701 0.094740853 -0.045459125
0.13415137 0.099320546 0.0061013289
0.20406596 0.070504621 -0.02061153
0.1809893 0.091575995 -0.050655078
0.22123477 0.10924544 -0.078335896
0.22113428 0.10860398 -0.077564195
0.20937918 0.052301817 -0.091409318
0.22019981 0.10219727 -0.069784239
0.16808133 0.071960174 -0.061085269
0.20719071 0.09423089 -0.043484572
0.13471039 0.091458954 0.005339738
0.21815281 0.10677609 -0.071779206
0.21111603 0.051489096 -0.089470148
0.20086473 0.071826503 -0.022247143
0.2114903 0.09542226 -0.049618289
0.2188151 0.10239212 -0.068541728
0.11523779 0.028941013 -0.077505529
0.20070288 0.075146459 -0.043586068
0.22518878 0.10872649 -0.08318013
0.12974447 0.10967386 -0.0024740957
0.20036234 0.07681077 -0.042589299
0.21132427 0.051467463 -0.088357881
0.10572015 0.019934401 -0.05407786
0.10562146 0.020188183 -0.055113137
0.10551719 0.020423561 -0.056146022
0.10544473 0.02071587 -0.057130668
0.10538152 0.021040976 -0.058105893
0.10534038 0.021418095 -0.05905766
0.10534246 0.021872409 -0.059934966
0.10533208 0.022308297 -0.060843151
0.1053267 0.022760995 -0.061740212
0.10534704 0.023249418 -0.062608264
0.10534453 0.02370777 -0.063504003
0.10533384 0.024145372 -0.064411506
0.10535088 0.02463039 -0.065282568
0.10535207 0.025101759 -0.066171885
0.105368 0.025582954 -0.067042977
0.10536554 0.026037715 -0.067939967
0.10538487 0.026530996 -0.06880603
0.10538489 0.026987821 -0.069694772
0.10543692 0.027543873 -0.070522241
0.10548344 0.028103486 -0.071344227
0.10556345 0.028731942 -0.072124012
0.10564649 0.029371485 -0.072891787
0.10575845 0.030055538 -0.073646396
0.10589844 0.030807585 -0.074340314
0.10602157 0.031522505 -0.075030759
0.10613176 0.032210074 -0.075837135
0.10623242 0.032906026 -0.076590762
0.1063378 0.033546746 -0.077356189
0.10643382 0.03419932 -0.078119881
0.10653546 0.034889631 -0.078870699
0.10667492 0.035630256 -0.079573348
0.2196414 0.081959352 -0.023546692
0.17673811 0.067521162 -0.022350164
0.17959732 0.073229328 -0.041529231
0.22060858 0.083977677 -0.023172107
0.18025281 0.074016213 -0.041427754
0.19995975 0.10442841 0.010294221
0.23163089 0.11161248 -0.064085379
0.18284158 0.075292863 -0.037160523
0.22457036 0.096875556 -0.017542854
0.21562941 0.079191014 0.0024810284
0.21967152 0.085592031 -0.028333388
0.18090867 0.0748026 -0.041323755
0.18152766 0.075609252 -0.041209932
0.23917532 0.10885843 -0.095730349
0.24022327 0.10908742 -0.095625505
0.21351987 0.10542718 -0.043778434
0.19488277 0.10754137 0.0085387938
0.22013462 0.082997389 -0.023352996
0.17455599 0.064229116 -0.030093275
0.2218976 0.09094955 -0.02730106
0.18207173 0.076612473 -0.041058533
0.18266295 0.077487461 -0.040924016
0.2382324 0.10822715 -0.094225824
0.23942973 0.10831746 -0.094347246
0.24051709 0.10854175 -0.09444508
0.24147762 0.10896117 -0.09449546
0.24229807 0.1096632 -0.094543129
0.19996415 0.10298859 0.012927491
0.19994614 0.1034369 0.012026478
0.18565306 0.072458252 -0.023861336
0.20933574 0.071020618 -0.027695464
0.22245827 0.086313896 -0.018542245
0.19084616 0.071949735 -0.0218731
0.18324906 0.078365728 -0.040793546
0.18381447 0.079251632 -0.040656254
0.15846159 0.026933655 -0.049830057
0.23959368 0.10801787 -0.093025699
0.2406739 0.10823328 -0.093113512
0.24163757 0.1086345 -0.093154609
0.24246353 0.10921129 -0.093114898
0.24317612 0.10990373 -0.093050927
0.2436662 0.11060433 -0.092826322
0.18344119 0.076160714 -0.037034139
0.17632943 0.066493779 -0.024010142
0.22198041 0.085266307 -0.018748101
0.19193056 0.072175734 -0.021972576
0.18439749 0.080123015 -0.040535823
0.18497078 0.080989681 -0.040419791
0.23727968 0.10771805 -0.091400385
0.23847733 0.10777557 -0.091535687
0.23967332 0.10787115 -0.091663197
0.24069378 0.10812386 -0.091722995
0.24170184 0.1084718 -0.091765523
0.24261482 0.10892399 -0.091784455
0.24341102 0.10952337 -0.091747418
0.24404466 0.11030632 -0.091641277
0.19891238 0.11794077 -0.024828773
0.18560427 0.081775956 -0.040320657
0.18632898 0.082449906 -0.040275704
0.17701848 0.067250162 -0.023893816
0.1930061 0.072420835 -0.022069292
0.19327168 0.10315029 0.016393106
0.23610792 0.10754445 -0.089884371
0.23737068 0.10753048 -0.090046652
0.23850599 0.10764765 -0.090159029
0.23963824 0.10781636 -0.090261564
0.24071017 0.10804063 -0.090339243
0.2417109 0.10837008 -0.090388268
0.24267094 0.10874602 -0.090411633
0.24352321 0.10929371 -0.090371817
0.24428344 0.10986263 -0.090346202
0.24494605 0.11091942 -0.090265572
0.24523599 0.11168995 -0.089929238
0.17057617 0.048620641 -0.041976154
0.1860923 0.07371784 -0.027931847
0.22461444 0.098382756 -0.017158903
0.19408236 0.072662681 -0.022166321
0.21726856 0.087651104 -0.036038943
0.21358865 0.069559388 -0.014457159
0.23618942 0.10734426 -0.088533401
0.23739812 0.10737902 -0.088669524
0.2385321 0.10753558 -0.088775277
0.23960118 0.10776678 -0.088854238
0.24059395 0.10812149 -0.088903382
0.24165909 0.10836434 -0.088977963
0.24261384 0.10873966 -0.088998988
0.24352103 0.10919894 -0.088993549
0.2443068 0.10977808 -0.088934436
0.24502584 0.11042684 -0.088841811
0.24540892 0.11172681 -0.088693783
0.24561349 0.11243704 -0.08844962
0.21378848 0.073430225 -0.02772196
0.17303067 0.064132974 -0.022667777
0.21396299 0.071152627 -0.021224039
0.17522743 0.064908043 -0.028582262
0.21781756 0.07544668 -0.012097839
0.17088468 0.049862418 -0.041712321
0.2350481 0.10708247 -0.087061659
0.23626974 0.10716286 -0.087179586
0.23741886 0.10727642 -0.087288156
0.23849387 0.10748875 -0.087368548
0.23956241 0.10772356 -0.087447077
0.24054621 0.10809848 -0.08749117
0.24154298 0.10844035 -0.087542251
0.24249408 0.10881988 -0.087562822
0.24343596 0.10923094 -0.087581635
0.24433587 0.10970494 -0.087572768
0.2451155 0.1103837 -0.087516204
0.24548607 0.11148447 -0.087330237
0.2458519 0.11262183 -0.087181166
0.15714946 0.032624029 -0.03270125
0.21082777 0.072531775 -0.030363701
0.21301709 0.070914805 -0.02399624
0.21629323 0.052884642 -0.095242649
0.19993545 0.10486327 0.0093913488
0.22658324 0.10838502 -0.05326964
0.21760856 0.078086697 -0.024245605
0.21047246 0.071206577 -0.027806289
0.17119765 0.05110313 -0.041456122
0.19225289 0.071578942 -0.019290531
0.21834682 0.08246313 3.9380044e-05
0.17827736 0.067596242 -0.029776854
0.13888298 0.038979661 -0.011033921
0.23513296 0.10687894 -0.08570911
0.23629385 0.10697998 -0.085815378
0.23737773 0.10719823 -0.085887864
0.23851465 0.10739262 -0.085984886
0.23949757 0.10776123 -0.086035296
0.24050298 0.10807572 -0.086084127
0.24145798 0.10844606 -0.086104184
0.24243978 0.10881481 -0.08615502
0.24331394 0.10930882 -0.086145923
0.24419186 0.1098001 -0.086134732
0.2449965 0.11043774 -0.086065762
0.2455712 0.11115374 -0.085933708
0.24594435 0.11282301 -0.085788429
0.24606992 0.11339598 -0.085525341
0.21361807 0.07081303 -0.0083008166
0.17154679 0.052261442 -0.041225474
0.17804204 0.070717022 -0.021752885
0.21161084 0.073245987 -0.031707782
0.21819201 0.077930257 -0.0056174062
0.21193828 0.069697723 -0.0083318446
0.21675435 0.074938156 -0.0077076331
0.21996629 0.080616511 -0.006665837
0.22207454 0.087836251 -0.0049797036
0.18409297 0.076943502 -0.036936115
0.1847869 0.077652693 -0.036854319
0.19391902 0.072970875 -0.02350146
0.18553354 0.078310072 -0.036818184
0.17089087 0.059193194 -0.030835588
0.22182985 0.086506166 -0.0053121857
0.18636754 0.078936048 -0.036773872
0.22407991 0.099267185 -0.019749178
0.18726994 0.079277575 -0.036851678
0.18827313 0.079597667 -0.036920708
0.17180566 0.05358782 -0.040930908
0.21918504 0.065878108 -0.048690967
0.22104977 0.082578674 -0.0077736564
0.21630187 0.078484602 -0.029645462
0.21895467 0.077316135 -0.013218014
0.21843505 0.076352879 -0.013392299
0.21971339 0.066869602 -0.048449874
0.22015384 0.067926154 -0.048288159
0.21801221 0.051963981 -0.094684497
0.21909538 0.052212078 -0.094671279
0.21284185 0.10826939 -0.01977393
0.21656385 0.076153278 -0.02459028
0.21090078 0.068559594 -0.021442188
0.19465326 0.071584031 -0.01676433
0.22090532 0.081599854 -0.016679356
0.22187589 0.06116474 -0.057136141
0.15962043 0.029035591 -0.055036761
0.17205448 0.057089835 -0.048611067
0.23527911 0.10663654 -0.08437492
0.23636991 0.10681916 -0.084456205
0.2373855 0.10713141 -0.084504858
0.23839572 0.10744472 -0.084549785
0.23946925 0.10771407 -0.084618807
0.24041535 0.1080772 -0.084644645
0.2413581 0.10848563 -0.084664308
0.24227516 0.10893687 -0.084687993
0.24319154 0.10938334 -0.084710404
0.24401391 0.1099482 -0.084668487
0.24487746 0.11049639 -0.084624216
0.24546899 0.11125179 -0.084474355
0.24570887 0.11263601 -0.084275439
0.14109665 0.064617179 -0.080926344
0.21183875 0.068982333 -0.021471119
0.21730779 0.074630901 -0.015108999
0.22037557 0.088076465 -0.029237717
0.15190385 0.022368275 -0.050062396
0.2218793 0.085476324 -0.020110775
0.12203328 0.057719879 -0.087866321
0.2125551 0.071666911 -0.026630597
0.17427249 0.064337574 -0.025698397
0.20957962 0.072623625 -0.031580854
0.22073141 0.1174621 -0.074893266
0.22130233 0.11170937 -0.061979026
0.16285618 0.032334477 -0.043502271
0.21752149 0.07642661 -0.021810083
0.21258456 0.073572941 -0.030336957
0.22096437 0.11640525 -0.071997739
0.21408366 0.090602987 -0.041970946
0.21251194 0.073710561 -0.031714696
0.21517099 0.090800814 -0.042091332
0.13955404 0.038309347 -0.014225772
0.13836282 0.036558427 -0.014508577
0.13779007 0.035669662 -0.014646241
0.19038771 0.072704256 -0.024496609
0.1871639 0.071968555 -0.022767741
0.2243966 0.097179703 -0.018891372
0.17313658 0.061536837 -0.036306322
0.22162896 0.087869942 -0.025185082
0.14271308 0.048702367 -0.0075484216
0.21618131 0.091128208 -0.042148046
0.21718855 0.091455504 -0.04220821
0.21868059 0.081760272 -0.026307197
0.2122844 0.072249502 -0.0033070259
0.21866485 0.079948574 -0.02392311
0.21142857 0.070310108 -0.0067083426
0.21469131 0.072619915 -0.0065197572
0.21768582 0.077055693 -0.0057513677
0.22049363 0.083145998 -0.0045835376
0.21650913 0.078116387 -0.028349485
0.13598092 0.033280507 -0.017908387
0.22410958 0.097664714 -0.020169606
0.22401111 0.096051663 -0.020564966
0.22385541 0.094630718 -0.020904921
0.22339113 0.091965243 -0.02152326
0.22309846 0.09072341 -0.021800593
0.21832384 0.091638133 -0.042319126
0.21928506 0.091999158 -0.042362306
0.2162624 0.07099013 -0.041386329
0.2202826 0.092344657 -0.042416897
0.22268213 0.085638471 -0.011541467
0.22096042 0.081260175 -0.012471935
0.19342823 0.071573675 -0.018016411
0.19456474 0.071771085 -0.018145209
0.22129141 0.092666321 -0.042479023
0.21703804 0.051515959 -0.093285874
0.21837834 0.051386051 -0.093496725
0.21970443 0.051373258 -0.093773648
0.16124918 0.063056044 -0.070880592
0.21001497 0.10415383 -0.047203228
0.21710196 0.069987141 -0.043155558
0.17118603 0.052583527 -0.038246866
0.19351465 0.071393818 -0.016634151
0.22447371 0.093411423 -0.014103133
0.22224906 0.09304481 -0.042507958
0.23191181 0.10601442 -0.082719922
0.23306671 0.10611281 -0.082832724
0.2342241 0.10624167 -0.08293435
0.2353038 0.10647764 -0.08300522
0.2363762 0.10673445 -0.083074778
0.23739472 0.10703211 -0.083121791
0.23841499 0.10732478 -0.08317107
0.23940858 0.10768664 -0.083215602
0.24031124 0.10811907 -0.083208077
0.2412767 0.10853048 -0.083255902
0.24215885 0.10900782 -0.083248228
0.24302928 0.10951255 -0.083241865
0.24389148 0.11002064 -0.083234012
0.24469544 0.11064402 -0.083155364
0.24535717 0.11138438 -0.083044998
0.24559249 0.11272177 -0.082835086
0.24580689 0.11410653 -0.082684904
0.22293237 0.088503927 -0.0078985449
0.22348031 0.094555706 -0.0062586181
0.15920247 0.027610309 -0.049763426
0.22317803 0.093476042 -0.042533915
0.19997299 0.10252797 0.013821613
0.22136872 0.083744526 -0.0075335521
0.21765615 0.070923656 -0.042983755
0.21416968 0.074669622 -0.0014850572
0.21561703 0.074616939 -0.0046650656
0.14021237 0.056525573 -0.0019771978
0.14156365 0.045263413 -0.0082890224
0.19146776 0.072943948 -0.024592476
0.21501741 0.07375057 -0.0048138388
0.22034077 0.082622506 -0.022053979
0.15678845 0.026954673 -0.041233413
0.16984452 0.060295843 -0.026076719
0.16939102 0.059246108 -0.026279133
0.22391966 0.094154656 -0.042462908
0.22466691 0.094836257 -0.042382848
0.22012024 0.0835535 -0.0029231645
0.22865413 0.097032867 -0.056437008
0.21977124 0.080981277 -0.0050698258
0.14177589 0.041977741 -0.013594704
0.1407263 0.040050313 -0.013945391
0.21549498 0.072291277 -0.018301191
0.21615627 0.0730737 -0.01819508
0.1355817 0.033660941 -0.014858777
0.18288156 0.072654441 -0.021963455
0.22118619 0.083949357 -0.005942788
0.22440299 0.093645237 -0.016921265
0.212428 0.069945276 -0.022734273
0.16234745 0.032035023 -0.054682545
0.17749523 0.066880561 -0.028406471
0.18806037 0.11314933 -0.034182604
0.22482781 0.098049052 -0.012909407
0.22465806 0.094830394 -0.013751037
0.22368516 0.089518122 -0.015007704
0.22224417 0.08476413 -0.016049452
0.22180027 0.08371006 -0.016260123
0.21583685 0.075896703 -0.0028708316
0.21704862 0.076124609 -0.0059553236
0.22017546 0.081910342 -0.0048767738
0.22521085 0.095815137 -0.042200267
0.22281583 0.099469341 -0.025270768
0.1905169 0.076364987 -0.032232709
0.14109665 0.045774467 -0.006610103
0.17070143 0.050599892 -0.049973495
0.21952347 0.078301921 -0.014473034
0.21499708 0.076816835 0.00047119707
0.15475953 0.024799474 -0.042874381
0.22548687 0.097143404 -0.041897602
0.2255678 0.098495863 -0.041685082
0.15270664 0.022969864 -0.050025169
0.15621705 0.024945311 -0.050000593
0.1759544 0.066061795 -0.035588779
0.17468889 0.064422861 -0.035814531
0.16027768 0.032080851 -0.037567303
0.22383618 0.090679638 -0.010392698
0.18163903 0.073003665 -0.027374811
0.09012989 0.023307733 -0.054384466
0.19234349 0.071374282 -0.017910808
0.17260113 0.062032729 -0.033239614
0.14305994 0.046800949 -0.01104079
