# .PCD v0.7 - Point Cloud Data file format
VERSION 0.7
FIELDS x y z
SIZE 4 4 4
TYPE F F F
COUNT 1 1 1
WIDTH 649
HEIGHT 1
VIEWPOINT 0 0 0 1 0 0 0
POINTS 649
DATA ascii
-0.060984999 0.168641 -0.059489802
-0.0611789 0.17254101 -0.059634101
-0.066409454 0.17380801 -0.059245251
-0.062188301 0.17723501 -0.059622198
-0.066514596 0.16661 -0.058026101
-0.066996098 0.165196 -0.057009999
-0.0613674 0.169388 -0.0565896
-0.062251199 0.17562699 -0.056629799
-0.067920901 0.16378599 -0.054974999
-0.066707499 0.17920899 -0.053865299
-0.069102198 0.159548 -0.051944699
-0.070940197 0.17083099 -0.051026899
-0.071015701 0.179813 -0.051081501
-0.073486298 0.173577 -0.0500848
-0.073486298 0.173577 -0.0500848
-0.064481303 0.157544 -0.049277
-0.071613699 0.178389 -0.0484
-0.077262804 0.1774535 -0.047412001
-0.074307501 0.170773 -0.046055
-0.074938402 0.177982 -0.046777301
-0.069509901 0.151355 -0.044712901
-0.0720478 0.15400299 -0.040902302
-0.078862198 0.169438 -0.040960498
-0.076077402 0.166574 -0.0390172
-0.076077402 0.166574 -0.0390172
-0.068381101 0.14904401 -0.0363633
-0.068381101 0.14904401 -0.0363633
-0.072741501 0.15403099 -0.035899501
-0.0765929 0.17149299 -0.035903297
-0.077475503 0.170095 -0.034198701
-0.032939602 0.038655799 -0.0303928
-0.070931599 0.147597 -0.030009599
-0.070931599 0.147597 -0.030009599
-0.078615203 0.16384099 -0.030962899
-0.028019501 0.037873302 -0.029542901
-0.0289695 0.038095601 -0.0297496
-0.069899604 0.14751799 -0.0298062
-0.0099700997 0.175779 -0.029207399
-0.0099700997 0.175779 -0.029207399
-0.0114724 0.180094 -0.029596901
-0.0245413 0.034994099 -0.028704099
-0.038543101 0.038993001 -0.028623899
-0.016467299 0.037773497 -0.027172901
-0.0133229 0.0978873 -0.0277326
-0.074838199 0.14992499 -0.027866799
-0.074838199 0.14992499 -0.027866799
-0.0066106999 0.043437801 -0.0261152
-0.075898498 0.159659 -0.0269354
-0.0095795002 0.17719699 -0.0268263
-0.0055964999 0.039151501 -0.0257085
-0.028675502 0.09330567 -0.025339067
-0.0238533 0.095801897 -0.025596701
-0.019347601 0.097355202 -0.0251961
-0.0087120002 0.171156 -0.0257232
-0.0152002 0.174208 -0.025456199
0.0024202 0.036151402 -0.024222
0.0044036 0.039036199 -0.0241943
-0.0115772 0.099101603 -0.0249869
0.0074137002 0.036084201 -0.023163499
-0.031562701 0.048073001 -0.0232988
0.0109672 0.097769298 -0.023517
0.011956 0.097635798 -0.0233787
-0.0032281 0.099966101 -0.0238789
-0.0100812 0.168118 -0.0236136
-0.0096295001 0.16831601 -0.023669001
-0.017208099 0.172701 -0.0233314
-0.019196499 0.175667 -0.0232885
-0.0110217 0.175722 -0.0231509
0.0084044999 0.036083799 -0.022986401
-0.032668501 0.047801401 -0.022935599
-0.0132125 0.168083 -0.022507001
-0.016179301 0.169751 -0.0220442
-0.016179301 0.169751 -0.0220442
-0.021218499 0.178615 -0.022031
-0.035766199 0.079879902 -0.0213145
-0.0095188003 0.17115 -0.0217635
-0.0108613 0.16610999 -0.0209706
-0.073203601 0.14714099 -0.019863401
-0.0099566001 0.169734 -0.019804699
-0.0135602 0.17422099 -0.019786499
-0.016962651 0.18639 -0.019496899
-0.017521951 0.1872195 -0.019632099
-0.0733101 0.14715999 -0.018857701
-0.020137999 0.16677301 -0.018707
-0.020137999 0.16677301 -0.018707
-0.019138301 0.16677999 -0.0189611
-0.0176301 0.183064 -0.018435899
-0.0176301 0.183064 -0.018435899
-0.021513799 0.185205 -0.0184453
0.0226111 0.045871701 -0.017849
-0.0145095 0.17128199 -0.017663701
-0.0145095 0.17128199 -0.017663701
-0.046678901 0.038330302 -0.0162856
-0.030726399 0.051008701 -0.0163552
-0.017138699 0.171259 -0.016201699
-0.018655101 0.184576 -0.016492199
-0.046932399 0.038362801 -0.0152843
-0.018750601 0.162746 -0.015705099
-0.0184508 0.1712545 -0.0154629
-0.0278327 0.179989 -0.0150111
-0.033380199 0.049830399 -0.01435
-0.0170638 0.16832601 -0.0143421
-0.0161012 0.16832 -0.0147108
-0.042312 0.033755202 -0.0130352
-0.042312 0.033755202 -0.0130352
-0.0479431 0.035659902 -0.0132734
-0.0275751 0.181449 -0.0130337
0.0095242001 0.034642301 -0.0128865
-0.046497699 0.041126002 -0.0122454
-0.041597247 0.0475155 -0.01221765
-0.069091298 0.14300001 -0.0123014
-0.073679499 0.14579099 -0.0128538
-0.073679499 0.14579099 -0.0128538
-0.019233899 0.166857 -0.012207
-0.023190999 0.178657 -0.0125853
-0.023190999 0.178657 -0.0125853
-0.050606299 0.036902901 -0.0119734
-0.051510848 0.038708199 -0.01152585
-0.033650301 0.057756301 -0.0112696
-0.019583199 0.1596 -0.0115811
-0.020144699 0.166816 -0.0117812
-0.0321103 0.17853899 -0.0110044
-0.0321103 0.17853899 -0.0110044
-0.0326268 0.052022699 -0.0107626
-0.0366336 0.054852899 -0.010755
-0.016583901 0.159908 -0.0098254997
-0.0246433 0.1802115 -0.0097102001
-0.0605167 0.038622402 -0.0086596999
0.038214698 0.060320798 -0.0087398998
-0.069443598 0.1413645 -0.0086960495
-0.0274521 0.175685 -0.0082189003
-0.0513331 0.033432301 -0.0071854
-0.063543797 0.034184702 -0.0078673996
0.0184894 0.03497 -0.0076506999
0.0303629 0.048313599 -0.0076513002
0.0303629 0.048313599 -0.0076513002
-0.064012103 0.13699199 -0.0076342002
-0.073452801 0.14300101 -0.0078701004
-0.0193156 0.16250201 -0.0070298002
-0.0193156 0.16250201 -0.0070298002
0.043369301 0.057527199 -0.0054369001
0.044874601 0.060103901 -0.0042428002
-0.0262192 0.16245601 -0.0047247
-0.032501802 0.17710499 -0.0044338
-0.041504301 0.0340515 -0.0039392002
-0.022818601 0.16102099 -0.0033098001
-0.038830198 0.173903 -0.0034278
-0.038830198 0.173903 -0.0034278
-0.065196097 0.033497401 -0.0027596999
-0.064244799 0.0333797 -0.0024594001
-0.0245154 0.158144 -0.0022481
-0.033510402 0.169764 -0.0029353001
-0.035357699 0.174409 -0.0021201
-0.035357699 0.174409 -0.0021201
-0.069396302 0.039387099 -0.0013226999
-0.060790699 0.060939401 -0.0015406
-0.057890601 0.060047202 -0.0017343001
-0.034116801 0.038313601 -0.0008252
-0.031499799 0.155167 -8.7200002e-05
-0.026729001 0.15962601 -0.000161
-0.0332327 0.16096701 -0.00080420001
-0.0364476 0.166788 -0.00019750001
-0.0388285 0.033992499 0.00031910001
-0.070989698 0.0340252 0.00099169998
0.0022158001 0.036472801 0.00081639999
-0.00025819999 0.038805801 4.9300001e-05
-0.061710302 0.0604885 0.00057149999
0.0485163 0.067248799 0.00061290001
-0.0331866 0.15511 0.00098470005
-0.038137499 0.16090199 0.0008714
-0.038137499 0.16090199 0.0008714
0.0047861999 0.034299899 0.0014534
-0.085225701 0.114326 0.001271
-0.038919602 0.163835 0.0015018
-0.061698999 0.059943099 0.0029519999
-0.034837101 0.155104 0.0021182999
-0.035877801 0.15950599 0.0024085999
-0.0590287 0.048131701 0.0036647001
-0.0590287 0.048131701 0.0036647001
-0.038468201 0.15361001 0.0038772
-0.038468201 0.15361001 0.0038772
-0.0350102 0.158094 0.0036768999
-0.071015403 0.039133199 0.004214
-0.057508599 0.050793901 0.0046631
-0.057058699 0.0521462 0.0046636998
-0.060579799 0.15568601 0.0046656998
-0.060579799 0.15568601 0.0046656998
-0.060579799 0.15568601 0.0046656998
-0.0291577 0.038055498 0.0058539999
-0.060732398 0.059258401 0.0057187998
-0.049266499 0.14317501 0.0064077
-0.084236898 0.1516705 0.00639555
-0.084236898 0.1516705 0.00639555
-0.041700799 0.153622 0.0062593999
-0.068043597 0.033763502 0.0072029
-0.072066002 0.035346899 0.0081701996
-0.069428898 0.039567001 0.0096858004
-0.055154301 0.0561755 0.0096044997
-0.0310017 0.033992201 0.010953
-0.0310017 0.033992201 0.010953
-0.0310017 0.033992201 0.010953
-0.059611298 0.0581543 0.0105384
-0.059611298 0.0581543 0.0105384
-0.065233298 0.0338884 0.0112389
-0.0338438 0.033731598 0.012415
-0.052585501 0.0528134 0.0122839
-0.052585501 0.0528134 0.0122839
0.051450402 0.073567398 0.0125302
-0.054352701 0.15503401 0.0127444
-0.06788145 0.035319101 0.0134937
-0.0268606 0.037863899 0.0137313
0.0474981 0.073713899 0.0139878
0.0474981 0.073713899 0.0139878
-0.089703999 0.111925 0.0143387
-0.0623108 0.039732002 0.0166963
0.046274301 0.077512197 0.016536601
0.046274301 0.077512197 0.016536601
-0.0601377 0.033829901 0.0176745
-0.0288615 0.035396699 0.017349999
-0.061646499 0.0397266 0.017441301
-0.051588599 0.046073899 0.017682901
-0.043465499 0.127159 0.0186744
-0.0018056 0.0384438 0.020130301
-0.051490899 0.054483298 0.0216233
0.0454669 0.076116502 0.0216249
-0.056722499 0.043788999 0.0226896
-0.052799098 0.057870701 0.0222512
-0.052799098 0.057870701 0.0222512
0.0502632 0.071349703 0.022405
-0.032577898 0.034100398 0.023154899
-0.030151799 0.036080901 0.023674101
0.049290199 0.0704301 0.0235452
-0.046019301 0.128067 0.023625501
-0.059559301 0.034117602 0.024610501
-0.058568701 0.0340745 0.024857299
0.044051498 0.072227404 0.0248494
-0.064889804 0.035353601 0.025763201
0.043583602 0.0722927 0.025986699
-0.083876804 0.108986 0.025368299
-0.064736798 0.035041701 0.0261211
-0.0608362 0.034159299 0.0278122
0.0474899 0.066497497 0.0274045
0.045487501 0.062462699 0.0298224
-0.0816857 0.104685 0.029748799
-0.044496302 0.119293 0.029410301
-0.043496799 0.119301 0.029538499
-0.0484634 0.122511 0.0297787
0.00171 0.0392427 0.0309786
0.043492801 0.059718501 0.030951001
-0.049005602 0.122549 0.0307687
0.043489099 0.058370199 0.031605098
-0.048746198 0.118344 0.031163
-0.065424003 0.039979599 0.032666098
0.0386074 0.061770201 0.0328492
0.038908001 0.063163199 0.033303
-0.083853699 0.110728 0.033992201
-0.047493398 0.115292 0.0331905
-0.056480698 0.113914 0.0357075
-0.0049613002 0.0393649 0.036702201
-0.028504601 0.058806699 0.036766998
-0.052497499 0.111152 0.036920998
-0.056341052 0.115386 0.0361173
-0.032488201 0.056065399 0.037515301
-0.074854098 0.107208 0.037040502
-0.074854098 0.107208 0.037040502
-0.058497299 0.109766 0.037791301
-0.063669898 0.112355 0.037620801
-0.060090799 0.115373 0.037561599
0.0031071 0.0348555 0.038781099
-0.064892799 0.035037398 0.038378999
-0.0254455 0.0389929 0.038191099
-0.024400299 0.039040402 0.038365301
-0.0123306 0.039482199 0.038671099
-0.0112898 0.039529201 0.038844101
-0.067492999 0.105571 0.038919099
-0.058327898 0.116979 0.038360901
-0.0379081 0.034510799 0.039380699
-0.032497801 0.066105403 0.039651498
-0.066507697 0.105605 0.039214499
-0.063490197 0.106988 0.039264701
-0.042549402 0.034616299 0.040045999
0.0023080001 0.034602799 0.0406387
0.0033481 0.034649398 0.040814001
0.0080064004 0.0345135 0.040096801
-0.040495802 0.046491101 0.040813599
-0.040495802 0.047842801 0.040073302
-0.0252694 0.0564528 0.040012501
-0.073685199 0.109489 0.040857799
-0.069061801 0.110676 0.040954798
-0.064070098 0.113939 0.0406208
-0.064070098 0.113939 0.0406208
0.0074254 0.034672201 0.041632801
-0.029049 0.051150199 0.041113898
0.0085011004 0.107119 0.041194901
-0.070271797 0.110271 0.041002698
-0.0050172 0.034802102 0.042544901
-0.0050172 0.034802102 0.042544901
-0.0630631 0.035120599 0.0420909
-0.0274022 0.073461853 0.042835001
-0.0274022 0.073461853 0.042835001
-0.0345218 0.081806697 0.0425242
-0.0424904 0.086015902 0.042690299
-0.0424904 0.086015902 0.042690299
-0.069605403 0.110911 0.042429298
-0.0241332 0.034969699 0.043675002
-0.016471401 0.034812801 0.043684699
-0.0424265 0.03944125 0.043427102
-0.041505702 0.039625399 0.043059401
-0.041505702 0.039625399 0.043059401
-0.035115499 0.046085902 0.043064699
-0.035115499 0.046085902 0.043064699
-0.014359 0.102532 0.043373801
-0.0104909 0.104437 0.0435533
-0.0084915003 0.104452 0.043713499
0.00048049999 0.104429 0.043650899
-0.0114338 0.034760602 0.044802699
0.0116939 0.045928299 0.044769499
-0.029546499 0.081913203 0.044143699
-0.0293156 0.082040302 0.044658799
-0.029494399 0.088949598 0.044252001
-0.029494399 0.088949598 0.044252001
-0.031492501 0.093213797 0.044428799
-0.027498299 0.093224697 0.044764299
-0.027498299 0.093224697 0.044764299
-0.0216559 0.097210303 0.044970501
-0.0216559 0.097210303 0.044970501
-0.0216559 0.097210303 0.044970501
-0.0044934 0.104477 0.044039302
-0.0044952999 0.10588 0.044032998
0.0016017 0.035127498 0.045417499
-0.0370734 0.039395101 0.0451959
-0.0370734 0.039395101 0.0451959
-0.0370734 0.039395101 0.0451959
0.0065027 0.044151999 0.045742199
-0.020414 0.0541289 0.046538901
-0.020612501 0.055371199 0.046704698
-0.0057943002 0.0351694 0.047426101
-0.0034495499 0.0426616 0.047521502
-0.0014969 0.0456811 0.047029
0.0184671 0.091365397 0.047918499
-0.0084576998 0.100229 0.047603302
-0.019464601 0.0347564 0.048364501
-0.0094515001 0.0352364 0.048345301
-0.0249827 0.091847397 0.0485489
-0.0223183 0.094515003 0.048639901
-0.0033853999 0.100168 0.048377302
-0.0033853999 0.100168 0.048377302
-0.080723502 0.116228 0.048162401
-0.079847999 0.116269 0.048757501
0.00050720002 0.047421299 0.049671002
-0.022491399 0.04868 0.049188498
-0.0144633 0.051615 0.049513299
-0.026684999 0.034986399 0.050036401
-0.0185134 0.0473863 0.05026
-0.0074836998 0.048896901 0.050243299
-0.003486 0.048939399 0.050606001
-0.0171133 0.039076298 0.0521827
-0.0171133 0.039076298 0.0521827
-0.0292503 0.036802001 0.0530596
-0.0292503 0.036802001 0.0530596
-0.028541099 0.036706403 0.053433798
-0.061224833 0.172795 -0.061318863
-0.066757604 0.17307076 -0.058640629
-0.067691296 0.17227501 -0.057027798
-0.061609551 0.16938651 -0.055091649
-0.066376753 0.15557301 -0.052206747
-0.066376753 0.15557301 -0.052206747
-0.066730544 0.17858225 -0.053151175
-0.063508324 0.15978551 -0.051177301
-0.069162756 0.16096851 -0.051451847
-0.074075297 0.174982 -0.051082902
-0.070677131 0.17699485 -0.047110636
-0.0721201 0.149786 -0.0402916
-0.078862198 0.169438 -0.040960498
-0.078862198 0.169438 -0.040960498
-0.071838103 0.155405 -0.039914399
-0.075131804 0.1624345 -0.033457153
-0.040028501 0.0339876 -0.029545801
-0.023007799 0.034889851 -0.02828715
-0.019111149 0.039344899 -0.02814305
-0.0208348 0.095618501 -0.0294009
-0.0052390001 0.098230399 -0.028051399
-0.017112851 0.039304201 -0.027633552
-0.0095987003 0.0391743 -0.0260833
-0.040591199 0.040490899 -0.026297599
-0.016261199 0.17862 -0.026012801
-0.0152354 0.033641499 -0.02436335
-0.027113 0.04895645 -0.02503
-0.032986116 0.086995579 -0.025292398
-0.032986116 0.086995579 -0.025292398
-0.0238533 0.095801897 -0.025596701
-0.076110497 0.16738699 -0.0256061
-0.038784549 0.0335581 -0.023290299
-0.036743999 0.033562351 -0.022893649
0.0029064501 0.034778349 -0.023000401
-0.0042882999 0.0999626 -0.023882199
-0.0042882999 0.0999626 -0.023882199
-0.023525933 0.10113633 -0.023932502
-0.0190919 0.1031345 -0.0232946
-0.0053720996 0.10522025 -0.022743925
-0.020527 0.17516799 -0.022317732
-0.041246451 0.076834098 -0.018800251
-0.035755001 0.078324802 -0.0195335
-0.035755001 0.078324802 -0.0195335
-0.015714601 0.17719001 -0.019376701
-0.0455391 0.039622501 -0.0172907
0.022389099 0.045171052 -0.017305501
-0.03616995 0.048254102 -0.016702801
-0.030615401 0.055227701 -0.016880751
-0.0483458 0.033897199 -0.0143683
-0.0483458 0.033897199 -0.0143683
0.0200755 0.039979499 -0.015706901
-0.019081499 0.16163701 -0.01455635
-0.02113755 0.1621995 -0.01507015
-0.041267201 0.0338015 -0.0128657
0.021067901 0.040827624 -0.013197524
-0.0336762 0.062222 -0.0135529
-0.0336762 0.062222 -0.0135529
-0.01542 0.16690999 -0.0137031
-0.01542 0.16690999 -0.0137031
-0.058681 0.033641402 -0.0106847
-0.053059451 0.038649175 -0.011346175
-0.041358765 0.048944667 -0.011298367
-0.033287968 0.051079433 -0.010845833
-0.039136749 0.054869398 -0.011068201
0.035006352 0.05725025 -0.01120015
-0.020375101 0.16536801 -0.0103486
-0.065661334 0.13454832 -0.0081695663
-0.065864198 0.141582 -0.0084015997
-0.062425051 0.1490975 -0.0090749003
-0.0227571 0.16536051 -0.0093987007
-0.048726097 0.033544898 -0.0067628501
0.030921699 0.048886202 -0.0075955749
0.030921699 0.048886202 -0.0075955749
0.04021655 0.0647 -0.0072667999
-0.064508647 0.13552201 -0.0078465994
-0.073458254 0.1369455 -0.0070455
-0.018812399 0.1624985 -0.0071767503
0.039143369 0.058829267 -0.0052378667
0.045429699 0.06015715 -0.0042971
-0.075657748 0.1132865 -0.0056817997
-0.01897745 0.16111851 -0.0056420499
-0.026704099 0.1624485 -0.00454885
-0.030309301 0.178837 -0.005775
-0.0705055 0.0343308 -0.002786
0.0134758 0.03428695 -0.0023884
-0.049033534 0.12840533 -0.0029515
-0.058699898 0.141645 -0.0039949999
-0.058970332 0.14314534 -0.0029279999
-0.021924499 0.161037 -0.0037690001
-0.0633756 0.033403747 -0.00050214998
-0.071193054 0.034679774 -0.00057647499
-0.071193054 0.034679774 -0.00057647499
-0.062936202 0.045259148 -0.00071765005
-0.056406252 0.054823853 -0.00090019999
0.043145999 0.065033898 -0.0011766
0.043145999 0.065033898 -0.0011766
0.049068049 0.066267148 -0.0003905
0.044033699 0.073440701 -0.00080480002
0.044033699 0.073440701 -0.00080480002
-0.081127673 0.110833 -0.00088685
-0.061235566 0.15087669 -0.00069979997
-0.0364476 0.166788 -0.00019750001
-0.03495745 0.1727415 -0.00057795004
-0.050581999 0.13546 0.00044040001
-0.078361705 0.1527755 0.00064605003
-0.077514946 0.1535715 0.00079219998
-0.062635802 0.033487149 0.00317745
-0.049489498 0.143125 0.0033845999
-0.066895224 0.033619199 0.0051806667
-0.062417202 0.059905399 0.0047964002
0.0469408 0.071337648 0.0044544004
-0.066716105 0.155102 0.0053773001
-0.04885675 0.137064 0.0069071501
-0.049195848 0.138602 0.0069022002
-0.0444883 0.150664 0.0074438001
-0.069428898 0.039567001 0.0096858004
-0.063012868 0.059394266 0.0087361336
-0.046871625 0.15504575 0.0088829501
-0.0310017 0.033992201 0.010953
-0.070338897 0.035332602 0.0107638
-0.0534993 0.050715998 0.01184305
-0.0550665 0.056550749 0.0108169
-0.030588601 0.034116901 0.0127308
-0.030588601 0.034116901 0.0127308
0.05311165 0.073627599 0.01315725
-0.088523649 0.10301375 0.012883275
-0.087829851 0.105012 0.0128719
-0.053654499 0.15429901 0.0129697
-0.053654499 0.15429901 0.0129697
-0.035328966 0.035142999 0.015053834
-0.062940747 0.04105185 0.015176401
-0.057230499 0.057507999 0.0152056
0.046267834 0.078981526 0.014976633
-0.086608097 0.1090785 0.01484945
-0.0904966 0.150198 0.01463255
-0.0904966 0.150198 0.01463255
0.047288202 0.073137097 0.0168777
0.047288202 0.073137097 0.0168777
-0.054660801 0.0336258 0.018996399
-0.087764651 0.1036815 0.01886085
-0.062256169 0.035072997 0.020763898
-0.051266029 0.050963402 0.021128099
-0.05278245 0.057114951 0.021518301
-0.039173599 0.12615749 0.0202181
0.0152991 0.034657098 0.023397401
-0.062001899 0.040137202 0.0237075
0.050599664 0.070953965 0.023038467
-0.088913582 0.1133255 0.022927782
-0.037080433 0.12491233 0.0229693
-0.033161201 0.034258202 0.0246899
-0.060802601 0.042818747 0.025196351
0.044135101 0.074946202 0.025012501
-0.047575802 0.13126566 0.024830433
-0.058647752 0.034192502 0.026493549
-0.062445149 0.0430158 0.0271818
-0.053920198 0.061013099 0.0274265
0.048998803 0.067157447 0.0270635
-0.082888454 0.108961 0.02685535
-0.082888454 0.108961 0.02685535
-0.045501899 0.122005 0.026110901
0.041041598 0.061022952 0.0296786
-0.082713053 0.1046545 0.0286557
0.0114822 0.035705499 0.030727949
-0.00089259999 0.03912605 0.0305495
-0.00089259999 0.03912605 0.0305495
0.0011891 0.03921935 0.0308943
0.040335551 0.060960747 0.030046899
-0.043002598 0.1179745 0.031085949
-0.066460505 0.035348576 0.032761998
0.01156495 0.0352134 0.032990649
-0.049965698 0.057227802 0.033479702
-0.0576046 0.151067 0.032637499
-0.066450097 0.0353918 0.034280699
-0.0573259 0.048117451 0.035164148
-0.051920701 0.049309399 0.035390601
-0.077055372 0.1028135 0.035070047
-0.056819469 0.11344666 0.035853598
-0.056819469 0.11344666 0.035853598
-0.048998524 0.11323625 0.03522535
-0.046999801 0.11321 0.035162598
-0.040819302 0.034482151 0.0370318
-0.050458401 0.050264399 0.0363006
-0.02900145 0.058815151 0.036821947
-0.075283848 0.107347 0.036839902
-0.075283848 0.107347 0.036839902
-0.045112498 0.034561701 0.039542697
-0.064350061 0.041002069 0.038923133
-0.03299915 0.05059965 0.03833225
-0.03299915 0.05059965 0.03833225
-0.033496398 0.057547301 0.038254201
-0.0291641 0.070796572 0.039743666
-0.067003347 0.1049025 0.039421998
-0.081104204 0.10978 0.038945451
-0.081104204 0.10978 0.038945451
-0.067141846 0.110888 0.038705498
-0.057174724 0.11911137 0.038993314
-0.064536601 0.035537049 0.04055845
-0.033342633 0.034610033 0.040849566
0.0028280499 0.034626096 0.040726349
-0.040996775 0.047170747 0.040454775
-0.0369967 0.074726403 0.041955248
-0.0315191 0.083120301 0.0417649
-0.0315191 0.083120301 0.0417649
-0.0045610499 0.034702152 0.042726852
-0.038694236 0.037100635 0.043226838
-0.044524651 0.040808551 0.043732502
-0.030702835 0.049122434 0.043296099
-0.0355107 0.078977197 0.042288501
0.00098174997 0.1072225 0.042916201
-0.068937428 0.11129566 0.042857569
-0.061327498 0.12266333 0.042930901
-0.025368299 0.034811251 0.045299448
-0.021533702 0.055323102 0.04551065
-0.022483701 0.058759149 0.044248849
-0.026277499 0.073604003 0.0447421
-0.026950274 0.093215317 0.045041002
-0.026950274 0.093215317 0.045041002
-0.0250537 0.094944835 0.044714201
-0.0210783 0.09719345 0.0451493
-0.0085015995 0.101663 0.044046499
-0.00277445 0.101068 0.04487294
0.00076009997 0.035761148 0.046463102
-0.035286799 0.040843748 0.046901401
-0.0027631 0.041057549 0.0475199
-0.01900265 0.049895249 0.046698101
0.0114179 0.048970401 0.047894001
-0.0262003 0.075078897 0.046026099
-0.028315732 0.083087437 0.046951067
0.0184671 0.091365397 0.047918499
-0.024600849 0.034854949 0.048888199
-0.02298985 0.048691198 0.049248699
-0.0135059 0.035787899 0.050471202
-0.0129802 0.053138699 0.050849602
-0.0110003 0.053201102 0.051683649
-0.029076651 0.03576215 0.052298851
-0.029076651 0.03576215 0.052298851
-0.0171714 0.043261301 0.052118201
-0.07758715 0.17500675 -0.048760924
-0.040918097 0.044807702 -0.021570701
-0.029620735 0.058343112 -0.021517821
-0.0745847 0.15375924 -0.022401262
-0.049804091 0.034203608 -0.013073904
-0.06346444 0.15749289 -0.014584056
-0.011718422 0.16532899 -0.014931927
-0.022045953 0.1851788 -0.014181614
-0.034203433 0.051181316 -0.010706903
-0.0416549 0.057788361 -0.011675626
0.038315795 0.058103185 -0.0064166943
-0.057916462 0.134233 -0.0058995718
-0.058187187 0.13793743 -0.0054051182
-0.075372919 0.1555925 -0.0016795166
-0.061805747 0.033461224 0.0024687625
-0.062085643 0.15379135 0.0018989781
-0.057907157 0.033513896 0.006140471
-0.044652149 0.1539735 0.00770265
-0.063335203 0.0436031 0.0119653
-0.048582111 0.13775063 0.013926241
-0.061951973 0.059435766 0.017983224
-0.044289399 0.126542 0.019839801
-0.049514197 0.13797399 0.018087339
-0.064063899 0.035196301 0.0227232
-0.060228098 0.059992 0.021311199
-0.048411213 0.13150114 0.026514487
-0.049843404 0.034382835 0.030232772
-0.054104384 0.034445785 0.033800997
-0.018125989 0.03884545 0.033707637
-0.051403049 0.12994759 0.032537661
-0.022009362 0.039096601 0.037913814
-0.076546498 0.107865 0.036142901
-0.038744934 0.038199868 0.043023601
0.0015804917 0.035298999 0.04555491
0.0057065496 0.035322748 0.044891335
-0.030475387 0.047046598 0.046412259
-0.021616071 0.061783772 0.045936204
-0.067384943 0.17927232 -0.058418453
-0.011986127 0.036292322 -0.025732858
-0.014336879 0.18498085 -0.025631201
-0.019934719 0.038479812 -0.0041399794
0.04487139 0.041007668 0.011937061
-0.068385407 0.15598199 0.011799993
-0.071003862 0.065358974 0.022638708
-0.011998356 0.038614184 0.027995981
-0.065313004 0.063468605 0.025667572
-0.072165251 0.07141535 0.032662049
-0.063020214 0.16180438 -0.024672225
-0.012145511 0.17009406 -0.02210808
-0.0065747732 0.12853976 -0.0014223187
0.016615942 0.12845525 0.018045625
