# .PCD v0.7 - Point Cloud Data file format
VERSION 0.7
FIELDS x y z
SIZE 4 4 4
TYPE F F F
COUNT 1 1 1
WIDTH 1530
HEIGHT 1
VIEWPOINT 0 0 0 1 0 0 0
POINTS 1530
DATA ascii
12.315838 -48.491825 -0.37022841
12.265936 -48.492691 -0.36243117
12.216051 -48.493526 -0.35303438
12.166082 -48.494503 -0.35083556
12.116014 -48.495655 -0.35743475
12.066202 -48.496365 -0.3416394
12.016172 -48.497452 -0.34503937
11.966166 -48.498493 -0.34603965
11.91617 -48.499519 -0.34624052
11.866074 -48.500717 -0.35523903
11.81616 -48.501598 -0.34824157
11.766165 -48.502621 -0.3484422
11.716122 -48.503723 -0.35264182
11.666193 -48.504639 -0.34724402
11.616198 -48.505661 -0.34744465
11.566265 -48.506577 -0.34204686
11.51602 -48.508026 -0.36384189
11.466272 -48.508629 -0.34244812
11.418121 -48.506519 -0.18348968
10.819471 -48.516609 -0.073926687
10.768503 -48.519287 -0.15810585
10.717543 -48.52195 -0.24148524
10.666584 -48.524612 -0.32486451
10.616365 -48.526012 -0.34426022
10.566593 -48.526657 -0.325266
10.516487 -48.527874 -0.33506417
10.46648 -48.528915 -0.33606458
10.416458 -48.529984 -0.33866465
10.366518 -48.530914 -0.33406663
10.316494 -48.53199 -0.3366667
10.266609 -48.532822 -0.32726991
10.216475 -48.534084 -0.33946741
10.166471 -48.535126 -0.34046805
10.11655 -48.536022 -0.33427036
10.066433 -48.537254 -0.3448683
10.016529 -48.538116 -0.33707106
9.966486 -48.539223 -0.3412708
9.9164734 -48.540279 -0.34307098
9.866581 -48.54113 -0.33447397
9.816576 -48.542168 -0.33547449
9.766552 -48.543243 -0.33807456
9.716629 -48.544144 -0.33187687
9.6666718 -48.545101 -0.3288784
9.6166306 -48.546204 -0.33307803
9.5667076 -48.547104 -0.32688034
9.5167675 -48.548035 -0.32228231
9.4670677 -48.548553 -0.29688954
8.9343452 -48.530552 1.1877216
8.8847961 -48.530823 1.225911
8.8353367 -48.530933 1.2720984
8.7856865 -48.531372 1.3014902
8.735754 -48.532288 1.3068881
8.68573 -48.533363 1.304288
8.6357536 -48.534355 1.3056868
8.5857296 -48.535423 1.3030868
8.5357895 -48.536354 1.3076849
8.4857922 -48.53738 1.3074841
8.4357052 -48.538559 1.2992855
8.3857384 -48.539539 1.3014842
8.3358727 -48.540344 1.3124807
8.2858124 -48.541481 1.3066814
8.2358246 -48.542488 1.3072805
8.1858196 -48.543526 1.30628
8.1359081 -48.544411 1.3132775
8.085865 -48.545513 1.3090779
8.0359459 -48.54641 1.3152755
7.9861526 -48.547089 1.3326703
7.9368057 -48.547012 1.3884553
7.888998 -48.544319 1.5770061
7.8414669 -48.541157 1.789551
7.7924728 -48.540482 1.8757281
7.7438374 -48.539192 1.9930972
7.6941872 -48.539635 2.0224891
7.6442852 -48.540501 2.0302863
7.5942497 -48.541588 2.0268865
7.5442467 -48.542625 2.0258861
7.4939995 -48.544075 2.0040908
7.4433174 -48.546265 1.9447052
7.3926468 -48.548439 1.8861195
7.3421879 -48.550255 1.845929
7.2914047 -48.552616 1.7777457
7.2408333 -48.554619 1.7279578
7.1904297 -48.556335 1.6925662
7.1395168 -48.558918 1.6131858
7.0888901 -48.561012 1.558599
7.0381432 -48.563313 1.4936149
6.9872017 -48.565941 1.4118352
6.9362717 -48.568558 1.3308551
6.8856201 -48.570702 1.273869
6.8344917 -48.573647 1.1760933
6.7834663 -48.57642 1.0871155
6.7321892 -48.579617 0.97654307
6.6809921 -48.582687 0.87236905
6.6299286 -48.585526 0.7801919
6.5785065 -48.588974 0.6568228
6.5263252 -48.593712 0.46787059
6.4739914 -48.598705 0.26612151
6.420208 -48.606171 -0.061195254
15.134935 -48.19474 1.6582034
15.084799 -48.195999 1.6460057
15.034006 -48.19838 1.5770227
12.261076 -48.294094 -0.43350255
12.211246 -48.294838 -0.41930699
12.161455 -48.295513 -0.40191221
12.11182 -48.295925 -0.37092102
12.061991 -48.296665 -0.35672534
12.012091 -48.297531 -0.34892809
11.962055 -48.298622 -0.35232794
11.912069 -48.299629 -0.3517288
11.862112 -48.300591 -0.34873021
11.812096 -48.301647 -0.35053062
11.762119 -48.302639 -0.3491317
11.712076 -48.303741 -0.35333133
11.662212 -48.304546 -0.34233499
11.612135 -48.305714 -0.34973383
11.562164 -48.30669 -0.34753501
11.512133 -48.307777 -0.35093498
11.46244 -48.308281 -0.32474244
11.412224 -48.309685 -0.34413826
11.361904 -48.311264 -0.37233174
11.311733 -48.312584 -0.38772845
11.262432 -48.312431 -0.32794464
11.213131 -48.312271 -0.2681607
11.163832 -48.312115 -0.20837665
11.114531 -48.311958 -0.14859283
11.064377 -48.313251 -0.16238987
11.013685 -48.31546 -0.22257531
10.96216 -48.31908 -0.35474217
10.911629 -48.321018 -0.40133095
10.863867 -48.318249 -0.20878112
10.813667 -48.319618 -0.22657728
10.762272 -48.323021 -0.34754694
10.712303 -48.323997 -0.34534824
10.662483 -48.324722 -0.3303529
10.612406 -48.32589 -0.33775175
10.562391 -48.326946 -0.33955204
10.512321 -48.328094 -0.34615099
10.462399 -48.328995 -0.3399533
10.412331 -48.330147 -0.34655249
10.362371 -48.331108 -0.34355402
10.312393 -48.3321 -0.34215498
10.262444 -48.333046 -0.33835673
10.212412 -48.334137 -0.3417567
10.162399 -48.33519 -0.343557
10.112404 -48.336212 -0.34375763
10.062433 -48.337189 -0.34155881
10.012411 -48.338264 -0.34415901
9.9624329 -48.339256 -0.34276009
9.912447 -48.340263 -0.34216094
9.8624535 -48.34129 -0.34236157
9.8124371 -48.342346 -0.34416199
9.7624702 -48.343323 -0.34196329
9.7125111 -48.344284 -0.33896482
9.6625061 -48.345322 -0.33996522
9.6125107 -48.346348 -0.34016597
9.5625134 -48.347374 -0.34036672
9.5125923 -48.348274 -0.33416891
9.4625893 -48.349312 -0.33516943
9.412611 -48.350304 -0.33377051
9.3626537 -48.351265 -0.33077204
9.3128242 -48.352009 -0.3165766
8.7805939 -48.333172 1.2104238
8.7312183 -48.333141 1.2638094
8.6816311 -48.333473 1.2987996
8.6316357 -48.334496 1.298599
8.5815926 -48.335602 1.2943993
8.5317078 -48.336433 1.3037962
8.4816647 -48.33754 1.2995965
8.4316978 -48.338516 1.3017952
8.3817139 -48.339523 1.3023943
8.3316879 -48.340599 1.2997942
8.2817478 -48.34153 1.3043923
8.2317333 -48.342583 1.302592
8.1817188 -48.343643 1.3007917
8.1317711 -48.344589 1.30459
8.0817738 -48.345612 1.3043894
8.0318737 -48.346478 1.3121866
7.9818115 -48.34761 1.3063873
7.9319096 -48.34848 1.3141845
7.8819962 -48.349361 1.321182
7.8320274 -48.350342 1.3233807
7.7844887 -48.347191 1.5351257
7.737299 -48.343445 1.7772628
7.6886044 -48.342266 1.8890334
7.6398602 -48.341164 1.9968051
7.5901222 -48.341747 2.0189986
7.5402203 -48.342613 2.0267959
7.4902611 -48.343575 2.0297945
7.4401073 -48.344868 2.0159972
7.3895931 -48.346775 1.9710081
7.3391724 -48.348526 1.9340167
7.2884445 -48.350792 1.8706322
7.2379932 -48.352589 1.8312416
7.187191 -48.35498 1.7614588
7.1367245 -48.356812 1.7204685
7.0859203 -48.359207 1.6506857
7.0353127 -48.361267 1.5976985
6.9845467 -48.363602 1.5311148
6.9337845 -48.365929 1.4645312
6.882946 -48.368389 1.3915491
6.8320503 -48.370941 1.3137684
6.7811432 -48.373508 1.2351878
6.7300453 -48.376408 1.1398115
6.6791077 -48.379036 1.0580317
6.6277084 -48.382439 0.93706197
6.5763893 -48.385719 0.82249057
6.524559 -48.389862 0.66393054
6.4735603 -48.392582 0.57735205
6.42099 -48.397987 0.35480833
6.3689117 -48.40255 0.17465365
12.007322 -48.098778 -0.41200149
11.957733 -48.099106 -0.37701118
11.908014 -48.099663 -0.35321808
11.85804 -48.100655 -0.35181916
11.807978 -48.101788 -0.35761857
11.758165 -48.102497 -0.34182334
11.708038 -48.103741 -0.35322106
11.658073 -48.104721 -0.35102248
11.607996 -48.105885 -0.35842121
11.558027 -48.106865 -0.35622251
11.50803 -48.107887 -0.35642326
11.458033 -48.10891 -0.35662389
11.408077 -48.109875 -0.35362542
11.35808 -48.110901 -0.35382617
11.30806 -48.111969 -0.35642624
11.258081 -48.112961 -0.35502744
11.208344 -48.113548 -0.33283377
11.158201 -48.114822 -0.34583116
11.107973 -48.116241 -0.36602676
11.05806 -48.117126 -0.35902929
11.00815 -48.118008 -0.35203183
10.958347 -48.118702 -0.33543682
10.908094 -48.120167 -0.35803175
10.8587 -48.120171 -0.30624568
10.808239 -48.121979 -0.34643626
10.758144 -48.123177 -0.35543466
10.708128 -48.124229 -0.35723507
10.658215 -48.125114 -0.35023749
10.608175 -48.126221 -0.35443711
10.558233 -48.127151 -0.34983909
10.508249 -48.128159 -0.34924006
10.458271 -48.12915 -0.34784102
10.408237 -48.130241 -0.35124099
10.35828 -48.131203 -0.3482424
10.308266 -48.132256 -0.3500427
10.258314 -48.133202 -0.34624457
10.208275 -48.134308 -0.35044408
10.158316 -48.135265 -0.34744561
10.108303 -48.136322 -0.34924591
10.058315 -48.137329 -0.34864676
10.008383 -48.138245 -0.34324896
9.958395 -48.139256 -0.34264994
9.9084015 -48.140282 -0.34285045
9.8583622 -48.14138 -0.34705031
9.8083744 -48.142391 -0.34645116
9.7584515 -48.143291 -0.34025347
9.708353 -48.144489 -0.34925187
9.6582947 -48.145622 -0.35505104
9.6083813 -48.146507 -0.34805357
9.5584488 -48.147419 -0.34265578
9.5084095 -48.148521 -0.3468554
9.4584484 -48.149483 -0.34385693
9.4085121 -48.150414 -0.33925891
9.3584766 -48.151505 -0.34265876
9.3084621 -48.152557 -0.34445894
9.2585144 -48.153503 -0.34066081
9.2085361 -48.154495 -0.33926189
9.1587162 -48.155224 -0.32426655
9.1093807 -48.155128 -0.26768172
9.0615139 -48.152531 -0.083929539
9.0136528 -48.149933 0.09982264
8.9657974 -48.147324 0.28437448
8.9179325 -48.144726 0.46812665
8.8700886 -48.142097 0.65347838
8.8222237 -48.1395 0.83723056
8.7743702 -48.136887 1.0217824
8.7261257 -48.134933 1.1727431
8.6765728 -48.135204 1.2109325
8.6271744 -48.13522 1.2619187
8.5774727 -48.135742 1.2873114
8.5276623 -48.136452 1.3031065
8.4775715 -48.137634 1.2949079
8.4275684 -48.138672 1.2939075
8.3776493 -48.139572 1.3001051
8.3275967 -48.140694 1.2951057
8.277647 -48.14164 1.2989039
8.2277145 -48.142551 1.3043019
8.1776199 -48.143749 1.2953035
8.1276321 -48.14476 1.2959025
8.0775795 -48.145874 1.2909031
8.0276775 -48.146744 1.2987003
7.9777451 -48.147659 1.3040981
7.9277344 -48.148712 1.3022979
7.8777084 -48.149788 1.2996979
7.8277779 -48.1507 1.3050957
7.7779598 -48.151428 1.3200911
7.72826 -48.151947 1.3454839
7.6815376 -48.147415 1.6276108
7.6340332 -48.144203 1.8425549
7.5846767 -48.144142 1.8975401
7.5357685 -48.143318 1.9909154
7.4860859 -48.14381 2.0179076
7.4361534 -48.144722 2.0233054
7.3861046 -48.145844 2.0183063
7.3359318 -48.147167 2.0029094
7.2854195 -48.149075 1.9579201
7.2347641 -48.151215 1.900934
7.1842766 -48.153076 1.8583442
7.133606 -48.155251 1.7997584
7.0830441 -48.157234 1.7507703
7.0323868 -48.159378 1.6937841
6.9817505 -48.161488 1.6383976
6.9308891 -48.163994 1.5630162
6.8803024 -48.166023 1.5116286
6.8293304 -48.168701 1.4274495
6.7784729 -48.171192 1.3528678
6.7277145 -48.173508 1.287084
6.6768417 -48.176029 1.2109028
6.6256561 -48.17907 1.1083283
6.5741272 -48.182709 0.9753617
6.5233879 -48.18499 0.9111774
6.4716835 -48.188911 0.76381445
6.4199409 -48.192913 0.61245257
6.3681488 -48.196991 0.45709157
6.3158531 -48.201923 0.25854182
11.903284 -47.900841 -0.41309249
11.853762 -47.901062 -0.37250364
11.803913 -47.901833 -0.35990775
11.753889 -47.902905 -0.3625077
11.704004 -47.90374 -0.35311091
11.654011 -47.904762 -0.35331154
11.603912 -47.90596 -0.36230993
11.553944 -47.90694 -0.36011136
11.503931 -47.907997 -0.36191165
11.45397 -47.908958 -0.35891306
11.403948 -47.91003 -0.36151326
11.354008 -47.910961 -0.35691512
11.303957 -47.912079 -0.36191452
11.253971 -47.913086 -0.36131549
11.203974 -47.914112 -0.36151624
11.153978 -47.915138 -0.36171675
11.104076 -47.916004 -0.35391963
11.054005 -47.917152 -0.36051857
11.004009 -47.918179 -0.36071932
10.954105 -47.919044 -0.35292208
10.904095 -47.920105 -0.35472238
10.854109 -47.921112 -0.35412323
10.803999 -47.922325 -0.36392152
10.754097 -47.923195 -0.35612428
10.704035 -47.924324 -0.36192358
10.653994 -47.92543 -0.3661232
10.604111 -47.926262 -0.35672629
10.554087 -47.927338 -0.35932648
10.504082 -47.928375 -0.36032689
10.454113 -47.929352 -0.35812819
10.4041 -47.930412 -0.35992849
10.354179 -47.931309 -0.3537308
10.304153 -47.932381 -0.35633087
10.254141 -47.933437 -0.35813117
10.204227 -47.934319 -0.35113358
10.154242 -47.935326 -0.35053456
10.104239 -47.936371 -0.35153508
10.054251 -47.937378 -0.35093594
10.004236 -47.938431 -0.35273635
9.9542389 -47.939461 -0.35293698
9.9042816 -47.940422 -0.34993839
9.8542595 -47.94149 -0.35253847
9.8043098 -47.942436 -0.34874022
9.754343 -47.943413 -0.34654152
9.7042065 -47.944679 -0.35873902
9.6543121 -47.945526 -0.35014212
9.6042614 -47.946648 -0.35514152
9.554266 -47.94767 -0.35534227
9.5043068 -47.948631 -0.3523438
9.4543018 -47.949673 -0.3533442
9.4043159 -47.950684 -0.35274518
9.3544235 -47.95153 -0.34414804
9.3043346 -47.952713 -0.35234678
9.2544212 -47.953598 -0.34534931
9.2043686 -47.95472 -0.35034871
9.154356 -47.955772 -0.35214889
9.1045208 -47.956528 -0.33875322
9.0545502 -47.957504 -0.33655441
9.0045929 -47.958466 -0.33355606
8.9559479 -47.957191 -0.21698666
8.9083443 -47.954155 -0.010840178
8.8607407 -47.951118 0.19530618
8.8131447 -47.948067 0.40225232
8.7655602 -47.944996 0.60999835
8.7179546 -47.941956 0.81614476
8.6703606 -47.938904 1.023091
8.6221256 -47.936935 1.1748513
8.5724621 -47.937393 1.2034432
8.5230427 -47.937439 1.2528298
8.4734249 -47.93782 1.2854207
8.4235039 -47.938721 1.2916183
8.373539 -47.939697 1.293817
8.3235226 -47.94075 1.2920167
8.2735271 -47.94178 1.291816
8.2235298 -47.942802 1.2916154
8.1735268 -47.94384 1.2906148
8.1235313 -47.94487 1.2904142
8.0735703 -47.945827 1.2934127
8.0235214 -47.946945 1.2884132
7.9735622 -47.947906 1.2914118
7.9235668 -47.948933 1.291211
7.8735809 -47.949944 1.2918102
7.8236313 -47.95089 1.2956084
7.7736626 -47.951866 1.2978071
7.7237396 -47.952766 1.3040048
7.6738396 -47.953632 1.311802
7.6246872 -47.953224 1.3843827
7.5777874 -47.94899 1.6513135
7.5301819 -47.94595 1.8574599
7.4810295 -47.945541 1.9300406
7.4318027 -47.945259 1.9962227
7.3820572 -47.945858 2.0176167
7.3320065 -47.946976 2.0126171
7.2818909 -47.948208 2.0020192
7.2316265 -47.949688 1.9786243
7.1808701 -47.952003 1.9128405
7.1305695 -47.953548 1.8862466
7.0798969 -47.955723 1.8276608
7.0293541 -47.957672 1.7802722
6.9786072 -47.959976 1.7152882
6.9278641 -47.962273 1.6503041
6.8771553 -47.964512 1.5885192
6.8264999 -47.966656 1.531533
6.7757797 -47.96891 1.4689484
6.7250977 -47.9711 1.4095628
6.6739273 -47.974121 1.3077883
6.6228752 -47.976944 1.2164109
6.5720177 -47.979431 1.1418293
6.5207253 -47.982658 1.0296574
6.4696617 -47.985497 0.93748021
6.4183884 -47.988693 0.82690775
6.3667831 -47.992455 0.6875428
6.314949 -47.996597 0.52898276
11.849152 -47.702038 -0.42198074
11.799728 -47.702087 -0.37259424
11.749846 -47.702919 -0.36319733
11.699848 -47.703945 -0.36339796
11.64978 -47.705093 -0.36999702
11.599878 -47.705963 -0.36219978
11.549816 -47.7071 -0.36799896
11.49983 -47.708107 -0.36739993
11.449852 -47.709099 -0.36600101
11.399811 -47.710205 -0.37020075
11.349871 -47.711136 -0.36560261
11.299969 -47.712002 -0.35780537
11.249908 -47.713135 -0.36360466
11.199921 -47.714142 -0.36300552
11.149952 -47.715118 -0.3608067
11.099995 -47.716084 -0.35780835
11.049978 -47.71714 -0.35960853
10.999956 -47.718208 -0.36220872
10.950062 -47.719063 -0.35361171
10.900003 -47.7202 -0.35941088
10.849869 -47.721458 -0.37160838
10.799982 -47.722294 -0.36221159
10.750061 -47.72319 -0.35601389
10.699953 -47.724403 -0.36581218
10.650023 -47.725319 -0.36041427
10.600019 -47.72636 -0.36141479
10.550014 -47.727402 -0.36241519
10.500065 -47.728348 -0.35861695
10.450031 -47.729431 -0.36201692
10.400036 -47.730461 -0.36221755
10.35018 -47.731247 -0.35042131
10.300007 -47.732571 -0.36581814
10.250114 -47.733421 -0.35722113
10.200073 -47.734528 -0.36142075
10.150124 -47.73547 -0.3576225
10.100101 -47.736542 -0.36022258
10.05014 -47.737503 -0.35722411
10.000154 -47.73851 -0.35662496
9.9502048 -47.739456 -0.35282671
9.9000607 -47.740738 -0.36582398
9.8501606 -47.741604 -0.35802686
9.8002186 -47.742531 -0.35342872
9.7501125 -47.743748 -0.36322689
9.7001991 -47.744629 -0.35622942
9.6501942 -47.745667 -0.35722995
9.6001797 -47.746727 -0.35903037
9.5502205 -47.747688 -0.35603178
9.500206 -47.748741 -0.35783207
9.4502125 -47.749767 -0.35803282
9.4002724 -47.750698 -0.35343468
9.3502483 -47.75177 -0.35603476
9.3002434 -47.752808 -0.35703528
9.2502384 -47.753853 -0.35803568
9.2002316 -47.75489 -0.35903621
9.1502361 -47.755917 -0.35923684
9.1004105 -47.756653 -0.34504128
9.050312 -47.757851 -0.35403967
9.0003719 -47.758781 -0.34944165
8.9503002 -47.759933 -0.35604072
8.9004345 -47.760738 -0.34504426
8.8505325 -47.761604 -0.33724713
8.8032227 -47.758064 -0.10550714
8.7559452 -47.754475 0.12863207
8.7086639 -47.750885 0.36277139
8.6613846 -47.747299 0.59691048
8.6141148 -47.74369 0.83184946
8.5668335 -47.740101 1.0659888
8.5180435 -47.739082 1.1697613
8.4685555 -47.739239 1.2135494
8.4190426 -47.739445 1.254938
8.3693447 -47.739967 1.2803308
8.3194313 -47.740849 1.2873282
8.2694359 -47.741875 1.2871275
8.2194576 -47.742867 1.2885264
8.1694908 -47.743843 1.2907251
8.119421 -47.744995 1.284126
8.0694714 -47.745937 1.2879244
8.0195045 -47.746918 1.2901231
7.9694805 -47.747986 1.287523
7.9194756 -47.749031 1.2865225
7.8695087 -47.750008 1.2887212
7.8195763 -47.750919 1.2941191
7.7695351 -47.752022 1.2899194
7.7195377 -47.753048 1.2897187
7.6695538 -47.754059 1.2903178
7.6196976 -47.754845 1.302114
7.5697842 -47.75573 1.3091116
7.5217266 -47.75346 1.476068
7.4753246 -47.748375 1.7861876
7.4261913 -47.747936 1.860368
7.37743 -47.746864 1.96654
7.3278141 -47.747246 1.9991308
7.2779579 -47.748035 2.0109272
7.2279606 -47.749062 2.0107265
7.1778088 -47.750351 1.9969292
7.1271648 -47.75248 1.940743
7.0767422 -47.754227 1.9037516
7.0261421 -47.756271 1.8515642
6.9755516 -47.758308 1.8001766
6.9248009 -47.76062 1.7343929
6.8742523 -47.762592 1.6862044
6.8234673 -47.764954 1.6180212
6.7725792 -47.767494 1.5410402
6.721962 -47.769569 1.4872532
6.6711426 -47.771996 1.4158708
6.620369 -47.774345 1.3484873
6.5694466 -47.776943 1.2683071
6.5182915 -47.779938 1.1681321
6.4672203 -47.782787 1.0751553
6.415966 -47.785954 0.96618235
6.3645439 -47.789402 0.84281325
6.3134079 -47.792366 0.74423778
6.2615852 -47.79649 0.58647752
6.2099648 -47.80027 0.44631267
11.795174 -47.502968 -0.41727233
11.745466 -47.503506 -0.39267933
11.695377 -47.504688 -0.40087807
11.64542 -47.50565 -0.39787948
11.595434 -47.50666 -0.39728045
11.545437 -47.507683 -0.39748108
11.495369 -47.508831 -0.40408015
11.445427 -47.509762 -0.39948213
11.395395 -47.510849 -0.40288198
11.345381 -47.511906 -0.40468228
11.295488 -47.512756 -0.39608526
11.245493 -47.513783 -0.39628589
11.195551 -47.514709 -0.39168775
11.145445 -47.515926 -0.40148604
11.095514 -47.516838 -0.39608824
11.045563 -47.517788 -0.39228976
10.995392 -47.519108 -0.40768671
10.945358 -47.520195 -0.41108644
10.895411 -47.521141 -0.40728819
10.845379 -47.522228 -0.41068816
10.795401 -47.523224 -0.40928912
10.745424 -47.524216 -0.40789032
10.695417 -47.525257 -0.40889084
10.645432 -47.526264 -0.4082917
10.595446 -47.527275 -0.40769267
10.54545 -47.528297 -0.4078933
10.495455 -47.529327 -0.40809405
10.445467 -47.530334 -0.4074949
10.395473 -47.531357 -0.40769565
10.345488 -47.532364 -0.40709651
10.295471 -47.533421 -0.40889668
10.245476 -47.534447 -0.40909743
10.19548 -47.535469 -0.40929806
10.145485 -47.536499 -0.40949881
10.095491 -47.537521 -0.40969944
10.045439 -47.538643 -0.41469896
9.9954891 -47.539585 -0.41090071
9.9454918 -47.540611 -0.41110134
9.1455154 -47.557083 -0.41831136
9.0957451 -47.557724 -0.39931715
9.0457115 -47.558815 -0.40271688
8.9958363 -47.559635 -0.39252019
8.9459686 -47.56044 -0.38152373
8.8962059 -47.561069 -0.36172974
8.8460617 -47.562347 -0.37472713
8.7962418 -47.563072 -0.35973155
8.7461262 -47.564301 -0.37032962
8.6984844 -47.561325 -0.16738248
8.6513348 -47.557518 0.077953935
8.6042023 -47.553673 0.32488978
8.5570698 -47.549835 0.57182574
8.5099297 -47.546009 0.81796193
8.4627953 -47.542168 1.0648978
8.414135 -47.540924 1.1798676
8.3648014 -47.540833 1.2364523
8.3151455 -47.541275 1.2658441
8.2653923 -47.541889 1.286438
8.2153587 -47.542976 1.2830381
8.1653538 -47.544018 1.2820377
8.115303 -47.545135 1.2770382
8.0653706 -47.546051 1.2824361
8.0154152 -47.547012 1.2854346
7.9653893 -47.54808 1.2828345
7.915329 -47.549217 1.2770352
7.8653908 -47.550148 1.2816334
7.8153381 -47.55127 1.2766339
7.7654629 -47.552086 1.2868305
7.7154293 -47.553177 1.2834307
7.6654625 -47.554153 1.2856294
7.615551 -47.555035 1.2926269
7.5655365 -47.556091 1.2908266
7.5156326 -47.556957 1.2986238
7.465683 -47.557903 1.302422
7.4193115 -47.552773 1.6149411
7.3718472 -47.5495 1.8330845
7.3226948 -47.549088 1.9056652
7.2736359 -47.548523 1.9862437
7.2238426 -47.549202 2.0036385
7.1738186 -47.550274 2.0010386
7.1238976 -47.55117 2.0072362
7.0734768 -47.552921 1.9702449
7.0227852 -47.555122 1.9100596
6.9721756 -47.55719 1.8570724
6.9216805 -47.559067 1.8136828
6.8711052 -47.561081 1.763095
6.820507 -47.563129 1.7109077
6.7696381 -47.565636 1.6355263
6.7188339 -47.568031 1.5657434
6.6681747 -47.570187 1.5079575
6.6174431 -47.572456 1.4445729
6.5663567 -47.57534 1.3499964
6.5156479 -47.577576 1.2882116
6.4645271 -47.580505 1.1912358
6.4135246 -47.583244 1.1038574
6.3625107 -47.586002 1.0156792
6.3112068 -47.589249 0.90270746
6.2596245 -47.592964 0.76574188
6.2082558 -47.596321 0.64717156
6.1562538 -47.600761 0.47341537
8.3103409 -47.342579 1.1995714
8.2609024 -47.342663 1.2473583
8.2111931 -47.343197 1.2719513
8.1612625 -47.344112 1.2773492
8.1112671 -47.345135 1.2771485
8.0611954 -47.346287 1.2705494
8.0112762 -47.347183 1.2767471
7.9612331 -47.348289 1.2725475
7.9112377 -47.349312 1.2723467
7.8613644 -47.350136 1.2825434
7.8113575 -47.351173 1.2815429
7.761343 -47.352226 1.2797426
7.7113743 -47.353207 1.2819413
7.6613541 -47.354279 1.2793412
7.61133 -47.35535 1.2767411
7.5613613 -47.356327 1.2789398
7.5114403 -47.357227 1.2851375
7.4614887 -47.35817 1.2889358
7.4115505 -47.359104 1.2935339
7.363224 -47.357292 1.4372963
7.3176308 -47.350838 1.8169982
7.2683868 -47.350586 1.8815808
7.2194366 -47.349831 1.9717569
7.1697197 -47.350384 1.9955502
7.1197987 -47.35128 2.0017478
7.0697098 -47.352467 1.9935492
7.0195732 -47.353725 1.9813516
6.9688644 -47.355965 1.9195666
6.9183311 -47.357899 1.8729779
6.8679237 -47.359634 1.8367864
6.8172302 -47.361839 1.7766011
6.766407 -47.364262 1.7052187
6.7157173 -47.36647 1.6450334
6.6652145 -47.368359 1.6008439
6.6141319 -47.371227 1.5070672
6.5635529 -47.373241 1.4564795
6.5126686 -47.375782 1.3794985
6.461689 -47.378475 1.2945195
6.4106102 -47.381344 1.2007428
6.3594589 -47.384335 1.1005678
6.3085632 -47.386887 1.022787
6.2574539 -47.389801 0.92661089
6.2057991 -47.393642 0.78324693
6.1542854 -47.397251 0.65187991
8.155735 -47.146648 1.1486924
8.106842 -47.145798 1.2436672
8.0569839 -47.146587 1.2554636
8.0071125 -47.147408 1.2656602
7.9571896 -47.148308 1.2718579
7.9072304 -47.149265 1.2748563
7.8571625 -47.150417 1.2682573
7.8071556 -47.151459 1.2672569
7.7572155 -47.152386 1.2718549
7.7072563 -47.153351 1.2748533
7.657217 -47.154449 1.2706537
7.6072769 -47.155384 1.2752517
7.5572891 -47.156391 1.2758509
7.5073223 -47.157372 1.2780496
7.4573345 -47.158379 1.2786486
7.4073944 -47.159309 1.2832468
7.3574638 -47.160221 1.2886446
7.3074417 -47.161297 1.2860446
7.2632294 -47.152493 1.7849159
7.2139549 -47.152287 1.8470992
7.1652298 -47.151157 1.9564704
7.1156044 -47.15155 1.9882615
7.065815 -47.152229 2.0056562
7.0157242 -47.153412 1.9974577
6.9656525 -47.154564 1.9908586
6.9149361 -47.156815 1.9282739
6.8644257 -47.158722 1.8832847
6.813797 -47.160816 1.8286979
6.7631798 -47.162895 1.774911
6.7124786 -47.165115 1.713926
6.6616402 -47.167572 1.6409439
6.6111069 -47.169514 1.5943551
6.560215 -47.172062 1.5165743
6.5096245 -47.174099 1.4651867
6.4586525 -47.176773 1.3810076
6.4076958 -47.179436 1.2976282
6.3567657 -47.182053 1.2166482
6.3056221 -47.185028 1.117273
6.254631 -47.187737 1.0314943
6.2034035 -47.190853 0.9249208
6.1521111 -47.194084 0.81274879
8.0517159 -46.948677 1.149201
8.0020657 -46.94912 1.1785928
7.9524403 -46.949516 1.2103839
7.9029274 -46.949718 1.2517725
7.8530712 -46.950512 1.2635688
7.803175 -46.951359 1.2721658
7.753088 -46.952541 1.2639672
7.703146 -46.953472 1.2685653
7.6531811 -46.954449 1.2707639
7.6031952 -46.95546 1.271363
7.5531139 -46.956623 1.2639642
7.5032215 -46.957478 1.2725612
7.4532146 -46.958515 1.2715608
7.4031925 -46.959591 1.2689607
7.3532887 -46.960453 1.276758
7.3034153 -46.961277 1.2869546
7.2532444 -46.962597 1.2715578
7.2087154 -46.95433 1.7432361
7.1599255 -46.953312 1.8470087
7.1109772 -46.952553 1.9371848
7.0615196 -46.952667 1.9833723
7.0116158 -46.953533 1.9911696
6.9616547 -46.954498 1.994168
6.9116058 -46.955612 1.9891686
6.8608513 -46.957932 1.9233847
6.8103752 -46.959774 1.8815947
6.7596626 -46.962009 1.8198098
6.7092476 -46.963745 1.7836183
6.6584587 -46.966122 1.7146353
6.6077652 -46.968327 1.6544499
6.557003 -46.970657 1.5878663
6.5064049 -46.97271 1.5356789
6.4555435 -46.975197 1.4610974
6.4044876 -46.978031 1.3689202
6.3537903 -46.980251 1.3079351
6.3028564 -46.982868 1.2269552
6.2517548 -46.985767 1.1315788
6.2005424 -46.988853 1.026605
6.1492271 -46.99213 0.91203368
6.0977287 -46.995705 0.78226614
6.0465393 -46.99876 0.6788919
5.9944916 -47.003265 0.50193655
5.9424553 -47.007755 0.32578099
5.8910828 -47.011124 0.20641088
7.8479786 -46.752304 1.1725024
7.7983341 -46.752731 1.2026939
7.7487926 -46.752983 1.2416831
7.6989632 -46.753723 1.2558788
7.6489964 -46.7547 1.2580775
7.5991135 -46.755539 1.2674743
7.5491066 -46.756577 1.2664739
7.4990749 -46.757668 1.2630739
7.4490681 -46.758705 1.2620735
7.3991928 -46.759525 1.2722701
7.3491707 -46.760597 1.26967
7.2991295 -46.761703 1.2654704
7.2492542 -46.76252 1.2756671
7.1997395 -46.762726 1.3170557
7.1538963 -46.756695 1.6751631
7.1058102 -46.754475 1.8397201
7.0570946 -46.75333 1.9498912
7.0074577 -46.753738 1.9808824
6.957695 -46.754372 2.0006766
6.9076996 -46.755394 2.0004759
6.8575325 -46.756721 1.9850791
6.806942 -46.758751 1.9336916
6.7562943 -46.760876 1.8775053
6.7057877 -46.762768 1.8333158
6.6549606 -46.765209 1.7611337
6.6044464 -46.767117 1.7161444
6.5536346 -46.769524 1.6455617
6.5029984 -46.771637 1.5901753
6.4522972 -46.773857 1.5291902
6.401413 -46.776398 1.4522091
6.3504219 -46.779118 1.3656305
6.2996254 -46.781502 1.2966475
6.2486191 -46.784241 1.2092692
6.1975746 -46.787041 1.1186917
6.1464882 -46.789925 1.0241152
6.0946083 -46.794144 0.86155611
6.044014 -46.796196 0.80936873
5.9919853 -46.800667 0.634013
7.7434406 -46.555222 1.1282226
7.6939354 -46.555412 1.170411
7.644434 -46.555603 1.2125994
7.594799 -46.556015 1.2435908
7.54496 -46.55677 1.2569866
7.4949379 -46.557842 1.2543865
7.4450607 -46.558662 1.2645831
7.3949642 -46.55986 1.2555847
7.3449783 -46.560867 1.2561839
7.295002 -46.561863 1.2575828
7.2450886 -46.562744 1.2645802
7.1951847 -46.56361 1.2723775
7.1451797 -46.564651 1.271377
7.098299 -46.560387 1.5399073
7.0518074 -46.555458 1.8420291
7.0030174 -46.554436 1.9458019
6.9534988 -46.554642 1.9871905
6.9035645 -46.555573 1.9917885
6.8536453 -46.556473 1.9979862
6.8033867 -46.557938 1.9753913
6.7527618 -46.560028 1.9208045
6.7021523 -46.562096 1.8678174
6.6513748 -46.564442 1.8004339
6.6009369 -46.566223 1.7618431
6.5502968 -46.568348 1.7056568
6.4996681 -46.570446 1.6510699
6.448864 -46.572838 1.5812871
6.3979301 -46.575455 1.5003071
6.3472939 -46.577579 1.4441208
6.2963142 -46.580276 1.3591418
6.2456512 -46.582432 1.301356
6.1945229 -46.585377 1.2035803
6.1433945 -46.588326 1.1058046
6.0922012 -46.591377 1.0024303
6.0410271 -46.594421 0.89985585
5.9891472 -46.59864 0.73729682
5.9378433 -46.601887 0.6243251
7.5897541 -46.357727 1.1565233
7.5402012 -46.357994 1.1947129
7.4906979 -46.358189 1.2369013
7.4408035 -46.359035 1.2454983
7.3908539 -46.359985 1.2492967
7.3408222 -46.361069 1.2458967
7.2909851 -46.361828 1.2592926
7.2409515 -46.362915 1.2558928
7.1910019 -46.363861 1.259691
7.1410522 -46.364807 1.2634892
7.0909176 -46.366066 1.2512916
7.0459785 -46.358494 1.6877789
6.9977112 -46.35659 1.8363402
6.9489555 -46.355507 1.9433119
6.8994637 -46.355679 1.9863002
6.8495598 -46.356548 1.9940975
6.7993774 -46.357887 1.9779009
6.7492905 -46.359066 1.9697022
6.698597 -46.361275 1.9095169
6.6480064 -46.363304 1.8581294
6.5974007 -46.365372 1.8051422
6.5468597 -46.367321 1.7577536
6.4960785 -46.369686 1.6895703
6.4452934 -46.372047 1.6213871
6.3946266 -46.37421 1.5636011
6.3438187 -46.376617 1.4930185
6.2930336 -46.378983 1.4248352
6.2422028 -46.38142 1.352653
6.1914368 -46.383751 1.2860694
6.1400719 -46.387108 1.1674991
6.0891838 -46.389645 1.090518
6.0378036 -46.393032 0.97034806
5.9863396 -46.396542 0.8437798
5.9349518 -46.399933 0.72360992
5.8835678 -46.403316 0.60343993
7.7857742 -46.153503 1.1638348
7.7357788 -46.154526 1.1636341
7.6861057 -46.155003 1.1914262
7.6362419 -46.155804 1.2024226
7.5866356 -46.15617 1.2358134
7.5354347 -46.159241 1.1316392
7.4863758 -46.158676 1.2122179
7.4364433 -46.159588 1.2176157
7.3867455 -46.16011 1.2430085
7.3368244 -46.161007 1.2492062
7.2868843 -46.161942 1.2538043
7.2368431 -46.16304 1.2496046
7.1868649 -46.164032 1.2510035
7.136879 -46.165043 1.2516025
7.0869656 -46.165924 1.2586
7.0367928 -46.167252 1.2432033
6.9925346 -46.158527 1.7380756
6.9437141 -46.157555 1.8394489
6.8949814 -46.156437 1.9480203
6.8454208 -46.156723 1.98541
6.7954254 -46.157745 1.9852092
6.7453842 -46.158848 1.9810097
6.6950798 -46.160393 1.9544157
6.644474 -46.162453 1.9014286
6.5939331 -46.16441 1.8540399
6.5432205 -46.166645 1.792255
6.4925804 -46.168774 1.7360687
6.4418602 -46.171024 1.6734841
6.3912888 -46.173027 1.6236961
6.3403511 -46.175655 1.5419163
6.2898788 -46.177486 1.500926
6.2388268 -46.180305 1.4095488
6.1879845 -46.182762 1.3365667
6.1369095 -46.185631 1.24279
6.085743 -46.188637 1.1418152
6.0347481 -46.191364 1.0552366
5.983593 -46.194355 0.95506155
5.9321136 -46.197899 0.82689369
7.5791817 -45.961979 0.94079924
7.5301476 -45.961365 1.0237772
7.4811172 -45.960754 1.1067553
7.4316654 -45.96085 1.1537424
7.3826904 -45.960144 1.2415192
7.3329735 -45.960693 1.2653123
7.2828865 -45.96188 1.2571137
7.2336407 -45.961624 1.3216964
7.1835613 -45.962791 1.3142976
7.1327686 -45.965172 1.2453145
7.0829124 -45.965958 1.2571107
7.0329247 -45.966969 1.2577099
6.9825592 -45.96862 1.2255173
6.9394569 -45.957932 1.8203641
6.8898087 -45.958374 1.8497558
6.8412476 -45.956959 1.9735233
6.7912483 -45.957981 1.9733226
6.7413101 -45.958908 1.9779207
6.691288 -45.959984 1.9753206
6.6408081 -45.961826 1.9335306
6.5900993 -45.964066 1.8717457
6.5395851 -45.965969 1.8267565
6.4889526 -45.968082 1.7713699
6.4382896 -45.970238 1.7135841
6.3875771 -45.972477 1.6517991
6.3370552 -45.9744 1.6060101
6.2861214 -45.977016 1.5250301
6.2352257 -45.979565 1.4472494
6.1845055 -45.981815 1.3846647
6.1334648 -45.984623 1.2940872
6.0824585 -45.987362 1.2067088
6.0313263 -45.990326 1.1081333
5.9801216 -45.993393 1.0039593
5.928875 -45.996548 0.89578629
7.4270191 -45.761887 1.1010662
7.377636 -45.761871 1.153652
7.3285961 -45.761272 1.2358302
7.2786655 -45.762188 1.2412281
7.2289753 -45.762691 1.2674205
7.179285 -45.763195 1.2936131
7.1286774 -45.765263 1.240626
7.0786552 -45.766331 1.2380259
7.0288239 -45.767075 1.2522216
6.9788094 -45.768131 1.2504213
6.9284248 -45.769817 1.2166291
6.8854027 -45.758999 1.8178742
6.836544 -45.758087 1.9160483
6.7871971 -45.758011 1.9718332
6.7372284 -45.758984 1.9740319
6.687233 -45.760014 1.9738313
6.6370316 -45.761379 1.9560351
6.5864182 -45.763462 1.9022481
6.5359764 -45.76524 1.8636572
6.4852867 -45.767448 1.803472
6.4345322 -45.769764 1.7376881
6.383976 -45.771736 1.6894996
6.3332329 -45.774033 1.6245155
6.2825317 -45.776257 1.5635306
6.2316284 -45.77882 1.4849499
6.1807785 -45.781292 1.4111681
6.1299324 -45.783768 1.3373863
6.0792198 -45.786003 1.2756014
6.0280609 -45.789013 1.1746265
5.9769669 -45.791897 1.08005
5.9257126 -45.795063 0.97107726
5.8743477 -45.798416 0.85250694
5.8228569 -45.801979 0.72353923
5.7710762 -45.806042 0.56897813
7.3731842 -45.562584 1.1177715
7.3238373 -45.562508 1.1735564
7.2746391 -45.56218 1.2421381
7.2247543 -45.563011 1.2515349
7.1745167 -45.564445 1.2305397
7.1245594 -45.565407 1.2335382
7.0745735 -45.566414 1.2341372
7.0247498 -45.567142 1.2491326
6.97472 -45.56823 1.2457328
6.9246597 -45.569366 1.2399335
6.8741188 -45.571316 1.1925449
6.8314629 -45.559872 1.8257818
6.7827988 -45.558628 1.9407516
6.73312 -45.559116 1.9677439
6.6831131 -45.560158 1.9667435
6.6331367 -45.56115 1.9681423
6.5827827 -45.56279 1.9367496
6.532135 -45.564915 1.8805633
6.4814758 -45.567074 1.8227774
6.4309311 -45.569027 1.7753887
6.3803596 -45.57103 1.7256007
6.3295021 -45.573517 1.6510191
6.2789421 -45.575504 1.602031
6.228157 -45.577866 1.5338478
6.1772156 -45.580494 1.452068
6.126461 -45.582813 1.3862841
6.0754089 -45.585632 1.2949067
6.0244408 -45.58831 1.2107276
5.9734344 -45.591049 1.1233493
5.9223976 -45.593842 1.0335716
5.8710594 -45.597145 0.9174006
5.8195152 -45.600803 0.78363419
5.7681313 -45.604187 0.66346419
5.7162056 -45.60849 0.49690622
7.369194 -45.362507 1.1218808
7.3195324 -45.362965 1.1504726
7.270483 -45.362385 1.2318511
7.2206631 -45.363106 1.2468464
7.170639 -45.364178 1.2442464
7.1204586 -45.36552 1.2280498
7.0706005 -45.366306 1.239846
7.0205841 -45.367363 1.2380458
6.9706192 -45.36834 1.2402444
6.9206581 -45.369305 1.243243
6.8703957 -45.370781 1.2198482
6.8272018 -45.360252 1.8066969
6.7776146 -45.36058 1.8416872
6.7289925 -45.359272 1.9598563
6.6790619 -45.360191 1.9652541
6.6290741 -45.361198 1.9658532
6.578949 -45.362446 1.9544554
6.5283394 -45.364506 1.9014683
6.4777832 -45.366493 1.8524801
6.4271278 -45.368633 1.7954938
6.376564 -45.370621 1.7465057
6.3259125 -45.372761 1.6895195
6.2751198 -45.375141 1.6205366
6.2244453 -45.377316 1.5619508
6.1735954 -45.379787 1.488169
6.1227875 -45.382198 1.4175863
6.0718536 -45.384811 1.3366064
6.0209999 -45.387302 1.2620248
5.9701385 -45.38979 1.1874431
5.9186974 -45.393272 1.0624745
5.8677864 -45.395855 0.98309404
5.8165932 -45.398914 0.87971979
5.7650146 -45.40263 0.7427541
5.7135506 -45.406143 0.6161859
7.3152542 -45.163368 1.1297883
7.266161 -45.162868 1.2071676
7.2164326 -45.163433 1.230161
7.1664906 -45.164364 1.2347591
7.1165524 -45.165295 1.2393572
7.0663605 -45.166649 1.2223608
7.0164185 -45.16758 1.2269589
6.9664154 -45.168621 1.2259583
6.9165688 -45.169395 1.2385545
6.8664627 -45.170605 1.2287562
6.8160973 -45.172264 1.1965637
6.7734489 -45.160797 1.8306004
6.7247086 -45.159695 1.9383719
6.6749496 -45.160313 1.958966
6.6250916 -45.161098 1.9707621
6.5749321 -45.162411 1.9561652
6.5246124 -45.163982 1.9279716
6.4740067 -45.16605 1.8749845
6.4232941 -45.168285 1.8131996
6.3727417 -45.170258 1.7650113
6.3221664 -45.172272 1.7144234
6.2714653 -45.174496 1.6534383
6.2208443 -45.176571 1.5996513
6.1699409 -45.179138 1.5210708
6.1191978 -45.181438 1.4560868
6.0681877 -45.184177 1.3687084
6.0173149 -45.186703 1.2925272
5.9665108 -45.189095 1.2227443
5.9154587 -45.191917 1.1313671
5.8640747 -45.195301 1.0111971
5.8130112 -45.198139 0.91902
5.7616577 -45.201477 0.80124944
7.3607502 -44.963135 1.0901093
7.3111362 -44.963512 1.1227002
7.2619839 -44.963104 1.1952809
7.2123413 -44.963531 1.2254725
7.1623993 -44.964458 1.2300705
7.1124687 -44.965374 1.2354684
7.0623169 -44.966663 1.2216712
7.0123749 -44.967598 1.2262692
6.9623184 -44.968731 1.22047
6.912468 -44.969505 1.2330661
6.8624649 -44.970543 1.2320656
6.8122101 -44.972012 1.2094706
6.769062 -44.961399 1.8003184
6.7194672 -44.961742 1.8345089
6.6707306 -44.960629 1.9430803
6.6209755 -44.961243 1.9636742
6.5709419 -44.96233 1.9602743
6.5207787 -44.963638 1.9456773
6.4701004 -44.965828 1.8862919
6.4195099 -44.967861 1.8349043
6.3689003 -44.969925 1.7819171
6.3182487 -44.972065 1.724931
6.2677803 -44.973896 1.6839408
6.2169304 -44.976368 1.6101589
6.1661568 -44.978714 1.5427755
6.1153297 -44.981155 1.4705932
6.0645981 -44.983425 1.4072087
6.0135117 -44.986309 1.3126322
5.9626808 -44.98875 1.24045
5.9116631 -44.991508 1.152272
5.8606224 -44.994308 1.0616944
5.8094482 -44.997337 0.95991969
5.7577133 -45.00132 0.80935752
5.7066917 -45.004078 0.72117949
5.6547241 -45.008453 0.55062246
5.603157 -45.012154 0.41445661
7.3070068 -44.763668 1.1148126
7.2578182 -44.763325 1.1841941
7.208231 -44.763657 1.2191843
7.1583462 -44.764492 1.2285812
7.10849 -44.765282 1.2403774
7.0582237 -44.766762 1.2169826
7.0083313 -44.767612 1.2255797
6.9583855 -44.768559 1.229378
6.9082947 -44.769741 1.2211794
6.8583641 -44.770653 1.2265773
6.8084526 -44.771538 1.2335746
6.757946 -44.77343 1.1893853
6.7151794 -44.762169 1.8130246
6.6665916 -44.760803 1.9343928
6.6167526 -44.761559 1.9477886
6.5667953 -44.76252 1.9507871
6.5167999 -44.763542 1.9505863
6.4664268 -44.765217 1.9175941
6.4157333 -44.767422 1.8574088
6.3651085 -44.769516 1.8028221
6.3145866 -44.771439 1.7570331
6.2638206 -44.773769 1.6904494
6.2131844 -44.775879 1.6350628
6.1623611 -44.778305 1.5636804
6.1116638 -44.780529 1.5026953
6.0608521 -44.782936 1.4321127
6.0100327 -44.785366 1.3607302
5.9591103 -44.787964 1.28055
5.9080009 -44.790878 1.184374
5.8569679 -44.793663 1.0945963
5.8057365 -44.796787 0.9880228
5.7544937 -44.799934 0.87984979
5.7033081 -44.802975 0.77727538
5.6513023 -44.807415 0.6035192
5.5996399 -44.811272 0.45935535
5.5476341 -44.815716 0.28559923
7.3027687 -44.564018 1.0973275
7.2536163 -44.56361 1.169908
7.2042141 -44.563625 1.2208942
7.1542645 -44.564571 1.2246926
7.1043701 -44.565422 1.2332896
7.0542259 -44.566696 1.2202921
7.0041656 -44.567833 1.2144929
6.9542274 -44.568764 1.2190909
6.9042778 -44.56971 1.2228893
6.854332 -44.570656 1.2266876
6.8043518 -44.571651 1.2280865
6.7540932 -44.573112 1.2054915
6.711071 -44.562294 1.8067365
6.6614914 -44.562614 1.8425267
6.6126518 -44.561668 1.9423003
6.5627785 -44.562489 1.9524969
6.5127373 -44.563591 1.9482973
6.4625587 -44.564934 1.9321008
6.4118576 -44.567154 1.8711157
6.3612404 -44.569233 1.8173287
6.310688 -44.571201 1.7691402
6.2598572 -44.573647 1.6969581
6.2094269 -44.575409 1.6591671
6.1587067 -44.57766 1.5965823
6.1079979 -44.579899 1.5347974
6.0571289 -44.582401 1.4594159
6.0061264 -44.585144 1.3720376
5.9552307 -44.587696 1.2942568
5.9042892 -44.590328 1.2124771
5.8531837 -44.593239 1.1163011
5.8022308 -44.59589 1.0337214
5.7508583 -44.599258 0.91435122
5.6995316 -44.602535 0.79977995
5.6479263 -44.6063 0.66041493
5.5961723 -44.610313 0.50825322
5.5443192 -44.614491 0.34809351
7.2988815 -44.363766 1.1102344
7.2496738 -44.363453 1.1780163
7.2001801 -44.363625 1.2210045
7.1501827 -44.364651 1.2208037
7.1001873 -44.365677 1.2206031
7.0500145 -44.366997 1.2052063
7.0000267 -44.368008 1.2058054
6.9501572 -44.368828 1.216002
6.9001694 -44.369839 1.2166011
6.8501282 -44.370937 1.2124015
6.8002129 -44.371822 1.219399
6.7501144 -44.37302 1.2104006
6.7067757 -44.362736 1.7844527
6.6572227 -44.363007 1.8226421
6.6084976 -44.361874 1.9320133
6.5587082 -44.362553 1.9494081
6.5086555 -44.36367 1.9444087
6.4585419 -44.364902 1.9338106
6.4079704 -44.366901 1.8840226
6.3573151 -44.369045 1.8270364
6.3067207 -44.371094 1.7748491
6.2562027 -44.373001 1.7298599
6.2054253 -44.375347 1.6624764
6.1548271 -44.377392 1.6102891
6.1042213 -44.379459 1.5573019
6.0532799 -44.382088 1.475522
6.0021362 -44.385067 1.3761468
5.9515572 -44.387081 1.3255591
5.9006233 -44.389698 1.2445792
5.8495293 -44.392593 1.1492028
5.7984657 -44.395432 1.0570257
5.7470169 -44.398926 0.93125719
5.6959496 -44.401764 0.83908015
5.6440392 -44.406048 0.6733219
5.5924034 -44.409859 0.53155744
5.5407867 -44.413639 0.39139271
7.2948456 -44.163765 1.1103446
7.2456951 -44.163361 1.1829252
7.1959114 -44.164021 1.2011199
7.1460629 -44.164791 1.2137159
7.0961056 -44.165756 1.2167144
7.0461922 -44.166637 1.2237118
6.996067 -44.167885 1.212314
6.9460449 -44.168953 1.2097139
6.8961143 -44.169868 1.2151119
6.8461952 -44.170765 1.2213094
6.7962151 -44.171761 1.2227083
6.7460251 -44.173115 1.205712
6.6957703 -44.17458 1.183117
6.6530113 -44.163307 1.8075562
6.6043053 -44.16214 1.918527
6.5546532 -44.162586 1.9479187
6.5045738 -44.16375 1.9405198
6.454525 -44.164871 1.9355204
6.4040642 -44.166683 1.89533
6.3535385 -44.168606 1.8495409
6.3028603 -44.170795 1.7901554
6.2524452 -44.172527 1.7539639
6.2016869 -44.174843 1.6881802
6.1508026 -44.177376 1.6111991
6.100132 -44.179554 1.5526134
6.0493011 -44.181995 1.4804311
5.9985008 -44.184391 1.4106482
5.9476433 -44.186878 1.3360667
5.8967171 -44.18948 1.2558866
5.8456421 -44.192345 1.1621099
5.7945023 -44.195309 1.0635343
5.7435646 -44.197937 0.98175454
5.6920624 -44.201515 0.85198712
5.6404572 -44.205276 0.71262205
5.5891571 -44.208519 0.59965032
7.2906532 -43.964031 1.0968584
7.2413807 -43.963829 1.1590416
7.1919594 -43.963875 1.2084283
7.1420841 -43.964695 1.2186249
7.0920792 -43.965736 1.2176244
7.04216 -43.966633 1.2238221
6.9919014 -43.968102 1.2012272
6.9420204 -43.968933 1.210624
6.8919945 -43.970009 1.2080239
6.8420868 -43.97089 1.2150214
6.7921257 -43.971851 1.2180198
6.7420082 -43.97308 1.2074218
6.6917267 -43.97459 1.1824275
6.648838 -43.963539 1.7956694
6.6001778 -43.962296 1.9106393
6.5504532 -43.962868 1.9336326
6.5005455 -43.96373 1.9414299
6.4505272 -43.964806 1.9388298
6.4001961 -43.966396 1.9098365
6.3496437 -43.968365 1.8616481
6.2988434 -43.97076 1.7918653
6.2482529 -43.972794 1.7404777
6.1976624 -43.974823 1.6890901
6.1469498 -43.977058 1.6273053
6.0962448 -43.979298 1.5655204
6.0454597 -43.981659 1.4973371
5.9946785 -43.984024 1.4291538
5.9438934 -43.986385 1.3609705
5.8928604 -43.989178 1.2711929
5.8418198 -43.991978 1.1806153
5.7907448 -43.994831 1.0876384
5.7397156 -43.99762 0.99786067
5.6883621 -44.000942 0.88088995
5.6367722 -44.004673 0.74312449
7.286478 -43.764267 1.0849717
7.2371693 -43.76413 1.1439558
7.1878223 -43.76405 1.1997408
7.1379547 -43.764851 1.2107372
7.0879326 -43.765926 1.208137
7.0380669 -43.766727 1.2191336
6.9879951 -43.767879 1.2125345
6.9378548 -43.769154 1.199537
6.88797 -43.769993 1.2089339
6.8379402 -43.77108 1.2055341
6.7879868 -43.772026 1.2093323
6.7380562 -43.772938 1.2147303
6.687748 -43.774498 1.1873366
6.6446915 -43.763729 1.7861822
6.5951195 -43.76403 1.8227721
6.5463333 -43.763008 1.9265447
6.4964371 -43.763859 1.9351418
6.4464798 -43.76482 1.9381403
6.3961678 -43.76638 1.9107466
6.3455963 -43.768383 1.8609586
6.2950401 -43.770367 1.8119705
6.2444191 -43.772449 1.7581835
6.1936646 -43.774761 1.6923995
6.1429176 -43.777061 1.6274155
6.0924225 -43.778938 1.5840259
6.0415535 -43.781441 1.5086445
5.9908104 -43.783741 1.4436604
5.9399223 -43.786278 1.3666794
5.8888779 -43.789082 1.2761018
5.8379593 -43.791679 1.1959217
5.787117 -43.79414 1.1229396
5.7357368 -43.797523 1.0027697
5.6846771 -43.800346 0.91139245
5.6332855 -43.803745 0.79042268
5.5818901 -43.807148 0.66945297
5.5299301 -43.811512 0.49969578
7.2823868 -43.564365 1.0802832
7.2330322 -43.564308 1.1352684
7.1838531 -43.563942 1.2054496
7.1337814 -43.565094 1.1988506
7.0839157 -43.565899 1.209847
7.0339127 -43.566936 1.2088466
6.9838791 -43.568027 1.2054467
6.9337616 -43.569256 1.1948487
6.8838043 -43.570217 1.1978471
6.8338699 -43.571129 1.2032449
6.7838593 -43.572189 1.2014447
6.7338638 -43.573212 1.201244
6.6837578 -43.574425 1.1914458
6.6406288 -43.563782 1.7838931
6.5908928 -43.564365 1.8060867
6.5422745 -43.563046 1.9250554
6.4922829 -43.564068 1.9248548
6.4424095 -43.564888 1.9350514
6.3922997 -43.566101 1.9252532
6.3415794 -43.568356 1.8626685
6.2909927 -43.570385 1.811281
6.2403488 -43.572514 1.7550945
6.1897316 -43.574593 1.7013075
6.1392136 -43.576496 1.6563184
6.0882759 -43.579132 1.5745387
6.0376282 -43.581257 1.5183523
5.9867744 -43.583748 1.4437706
5.9358978 -43.586266 1.3675895
5.8850098 -43.588802 1.2906085
5.834156 -43.59129 1.2160269
5.783165 -43.594002 1.1302481
5.7318382 -43.597294 1.014877
5.6807365 -43.600193 0.91950071
5.6293221 -43.603626 0.79693133
5.5780334 -43.606853 0.68475938
5.5263748 -43.610699 0.54139543
7.2782593 -43.364521 1.0723956
7.2290154 -43.364273 1.1369781
7.1797333 -43.364082 1.1983618
7.1298294 -43.364948 1.206159
7.0797882 -43.366055 1.2019594
7.0298309 -43.367012 1.2049578
6.9798241 -43.368053 1.2039573
6.9297142 -43.369267 1.194159
6.8798218 -43.370121 1.2027562
6.8297615 -43.371254 1.1969569
6.7797508 -43.372311 1.1951566
6.7296867 -43.373444 1.1893574
6.680191 -43.373615 1.2323456
6.6364403 -43.364029 1.7712066
6.5869026 -43.364281 1.8101959
6.538147 -43.363197 1.9171678
6.4883194 -43.363937 1.9313633
6.4383507 -43.364918 1.933562
6.3880844 -43.366398 1.9101673
6.3376198 -43.368225 1.8691771
6.2870407 -43.370243 1.8185893
6.2364235 -43.372322 1.7648023
6.1857986 -43.374416 1.7102156
6.1348915 -43.376984 1.6316351
6.0844345 -43.378796 1.5914446
6.0336037 -43.381237 1.5192623
5.9827766 -43.383678 1.4470801
5.9320297 -43.385979 1.3820961
5.8809929 -43.388767 1.2923183
5.8303146 -43.390957 1.2329328
5.7789078 -43.394379 1.1111633
5.7281647 -43.396675 1.0461792
5.6768379 -43.399952 0.93160784
5.6254654 -43.403324 0.81223768
5.5742493 -43.406425 0.70646405
7.2743168 -43.164364 1.0805037
7.2248955 -43.164413 1.1298902
7.1756248 -43.164207 1.1920736
7.1256084 -43.165264 1.1902733
7.0758362 -43.165913 1.2092676
7.0256653 -43.167233 1.1938709
6.9758148 -43.168007 1.2064669
6.9255028 -43.169567 1.1790732
6.8755989 -43.170437 1.1868705
6.8257065 -43.171284 1.1954675
6.7757072 -43.172329 1.1944669
6.7257195 -43.173336 1.1950661
6.6756287 -43.174515 1.1868675
5.8771057 -43.188519 1.3052253
5.8262138 -43.191067 1.2274444
5.7752342 -43.193764 1.1424655
5.7241402 -43.196659 1.0470891
5.6730347 -43.199562 0.95171291
5.6216316 -43.202976 0.82994342
5.5704346 -43.206047 0.7257694
5.5185204 -43.210331 0.56001109
18.537575 -54.157928 0.10294259
18.48822 -54.157867 0.15792787
18.438648 -54.158173 0.19451773
18.388561 -54.159351 0.18631911
18.338945 -54.159729 0.21890998
18.288914 -54.16082 0.21551013
18.239094 -54.161545 0.23050559
18.189032 -54.162678 0.22470629
18.139259 -54.163322 0.24370062
18.089151 -54.164536 0.23390234
18.039267 -54.165375 0.24329925
17.989347 -54.166275 0.24949682
17.939417 -54.167187 0.25489485
17.889736 -54.167679 0.28188717
17.839525 -54.169064 0.26329124
17.789818 -54.169601 0.28788412
17.74012 -54.17012 0.31327689
17.689873 -54.17157 0.29148161
17.640099 -54.172218 0.31047606
17.59017 -54.17313 0.31587398
17.540211 -54.174091 0.31887245
17.490206 -54.175133 0.31787193
17.440126 -54.1763 0.31047308
17.390345 -54.176964 0.32866776
17.340338 -54.178001 0.32766724
17.290426 -54.178886 0.3346647
17.240423 -54.179924 0.33366418
17.190435 -54.180935 0.33426332
17.140478 -54.181892 0.3372618
17.090704 -54.182541 0.35625613
17.040485 -54.183945 0.33686042
18.542593 -53.942547 0.88445258
18.493006 -53.942879 0.91944283
18.443045 -53.94384 0.92244136
18.393124 -53.94474 0.92863899
18.34325 -53.945557 0.93883562
18.293255 -53.946583 0.93863499
18.243353 -53.947449 0.94643223
18.193373 -53.948441 0.94783109
18.143406 -53.949417 0.95002979
18.093502 -53.950287 0.95782709
18.043507 -53.951309 0.95762634
17.993578 -53.952225 0.9630242
17.943581 -53.953251 0.96282357
17.893679 -53.954117 0.97062081
17.84371 -53.955093 0.97281951
17.793715 -53.95612 0.97261882
17.743755 -53.957081 0.97561729
17.693777 -53.958073 0.97701621
17.643866 -53.958954 0.98401368
17.59387 -53.95998 0.98381299
17.543922 -53.960926 0.98761123
17.493927 -53.961952 0.98741055
17.44393 -53.962975 0.98720986
17.39399 -53.963905 0.99180794
17.34403 -53.964867 0.99480647
17.294073 -53.965828 0.99780494
17.244125 -53.966774 1.0016031
17.194101 -53.96785 0.99900311
17.144106 -53.968872 0.99880242
17.094109 -53.969894 0.99860179
17.044168 -53.970825 1.0031998
16.994221 -53.971771 1.0069981
16.944269 -53.972717 1.0107964
18.543627 -53.733932 1.3220506
18.493965 -53.73439 1.3506426
18.444117 -53.735161 1.3632386
18.39415 -53.736137 1.3654373
18.344183 -53.737118 1.367636
18.294214 -53.738094 1.3698347
18.244267 -53.73904 1.3736329
18.194296 -53.740017 1.3758316
18.14431 -53.741028 1.3764307
18.09436 -53.741974 1.380229
18.044401 -53.742935 1.3832275
17.994474 -53.743847 1.3886254
17.944468 -53.744888 1.3876249
17.894527 -53.745819 1.392223
17.84453 -53.746841 1.3920224
17.794592 -53.747772 1.3966203
17.744549 -53.748878 1.3924208
17.694618 -53.74979 1.3978186
17.644632 -53.750801 1.3984177
17.594654 -53.751793 1.3998166
17.544697 -53.752754 1.4028151
17.494692 -53.753792 1.4018146
17.444723 -53.754768 1.4040133
17.394756 -53.755749 1.406212
17.344795 -53.75671 1.4092104
17.294792 -53.757751 1.4082099
17.244816 -53.758743 1.4096088
17.194876 -53.759674 1.414207
17.14488 -53.760696 1.4140062
