# .PCD v0.7 - Point Cloud Data file format
VERSION 0.7
FIELDS x y z
SIZE 4 4 4
TYPE F F F
COUNT 1 1 1
WIDTH 1921
HEIGHT 1
VIEWPOINT 0 0 0 1 0 0 0
POINTS 1921
DATA ascii
132 5.3499999 0.34079999
132 5.4000001 0.37760001
132 5.4499998 0.3576
132 5.5 0.33360001
132 5.5500002 0.34720001
132 5.5999999 0.34560001
132 5.6500001 0.37439999
132 5.6999998 0.3752
132 5.75 0.37040001
132 5.8000002 0.37279999
132 5.8499999 0.3696
132 5.9000001 0.36559999
132 5.9499998 0.36719999
132 6 0.45199999
132 6.0500002 0.36559999
132 6.0999999 0.35839999
132 6.1500001 0.36000001
132 6.1999998 0.3696
132 6.25 0.37920001
132 6.3000002 0.3696
132 6.3499999 0.40720001
132 6.4000001 0.4208
132 6.4499998 0.43200001
132 6.5 0.4048
132 6.5500002 0.3536
132 6.5999999 0.34400001
132 6.6500001 0.35120001
132 6.6999998 0.34720001
132 6.75 0.3664
132 6.8000002 0.368
132 6.8499999 0.36320001
132 6.9000001 0.36480001
132 6.9499998 0.36480001
132 7 0.3592
132 7.0500002 0.34560001
132 7.0999999 0.34079999
132 7.1500001 0.34240001
132 7.1999998 0.34720001
132 7.25 0.34799999
132 7.3000002 0.3448
132 7.3499999 0.35280001
132 7.4000001 0.34720001
132 7.4499998 0.34639999
132 7.5 0.3488
132 7.5500002 0.34720001
132 7.5999999 0.35600001
132 7.6500001 0.35839999
132 7.6999998 0.36399999
132 7.75 0.36480001
132 7.8000002 0.36480001
132 7.8499999 0.36480001
132 7.9000001 0.36399999
132 7.9499998 0.36320001
132 8 0.3624
132 8.0500002 0.36160001
132 8.1000004 0.384
132 8.1499996 0.38
132 8.1999998 0.472
132 8.25 0.456
132 8.3000002 0.44
132 8.3500004 0.3608
132 8.3999996 0.3888
132 8.4499998 0.40239999
132 8.5 0.35839999
132 8.5500002 0.18880001
132 8.6000004 0.1832
132 8.6499996 0.1752
132 8.6999998 0.208
132 8.75 0.1776
132 8.8000002 0.156
132 8.8500004 0.1568
132 8.8999996 0.16159999
132 8.9499998 0.164
132 9 0.1608
132 9.0500002 0.156
132 9.1000004 0.16159999
132 9.1499996 0.73839998
132 9.1999998 0.852
132 9.25 0.88080001
132 9.3000002 0.88480002
132 9.3500004 0.87840003
132 9.3999996 0.8448
132 9.4499998 0.79360002
132 9.5 0.74239999
132 9.5500002 0.68800002
132 9.6000004 0.63440001
132 9.6499996 0.57200003
132 9.6999998 0.50800002
132 9.75 0.4368
132 9.8000002 0.36559999
132 9.8500004 0.292
132 9.8999996 0.2208
132 9.9499998 0.1304
132 10 0.046399999
132 10.05 -0.033599999
132 10.1 -0.1664
132 10.15 -0.292
132 10.2 -0.40079999
132.2 4.75 0.092
132.2 4.8000002 0.25040001
132.2 4.8499999 0.3344
132.2 4.9000001 0.36399999
132.2 4.9499998 0.38
132.2 5 0.38640001
132.2 5.0500002 0.38640001
132.2 5.0999999 0.40239999
132.2 5.1500001 0.40560001
132.2 5.1999998 0.3944
132.2 5.25 0.34240001
132.2 5.3000002 0.37040001
132.2 5.3499999 0.35120001
132.2 5.4000001 0.3416
132.2 5.4499998 0.34639999
132.2 5.5 0.3664
132.2 5.5500002 0.3504
132.2 5.5999999 0.34720001
132.2 5.6500001 0.35519999
132.2 5.6999998 0.36480001
132.2 5.75 0.36480001
132.2 5.8000002 0.37279999
132.2 5.8499999 0.37040001
132.2 5.9000001 0.36880001
132.2 5.9499998 0.37200001
132.2 6 0.37200001
132.2 6.0500002 0.39680001
132.2 6.0999999 0.41440001
132.2 6.1500001 0.42879999
132.2 6.1999998 0.44080001
132.2 6.25 0.46399999
132.2 6.3000002 0.50080001
132.2 6.3499999 0.47839999
132.2 6.4000001 0.39120001
132.2 6.4499998 0.37439999
132.2 6.5 0.34079999
132.2 6.5500002 0.33680001
132.2 6.5999999 0.33680001
132.2 6.6500001 0.3536
132.2 6.6999998 0.37040001
132.2 6.75 0.35600001
132.2 6.8000002 0.35679999
132.2 6.8499999 0.35280001
132.2 6.9000001 0.3488
132.2 6.9499998 0.3592
132.2 7 0.3504
132.2 7.0500002 0.34720001
132.2 7.0999999 0.3488
132.2 7.1500001 0.35280001
132.2 7.1999998 0.3504
132.2 7.25 0.35519999
132.2 7.3000002 0.35679999
132.2 7.3499999 0.3576
132.2 7.4000001 0.35519999
132.2 7.4499998 0.3488
132.2 7.5 0.352
132.2 7.5500002 0.3536
132.2 7.5999999 0.34720001
132.2 7.6500001 0.35679999
132.2 7.6999998 0.3624
132.2 7.75 0.3608
132.2 7.8000002 0.35519999
132.2 7.8499999 0.34720001
132.2 7.9000001 0.34240001
132.2 7.9499998 0.33919999
132.2 8 0.3488
132.2 8.0500002 0.3592
132.2 8.1000004 0.3712
132.2 8.1499996 0.36719999
132.2 8.1999998 0.48719999
132.2 8.25 0.48879999
132.2 8.3000002 0.37279999
132.2 8.3500004 0.3696
132.2 8.3999996 0.3168
132.2 8.4499998 0.1936
132.2 8.5 0.20559999
132.2 8.5500002 0.1832
132.2 8.6000004 0.1832
132.2 8.6499996 0.18080001
132.2 8.6999998 0.1728
132.2 8.75 0.16
132.2 8.8000002 0.164
132.2 8.8500004 0.1608
132.2 8.8999996 0.1656
132.2 8.9499998 0.17200001
132.2 9 0.16159999
132.2 9.0500002 0.1648
132.2 9.1000004 0.1672
132.2 9.1499996 0.7536
132.2 9.1999998 0.87199998
132.2 9.25 0.88239998
132.2 9.3000002 0.884
132.2 9.3500004 0.87760001
132.2 9.3999996 0.8344
132.2 9.4499998 0.77039999
132.2 9.5 0.7216
132.2 9.5500002 0.66399997
132.2 9.6000004 0.5984
132.2 9.6499996 0.53039998
132.2 9.6999998 0.47839999
132.2 9.75 0.4136
132.2 9.8000002 0.33919999
132.2 9.8500004 0.25600001
132.2 9.8999996 0.1736
132.2 9.9499998 0.099200003
132.2 10 -0.0055999998
132.2 10.05 -0.116
132.2 10.1 -0.23280001
132.39999 4.6999998 0.39120001
132.39999 4.75 0.38800001
132.39999 4.8000002 0.49759999
132.39999 4.8499999 0.32319999
132.39999 4.9000001 0.36719999
132.39999 4.9499998 0.29679999
132.39999 5 0.3768
132.39999 5.0500002 0.38240001
132.39999 5.0999999 0.40239999
132.39999 5.1500001 0.4048
132.39999 5.1999998 0.4224
132.39999 5.25 0.34720001
132.39999 5.3000002 0.33840001
132.39999 5.3499999 0.37439999
132.39999 5.4000001 0.34959999
132.39999 5.4499998 0.34799999
132.39999 5.5 0.36000001
132.39999 5.5500002 0.35440001
132.39999 5.5999999 0.35440001
132.39999 5.6500001 0.36160001
132.39999 5.6999998 0.37760001
132.39999 5.75 0.40239999
132.39999 5.8000002 0.41119999
132.39999 5.8499999 0.40959999
132.39999 5.9000001 0.40880001
132.39999 5.9499998 0.41679999
132.39999 6 0.42399999
132.39999 6.0500002 0.42879999
132.39999 6.0999999 0.44400001
132.39999 6.1500001 0.60159999
132.39999 6.1999998 0.4152
132.39999 6.25 0.45359999
132.39999 6.3000002 0.46000001
132.39999 6.3499999 0.45840001
132.39999 6.4000001 0.39919999
132.39999 6.4499998 0.3592
132.39999 6.5 0.34
132.39999 6.5500002 0.34
132.39999 6.5999999 0.33680001
132.39999 6.6500001 0.34400001
132.39999 6.6999998 0.3664
132.39999 6.75 0.34560001
132.39999 6.8000002 0.34240001
132.39999 6.8499999 0.3488
132.39999 6.9000001 0.36000001
132.39999 6.9499998 0.3624
132.39999 7 0.3488
132.39999 7.0500002 0.3504
132.39999 7.0999999 0.34639999
132.39999 7.1500001 0.352
132.39999 7.1999998 0.3608
132.39999 7.25 0.37040001
132.39999 7.3000002 0.37439999
132.39999 7.3499999 0.37200001
132.39999 7.4000001 0.36480001
132.39999 7.4499998 0.36000001
132.39999 7.5 0.3608
132.39999 7.5500002 0.3712
132.39999 7.5999999 0.36320001
132.39999 7.6500001 0.3696
132.39999 7.6999998 0.37200001
132.39999 7.75 0.3752
132.39999 7.8000002 0.37599999
132.39999 7.8499999 0.3664
132.39999 7.9000001 0.36880001
132.39999 7.9499998 0.35600001
132.39999 8 0.34959999
132.39999 8.0500002 0.34959999
132.39999 8.1000004 0.37360001
132.39999 8.1499996 0.49919999
132.39999 8.1999998 0.52880001
132.39999 8.25 0.52079999
132.39999 8.3000002 0.43920001
132.39999 8.3500004 0.45519999
132.39999 8.3999996 0.51359999
132.39999 8.4499998 0.53119999
132.39999 8.5 0.52079999
132.39999 8.5500002 0.58319998
132.39999 8.6000004 0.1848
132.39999 8.6499996 0.18000001
132.39999 8.6999998 0.1752
132.39999 8.75 0.168
132.39999 8.8000002 0.1648
132.39999 8.8500004 0.168
132.39999 8.8999996 0.1688
132.39999 8.9499998 0.168
132.39999 9 0.17200001
132.39999 9.0500002 0.1648
132.39999 9.1000004 0.7464
132.39999 9.1499996 0.83359998
132.39999 9.1999998 0.88080001
132.39999 9.25 0.8768
132.39999 9.3000002 0.87360001
132.39999 9.3500004 0.84719998
132.39999 9.3999996 0.80479997
132.39999 9.4499998 0.75040001
132.39999 9.5 0.69279999
132.39999 9.5500002 0.63120002
132.39999 9.6000004 0.5704
132.39999 9.6499996 0.51200002
132.39999 9.6999998 0.44240001
132.39999 9.75 0.3712
132.39999 9.8000002 0.31200001
132.39999 9.8500004 0.21520001
132.39999 9.8999996 0.1384
132.39999 9.9499998 0.045600001
132.39999 10 -0.044799998
132.39999 10.05 -0.17039999
132.39999 10.1 -0.29679999
132.39999 10.15 -0.4224
132.39999 10.2 -0.48159999
132.60001 4.75 0.3448
132.60001 4.8000002 0.3224
132.60001 4.8499999 0.324
132.60001 4.9000001 0.32879999
132.60001 4.9499998 0.33199999
132.60001 5 0.3344
132.60001 5.0500002 0.33840001
132.60001 5.0999999 0.3432
132.60001 5.1500001 0.35440001
132.60001 5.1999998 0.49200001
132.60001 5.25 0.47119999
132.60001 5.3000002 0.37920001
132.60001 5.3499999 0.3888
132.60001 5.4000001 0.37200001
132.60001 5.4499998 0.37439999
132.60001 5.5 0.3712
132.60001 5.5500002 0.37360001
132.60001 5.5999999 0.37439999
132.60001 5.6500001 0.36399999
132.60001 5.6999998 0.37200001
132.60001 5.75 0.3784
132.60001 5.8000002 0.3976
132.60001 5.8499999 0.39520001
132.60001 5.9000001 0.39680001
132.60001 5.9499998 0.39840001
132.60001 6 0.4384
132.60001 6.0500002 0.428
132.60001 6.0999999 0.56239998
132.60001 6.1500001 0.62879997
132.60001 6.1999998 0.50080001
132.60001 6.25 0.50480002
132.60001 6.3000002 0.47600001
132.60001 6.3499999 0.41839999
132.60001 6.4000001 0.43439999
132.60001 6.4499998 0.39520001
132.60001 6.5 0.3448
132.60001 6.5500002 0.33759999
132.60001 6.5999999 0.34
132.60001 6.6500001 0.3432
132.60001 6.6999998 0.3712
132.60001 6.75 0.3328
132.60001 6.8000002 0.336
132.60001 6.8499999 0.3576
132.60001 6.9000001 0.36480001
132.60001 6.9499998 0.3712
132.60001 7 0.368
132.60001 7.0500002 0.37200001
132.60001 7.0999999 0.37040001
132.60001 7.1500001 0.368
132.60001 7.1999998 0.36559999
132.60001 7.25 0.36480001
132.60001 7.3000002 0.36480001
132.60001 7.3499999 0.36320001
132.60001 7.4000001 0.35839999
132.60001 7.4499998 0.3576
132.60001 7.5 0.37920001
132.60001 7.5500002 0.36480001
132.60001 7.5999999 0.3608
132.60001 7.6500001 0.36880001
132.60001 7.6999998 0.368
132.60001 7.75 0.3696
132.60001 7.8000002 0.38479999
132.60001 7.8499999 0.3888
132.60001 7.9000001 0.38
132.60001 7.9499998 0.39120001
132.60001 8 0.4048
132.60001 8.0500002 0.45120001
132.60001 8.1000004 0.47760001
132.60001 8.1499996 0.56959999
132.60001 8.1999998 0.57279998
132.60001 8.25 0.53600001
132.60001 8.3000002 0.52560002
132.60001 8.3500004 0.54000002
132.60001 8.3999996 0.56800002
132.60001 8.4499998 0.56959999
132.60001 8.5 0.55599999
132.60001 8.5500002 0.18880001
132.60001 8.6000004 0.184
132.60001 8.6499996 0.1832
132.60001 8.6999998 0.15279999
132.60001 8.75 0.16240001
132.60001 8.8000002 0.16
132.60001 8.8500004 0.1608
132.60001 8.8999996 0.16159999
132.60001 8.9499998 0.1648
132.60001 9 0.1728
132.60001 9.0500002 0.72640002
132.60001 9.1000004 0.74879998
132.60001 9.1499996 0.8768
132.60001 9.1999998 0.88
132.60001 9.25 0.8872
132.60001 9.3000002 0.88080001
132.60001 9.3500004 0.82080001
132.60001 9.3999996 0.77280003
132.60001 9.4499998 0.7184
132.60001 9.5 0.65679997
132.60001 9.5500002 0.5952
132.60001 9.6000004 0.53039998
132.60001 9.6499996 0.4648
132.60001 9.6999998 0.4032
132.60001 9.75 0.33039999
132.60001 9.8000002 0.2368
132.60001 9.8500004 0.17200001
132.60001 9.8999996 0.084799998
132.60001 9.9499998 -0.00079999998
132.60001 10 -0.092799999
132.60001 10.05 -0.23199999
132.8 4.75 0.12
132.8 4.8000002 0.31999999
132.8 4.8499999 0.3608
132.8 4.9000001 0.37760001
132.8 4.9499998 0.39680001
132.8 5 0.396
132.8 5.0500002 0.36719999
132.8 5.0999999 0.36320001
132.8 5.1500001 0.35120001
132.8 5.1999998 0.34560001
132.8 5.25 0.35120001
132.8 5.3000002 0.34400001
132.8 5.3499999 0.34799999
132.8 5.4000001 0.3488
132.8 5.4499998 0.3536
132.8 5.5 0.3752
132.8 5.5500002 0.39359999
132.8 5.5999999 0.396
132.8 5.6500001 0.4016
132.8 5.6999998 0.41440001
132.8 5.75 0.40959999
132.8 5.8000002 0.40400001
132.8 5.8499999 0.39919999
132.8 5.9000001 0.39359999
132.8 5.9499998 0.50800002
132.8 6 0.53119999
132.8 6.0500002 0.54879999
132.8 6.0999999 0.54640001
132.8 6.1500001 0.45680001
132.8 6.1999998 0.38
132.8 6.25 0.36880001
132.8 6.3000002 0.39120001
132.8 6.3499999 0.39840001
132.8 6.4000001 0.3872
132.8 6.4499998 0.38159999
132.8 6.5 0.3696
132.8 6.5500002 0.3608
132.8 6.5999999 0.37040001
132.8 6.6500001 0.36880001
132.8 6.6999998 0.37920001
132.8 6.75 0.33039999
132.8 6.8000002 0.33360001
132.8 6.8499999 0.33759999
132.8 6.9000001 0.34639999
132.8 6.9499998 0.34400001
132.8 7 0.34959999
132.8 7.0500002 0.36480001
132.8 7.0999999 0.352
132.8 7.1500001 0.34799999
132.8 7.1999998 0.3488
132.8 7.25 0.35600001
132.8 7.3000002 0.35600001
132.8 7.3499999 0.35839999
132.8 7.4000001 0.36399999
132.8 7.4499998 0.3592
132.8 7.5 0.36719999
132.8 7.5500002 0.3712
132.8 7.5999999 0.37360001
132.8 7.6500001 0.3888
132.8 7.6999998 0.3888
132.8 7.75 0.40400001
132.8 7.8000002 0.41280001
132.8 7.8499999 0.44479999
132.8 7.9000001 0.4576
132.8 7.9499998 0.46399999
132.8 8 0.47279999
132.8 8.0500002 0.51440001
132.8 8.1000004 0.59200001
132.8 8.1499996 0.61440003
132.8 8.1999998 0.57679999
132.8 8.25 0.51599997
132.8 8.3000002 0.4984
132.8 8.3500004 0.49520001
132.8 8.3999996 0.4648
132.8 8.4499998 0.51679999
132.8 8.5 0.2008
132.8 8.5500002 0.19599999
132.8 8.6000004 0.1856
132.8 8.6499996 0.16240001
132.8 8.6999998 0.1576
132.8 8.75 0.1648
132.8 8.8000002 0.16240001
132.8 8.8500004 0.16320001
132.8 8.8999996 0.16240001
132.8 8.9499998 0.1672
132.8 9 0.1752
132.8 9.0500002 0.74239999
132.8 9.1000004 0.86479998
132.8 9.1499996 0.87840003
132.8 9.1999998 0.88480002
132.8 9.25 0.87440002
132.8 9.3000002 0.84079999
132.8 9.3500004 0.78719997
132.8 9.3999996 0.73519999
132.8 9.4499998 0.68879998
132.8 9.5 0.6232
132.8 9.5500002 0.56480002
132.8 9.6000004 0.5072
132.8 9.6499996 0.4368
132.8 9.6999998 0.36719999
132.8 9.75 0.28240001
132.8 9.8000002 0.208
132.8 9.8500004 0.1304
132.8 9.8999996 0.035999998
132.8 9.9499998 -0.0744
132.8 10 -0.18080001
133 4.75 0.1032
133 4.8000002 0.1768
133 4.8499999 0.26159999
133 4.9000001 0.32480001
133 4.9499998 0.34959999
133 5 0.40400001
133 5.0500002 0.38240001
133 5.0999999 0.38080001
133 5.1500001 0.35440001
133 5.1999998 0.35440001
133 5.25 0.35120001
133 5.3000002 0.35839999
133 5.3499999 0.3752
133 5.4000001 0.39680001
133 5.4499998 0.40880001
133 5.5 0.40880001
133 5.5500002 0.40720001
133 5.5999999 0.4048
133 5.6500001 0.39840001
133 5.6999998 0.4064
133 5.75 0.40000001
133 5.8000002 0.41280001
133 5.8499999 0.44080001
133 5.9000001 0.42399999
133 5.9499998 0.3768
133 6 0.45359999
133 6.0500002 0.52240002
133 6.0999999 0.55360001
133 6.1500001 0.30160001
133 6.1999998 0.3048
133 6.25 0.31200001
133 6.3000002 0.34
133 6.3499999 0.31760001
133 6.4000001 0.31439999
133 6.4499998 0.31279999
133 6.5 0.308
133 6.5500002 0.31200001
133 6.5999999 0.3064
133 6.6500001 0.28080001
133 6.6999998 0.29120001
133 6.75 0.28080001
133 6.8000002 0.2904
133 6.8499999 0.27919999
133 6.9000001 0.29120001
133 6.9499998 0.30320001
133 7 0.29519999
133 7.0500002 0.29120001
133 7.0999999 0.26800001
133 7.1500001 0.26800001
133 7.1999998 0.3712
133 7.25 0.27680001
133 7.3000002 0.27919999
133 7.3499999 0.30000001
133 7.4000001 0.31279999
133 7.4499998 0.3008
133 7.5 0.3064
133 7.5500002 0.31279999
133 7.5999999 0.30239999
133 7.6500001 0.2992
133 7.6999998 0.3008
133 7.75 0.3008
133 7.8000002 0.30239999
133 7.8499999 0.31760001
133 7.9000001 0.28799999
133 7.9499998 0.25839999
133 8 0.23199999
133 8.0500002 0.2264
133 8.1000004 0.25119999
133 8.1499996 0.2088
133 8.1999998 0.20479999
133 8.25 0.4488
133 8.3000002 0.39919999
133 8.3500004 0.39039999
133 8.3999996 0.39120001
133 8.4499998 0.1904
133 8.5 0.204
133 8.5500002 0.2008
133 8.6000004 0.184
133 8.6499996 0.1576
133 8.6999998 0.164
133 8.75 0.16320001
133 8.8000002 0.1656
133 8.8500004 0.1656
133 8.8999996 0.1672
133 8.9499998 0.1744
133 9 0.74080002
133 9.0500002 0.83200002
133 9.1000004 0.88239998
133 9.1499996 0.87760001
133 9.1999998 0.88
133 9.25 0.84320003
133 9.3000002 0.79360002
133 9.3500004 0.75440001
133 9.3999996 0.68239999
133 9.4499998 0.63599998
133 9.5 0.57279998
133 9.5500002 0.51120001
133 9.6000004 0.4472
133 9.6499996 0.37439999
133 9.6999998 0.29440001
133 9.75 0.252
133 9.8000002 0.15360001
133 9.8500004 0.059999999
133.2 4.75 0.0744
133.2 4.8000002 0.1408
133.2 4.8499999 0.18799999
133.2 4.9000001 0.2112
133.2 4.9499998 0.23999999
133.2 5 0.27919999
133.2 5.0500002 0.27919999
133.2 5.0999999 0.28400001
133.2 5.1500001 0.31119999
133.2 5.1999998 0.3224
133.2 5.25 0.3184
133.2 5.3000002 0.37760001
133.2 5.3499999 0.4032
133.2 5.4000001 0.4104
133.2 5.4499998 0.41760001
133.2 5.5 0.4488
133.2 5.5500002 0.30880001
133.2 5.5999999 0.34560001
133.2 5.6500001 0.3256
133.2 5.6999998 0.31999999
133.2 5.75 0.3872
133.2 5.8000002 0.3152
133.2 5.8499999 0.292
133.2 5.9000001 0.46000001
133.2 5.9499998 0.46720001
133.2 6 0.52240002
133.2 6.0500002 0.20559999
133.2 6.0999999 0.2024
133.2 6.1500001 0.19760001
133.2 6.1999998 0.19599999
133.2 6.25 0.2016
133.2 6.3000002 0.2
133.2 6.3499999 0.1944
133.2 6.4000001 0.1944
133.2 6.4499998 0.1904
133.2 6.5 0.18960001
133.2 6.5500002 0.19679999
133.2 6.5999999 0.19679999
133.2 6.6500001 0.1928
133.2 6.6999998 0.1952
133.2 6.75 0.1928
133.2 6.8000002 0.19679999
133.2 6.8499999 0.1904
133.2 6.9000001 0.1944
133.2 6.9499998 0.192
133.2 7 0.18880001
133.2 7.0500002 0.1928
133.2 7.0999999 0.18960001
133.2 7.1500001 0.18799999
133.2 7.1999998 0.18960001
133.2 7.25 0.19599999
133.2 7.3000002 0.20720001
133.2 7.3499999 0.1944
133.2 7.4000001 0.1912
133.2 7.4499998 0.1864
133.2 7.5 0.1848
133.2 7.5500002 0.1928
133.2 7.5999999 0.192
133.2 7.6500001 0.2008
133.2 7.6999998 0.1944
133.2 7.75 0.192
133.2 7.8000002 0.1928
133.2 7.8499999 0.1952
133.2 7.9000001 0.19840001
133.2 7.9499998 0.192
133.2 8 0.1928
133.2 8.0500002 0.19679999
133.2 8.1000004 0.1936
133.2 8.1499996 0.192
133.2 8.1999998 0.1952
133.2 8.25 0.19599999
133.2 8.3000002 0.18960001
133.2 8.3500004 0.1928
133.2 8.3999996 0.1992
133.2 8.4499998 0.20559999
133.2 8.5 0.1904
133.2 8.5500002 0.39919999
133.2 8.6000004 0.1608
133.2 8.6499996 0.15279999
133.2 8.6999998 0.1608
133.2 8.75 0.176
133.2 8.8000002 0.1736
133.2 8.8500004 0.1656
133.2 8.8999996 0.1696
133.2 8.9499998 0.73680001
133.2 9 0.7608
133.2 9.0500002 0.88
133.2 9.1000004 0.87599999
133.2 9.1499996 0.88080001
133.2 9.1999998 0.86720002
133.2 9.25 0.81199998
133.2 9.3000002 0.76800001
133.2 9.3500004 0.70560002
133.2 9.3999996 0.66240001
133.2 9.4499998 0.5984
133.2 9.5 0.5424
133.2 9.5500002 0.48879999
133.2 9.6000004 0.4032
133.2 9.6499996 0.31279999
133.2 9.6999998 0.25839999
133.2 9.75 0.17039999
133.2 9.8000002 0.077600002
133.2 9.8500004 0.0016
133.2 9.8999996 -0.1248
133.2 9.9499998 -0.204
133.39999 4.75 0.062399998
133.39999 4.8000002 0.12
133.39999 4.8499999 0.18799999
133.39999 4.9000001 0.20720001
133.39999 4.9499998 0.20640001
133.39999 5 0.2096
133.39999 5.0500002 0.21359999
133.39999 5.0999999 0.2096
133.39999 5.1500001 0.2088
133.39999 5.1999998 0.2088
133.39999 5.25 0.208
133.39999 5.3000002 0.20479999
133.39999 5.3499999 0.2112
133.39999 5.4000001 0.20559999
133.39999 5.4499998 0.208
133.39999 5.5 0.21520001
133.39999 5.5500002 0.20720001
133.39999 5.5999999 0.19599999
133.39999 5.6500001 0.20479999
133.39999 5.6999998 0.1952
133.39999 5.75 0.18960001
133.39999 5.8000002 0.19599999
133.39999 5.8499999 0.19840001
133.39999 5.9000001 0.19599999
133.39999 5.9499998 0.2008
133.39999 6 0.2
133.39999 6.0500002 0.204
133.39999 6.0999999 0.19760001
133.39999 6.1500001 0.1944
133.39999 6.1999998 0.19679999
133.39999 6.25 0.1936
133.39999 6.3000002 0.1936
133.39999 6.3499999 0.1928
133.39999 6.4000001 0.1912
133.39999 6.4499998 0.2
133.39999 6.5 0.1928
133.39999 6.5500002 0.2008
133.39999 6.5999999 0.192
133.39999 6.6500001 0.19599999
133.39999 6.6999998 0.19840001
133.39999 6.75 0.1904
133.39999 6.8000002 0.1928
133.39999 6.8499999 0.18799999
133.39999 6.9000001 0.192
133.39999 6.9499998 0.1928
133.39999 7 0.1952
133.39999 7.0500002 0.19599999
133.39999 7.0999999 0.192
133.39999 7.1500001 0.1936
133.39999 7.1999998 0.19679999
133.39999 7.25 0.18799999
133.39999 7.3000002 0.1936
133.39999 7.3499999 0.1904
133.39999 7.4000001 0.1928
133.39999 7.4499998 0.1904
133.39999 7.5 0.18960001
133.39999 7.5500002 0.1952
133.39999 7.5999999 0.1928
133.39999 7.6500001 0.18960001
133.39999 7.6999998 0.18880001
133.39999 7.75 0.192
133.39999 7.8000002 0.20640001
133.39999 7.8499999 0.19679999
133.39999 7.9000001 0.1944
133.39999 7.9499998 0.1928
133.39999 8 0.19599999
133.39999 8.0500002 0.19840001
133.39999 8.1000004 0.1904
133.39999 8.1499996 0.1944
133.39999 8.1999998 0.1912
133.39999 8.25 0.5248
133.39999 8.3000002 0.62400001
133.39999 8.3500004 0.19760001
133.39999 8.3999996 0.1928
133.39999 8.4499998 0.19599999
133.39999 8.5 0.1776
133.39999 8.5500002 0.1768
133.39999 8.6000004 0.168
133.39999 8.6499996 0.1376
133.39999 8.6999998 0.1648
133.39999 8.75 0.1656
133.39999 8.8000002 0.1688
133.39999 8.8500004 0.1928
133.39999 8.8999996 0.73360002
133.39999 8.9499998 0.7568
133.39999 9 0.88480002
133.39999 9.0500002 0.88559997
133.39999 9.1000004 0.8768
133.39999 9.1499996 0.87040001
133.39999 9.1999998 0.81760001
133.39999 9.25 0.7608
133.39999 9.3000002 0.72000003
133.39999 9.3500004 0.66159999
133.39999 9.3999996 0.59759998
133.39999 9.4499998 0.54159999
133.39999 9.5 0.47040001
133.39999 9.5500002 0.4136
133.39999 9.6000004 0.34639999
133.39999 9.6499996 0.25920001
133.39999 9.6999998 0.1912
133.39999 9.75 0.1
133.39999 9.8000002 0.0048000002
133.39999 9.8500004 -0.094400004
133.60001 4.75 0.063199997
133.60001 4.8000002 0.1152
133.60001 4.8499999 0.18000001
133.60001 4.9000001 0.20479999
133.60001 4.9499998 0.2096
133.60001 5 0.2096
133.60001 5.0500002 0.2112
133.60001 5.0999999 0.2128
133.60001 5.1500001 0.212
133.60001 5.1999998 0.2104
133.60001 5.25 0.20720001
133.60001 5.3000002 0.20720001
133.60001 5.3499999 0.2088
133.60001 5.4000001 0.2008
133.60001 5.4499998 0.2032
133.60001 5.5 0.204
133.60001 5.5500002 0.2008
133.60001 5.5999999 0.2016
133.60001 5.6500001 0.2
133.60001 5.6999998 0.2
133.60001 5.75 0.20720001
133.60001 5.8000002 0.19679999
133.60001 5.8499999 0.1928
133.60001 5.9000001 0.1944
133.60001 5.9499998 0.19599999
133.60001 6 0.20479999
133.60001 6.0500002 0.19760001
133.60001 6.0999999 0.19760001
133.60001 6.1500001 0.1952
133.60001 6.1999998 0.19760001
133.60001 6.25 0.1952
133.60001 6.3000002 0.19760001
133.60001 6.3499999 0.19679999
133.60001 6.4000001 0.19679999
133.60001 6.4499998 0.19840001
133.60001 6.5 0.1936
133.60001 6.5500002 0.1944
133.60001 6.5999999 0.19840001
133.60001 6.6500001 0.1928
133.60001 6.6999998 0.192
133.60001 6.75 0.1936
133.60001 6.8000002 0.1928
133.60001 6.8499999 0.1912
133.60001 6.9000001 0.1848
133.60001 6.9499998 0.1928
133.60001 7 0.1904
133.60001 7.0500002 0.1904
133.60001 7.0999999 0.18799999
133.60001 7.1500001 0.18799999
133.60001 7.1999998 0.18880001
133.60001 7.25 0.1912
133.60001 7.3000002 0.18960001
133.60001 7.3499999 0.18719999
133.60001 7.4000001 0.19599999
133.60001 7.4499998 0.1904
133.60001 7.5 0.1912
133.60001 7.5500002 0.18880001
133.60001 7.5999999 0.1904
133.60001 7.6500001 0.1912
133.60001 7.6999998 0.18880001
133.60001 7.75 0.19840001
133.60001 7.8000002 0.2024
133.60001 7.8499999 0.19840001
133.60001 7.9000001 0.1928
133.60001 7.9499998 0.1944
133.60001 8 0.192
133.60001 8.0500002 0.192
133.60001 8.1000004 0.192
133.60001 8.1499996 0.1944
133.60001 8.1999998 0.60399997
133.60001 8.25 0.64880002
133.60001 8.3000002 0.184
133.60001 8.3500004 0.1904
133.60001 8.3999996 0.2
133.60001 8.4499998 0.18719999
133.60001 8.5 0.17039999
133.60001 8.5500002 0.16159999
133.60001 8.6000004 0.1664
133.60001 8.6499996 0.1696
133.60001 8.6999998 0.1672
133.60001 8.75 0.1592
133.60001 8.8000002 0.192
133.60001 8.8500004 0.73519999
133.60001 8.8999996 0.75199997
133.60001 8.9499998 0.87440002
133.60001 9 0.8872
133.60001 9.0500002 0.88559997
133.60001 9.1000004 0.8768
133.60001 9.1499996 0.81919998
133.60001 9.1999998 0.78479999
133.60001 9.25 0.72000003
133.60001 9.3000002 0.66720003
133.60001 9.3500004 0.60879999
133.60001 9.3999996 0.55119997
133.60001 9.4499998 0.4824
133.60001 9.5 0.4224
133.60001 9.5500002 0.3448
133.60001 9.6000004 0.27599999
133.60001 9.6499996 0.2088
133.60001 9.6999998 0.108
133.60001 9.75 0.030400001
133.8 4.8000002 0.1128
133.8 4.8499999 0.184
133.8 4.9000001 0.208
133.8 4.9499998 0.2104
133.8 5 0.2096
133.8 5.0500002 0.2096
133.8 5.0999999 0.2088
133.8 5.1500001 0.208
133.8 5.1999998 0.20720001
133.8 5.25 0.20720001
133.8 5.3000002 0.2104
133.8 5.3499999 0.20640001
133.8 5.4000001 0.2128
133.8 5.4499998 0.20479999
133.8 5.5 0.204
133.8 5.5500002 0.20640001
133.8 5.5999999 0.2024
133.8 5.6500001 0.2008
133.8 5.6999998 0.2024
133.8 5.75 0.2024
133.8 5.8000002 0.20559999
133.8 5.8499999 0.19840001
133.8 5.9000001 0.19599999
133.8 5.9499998 0.1992
133.8 6 0.19760001
133.8 6.0500002 0.19840001
133.8 6.0999999 0.1952
133.8 6.1500001 0.1904
133.8 6.1999998 0.1944
133.8 6.25 0.19760001
133.8 6.3000002 0.19760001
133.8 6.3499999 0.1944
133.8 6.4000001 0.1936
133.8 6.4499998 0.1952
133.8 6.5 0.1936
133.8 6.5500002 0.1992
133.8 6.5999999 0.1952
133.8 6.6500001 0.1912
133.8 6.6999998 0.1928
133.8 6.75 0.1936
133.8 6.8000002 0.1928
133.8 6.8499999 0.19679999
133.8 6.9000001 0.18880001
133.8 6.9499998 0.1904
133.8 7 0.1912
133.8 7.0500002 0.192
133.8 7.0999999 0.1936
133.8 7.1500001 0.1936
133.8 7.1999998 0.1904
133.8 7.25 0.1952
133.8 7.3000002 0.19840001
133.8 7.3499999 0.19679999
133.8 7.4000001 0.19760001
133.8 7.4499998 0.18880001
133.8 7.5 0.19599999
133.8 7.5500002 0.192
133.8 7.5999999 0.192
133.8 7.6500001 0.19599999
133.8 7.6999998 0.1936
133.8 7.75 0.1928
133.8 7.8000002 0.2
133.8 7.8499999 0.19760001
133.8 7.9000001 0.1944
133.8 7.9499998 0.19679999
133.8 8 0.1912
133.8 8.0500002 0.1952
133.8 8.1000004 0.1952
133.8 8.1499996 0.19679999
133.8 8.1999998 0.1928
133.8 8.25 0.19679999
133.8 8.3000002 0.8136
133.8 8.3500004 0.192
133.8 8.3999996 0.1904
133.8 8.4499998 0.1656
133.8 8.5 0.1648
133.8 8.5500002 0.1592
133.8 8.6000004 0.176
133.8 8.6499996 0.1672
133.8 8.6999998 0.1656
133.8 8.75 0.18000001
133.8 8.8000002 0.74080002
133.8 8.8500004 0.75840002
133.8 8.8999996 0.88239998
133.8 8.9499998 0.88639998
133.8 9 0.88319999
133.8 9.0500002 0.87199998
133.8 9.1000004 0.8312
133.8 9.1499996 0.76959997
133.8 9.1999998 0.73280001
133.8 9.25 0.6688
133.8 9.3000002 0.61440003
133.8 9.3500004 0.54479998
133.8 9.3999996 0.49520001
133.8 9.4499998 0.42399999
133.8 9.5 0.36399999
133.8 9.5500002 0.26800001
133.8 9.6000004 0.2
133.8 9.6499996 0.1296
134 4.6999998 -1.3168
134 4.75 -1.3024
134 4.8000002 0.14480001
134 4.8499999 0.19599999
134 4.9000001 0.2088
134 4.9499998 0.208
134 5 0.2088
134 5.0500002 0.2112
134 5.0999999 0.20479999
134 5.1500001 0.20559999
134 5.1999998 0.20640001
134 5.25 0.2088
134 5.3000002 0.2112
134 5.3499999 0.20479999
134 5.4000001 0.20720001
134 5.4499998 0.2032
134 5.5 0.20559999
134 5.5500002 0.20479999
134 5.5999999 0.204
134 5.6500001 0.19840001
134 5.6999998 0.19840001
134 5.75 0.19840001
134 5.8000002 0.1992
134 5.8499999 0.19840001
134 5.9000001 0.19679999
134 5.9499998 0.19679999
134 6 0.2008
134 6.0500002 0.19840001
134 6.0999999 0.2
134 6.1500001 0.19679999
134 6.1999998 0.1992
134 6.25 0.19599999
134 6.3000002 0.19760001
134 6.3499999 0.19679999
134 6.4000001 0.19599999
134 6.4499998 0.18960001
134 6.5 0.1928
134 6.5500002 0.192
134 6.5999999 0.18799999
134 6.6500001 0.192
134 6.6999998 0.1936
134 6.75 0.1928
134 6.8000002 0.1928
134 6.8499999 0.1944
134 6.9000001 0.1904
134 6.9499998 0.1928
134 7 0.19599999
134 7.0500002 0.1904
134 7.0999999 0.1864
134 7.1500001 0.18880001
134 7.1999998 0.1936
134 7.25 0.1912
134 7.3000002 0.1904
134 7.3499999 0.1928
134 7.4000001 0.18880001
134 7.4499998 0.1928
134 7.5 0.1944
134 7.5500002 0.18880001
134 7.5999999 0.1904
134 7.6500001 0.1928
134 7.6999998 0.1904
134 7.75 0.192
134 7.8000002 0.19760001
134 7.8499999 0.1944
134 7.9000001 0.1936
134 7.9499998 0.2024
134 8 0.19760001
134 8.0500002 0.19760001
134 8.1000004 0.19760001
134 8.1499996 0.1952
134 8.1999998 0.1928
134 8.25 0.1904
134 8.3000002 0.1952
134 8.3500004 0.92400002
134 8.3999996 0.16159999
134 8.4499998 0.16240001
134 8.5 0.1648
134 8.5500002 0.1648
134 8.6000004 0.164
134 8.6499996 0.16
134 8.6999998 0.2008
134 8.75 0.74239999
134 8.8000002 0.76800001
134 8.8500004 0.87840003
134 8.8999996 0.88959998
134 8.9499998 0.88639998
134 9 0.87040001
134 9.0500002 0.81760001
134 9.1000004 0.77280003
134 9.1499996 0.70880002
134 9.1999998 0.65200001
134 9.25 0.60399997
134 9.3000002 0.54079998
134 9.3500004 0.4928
134 9.3999996 0.41999999
134 9.4499998 0.35280001
134 9.5 0.2784
134 9.5500002 0.1936
134 9.6000004 0.1256
134.2 4.6999998 -1.3664
134.2 5.3000002 0.17200001
134.2 5.3499999 0.18799999
134.2 5.4000001 0.18799999
134.2 5.4499998 0.19599999
134.2 5.5 0.19599999
134.2 5.5500002 0.2032
134.2 5.5999999 0.2016
134.2 5.6500001 0.2008
134.2 5.6999998 0.2024
134.2 5.75 0.2016
134.2 5.8000002 0.2
134.2 5.8499999 0.2032
134.2 5.9000001 0.2008
134.2 5.9499998 0.1992
134.2 6 0.2008
134.2 6.0500002 0.19599999
134.2 6.0999999 0.19840001
134.2 6.1500001 0.19840001
134.2 6.1999998 0.19599999
134.2 6.25 0.19679999
134.2 6.3000002 0.19760001
134.2 6.3499999 0.19760001
134.2 6.4000001 0.19760001
134.2 6.4499998 0.19760001
134.2 6.5 0.19599999
134.2 6.5500002 0.19599999
134.2 6.5999999 0.1928
134.2 6.6500001 0.192
134.2 6.6999998 0.19599999
134.2 6.75 0.19760001
134.2 6.8000002 0.19840001
134.2 6.8499999 0.2016
134.2 6.9000001 0.1944
134.2 6.9499998 0.19840001
134.2 7 0.1952
134.2 7.0500002 0.18960001
134.2 7.0999999 0.1864
134.2 7.1500001 0.22400001
134.2 7.1999998 0.208
134.2 7.25 0.2192
134.2 7.3000002 0.2216
134.2 7.3499999 0.21600001
134.2 7.4000001 0.2208
134.2 7.4499998 0.20720001
134.2 7.5 0.1912
134.2 7.5500002 0.1952
134.2 7.5999999 0.1904
134.2 7.6500001 0.1944
134.2 7.6999998 0.192
134.2 7.75 0.192
134.2 7.8000002 0.1952
134.2 7.8499999 0.1936
134.2 7.9000001 0.1944
134.2 7.9499998 0.19599999
134.2 8 0.1936
134.2 8.0500002 0.19599999
134.2 8.1000004 0.19679999
134.2 8.1499996 0.2168
134.2 8.1999998 0.2184
134.2 8.25 0.87279999
134.2 8.3000002 0.66000003
134.2 8.3500004 0.1648
134.2 8.3999996 0.164
134.2 8.4499998 0.1664
134.2 8.5 0.17120001
134.2 8.5500002 0.1656
134.2 8.6000004 0.16
134.2 8.6499996 0.2016
134.2 8.6999998 0.74959999
134.2 8.75 0.86000001
134.2 8.8000002 0.88800001
134.2 8.8500004 0.88639998
134.2 8.8999996 0.88559997
134.2 8.9499998 0.86720002
134.2 9 0.81199998
134.2 9.0500002 0.76560003
134.2 9.1000004 0.70480001
134.2 9.1499996 0.66000003
134.2 9.1999998 0.60000002
134.2 9.25 0.54079998
134.2 9.3000002 0.4824
134.2 9.3500004 0.40400001
134.2 9.3999996 0.33759999
134.2 9.4499998 0.27200001
134.2 9.5 0.17919999
134.2 9.5500002 0.1288
134.2 9.6000004 -0.0040000002
134.2 9.6499996 -0.098399997
134.2 9.6999998 -0.21439999
134.39999 5.5999999 0.12
134.39999 5.6500001 0.1424
134.39999 5.6999998 0.16
134.39999 5.75 0.1752
134.39999 5.8000002 0.17839999
134.39999 5.8499999 0.1944
134.39999 5.9000001 0.192
134.39999 5.9499998 0.2008
134.39999 6 0.2
134.39999 6.0500002 0.19599999
134.39999 6.0999999 0.2
134.39999 6.1500001 0.19840001
134.39999 6.1999998 0.19840001
134.39999 6.25 0.1944
134.39999 6.3000002 0.19599999
134.39999 6.3499999 0.1928
134.39999 6.4000001 0.19760001
134.39999 6.4499998 0.1936
134.39999 6.5 0.19599999
134.39999 6.5500002 0.1936
134.39999 6.5999999 0.1944
134.39999 6.6500001 0.1944
134.39999 6.6999998 0.1936
134.39999 6.75 0.1928
134.39999 6.8000002 0.1936
134.39999 6.8499999 0.1936
134.39999 6.9000001 0.1928
134.39999 6.9499998 0.19760001
134.39999 7 0.19599999
134.39999 7.0500002 0.19840001
134.39999 7.0999999 0.2112
134.39999 7.1500001 0.2168
134.39999 7.1999998 0.208
134.39999 7.25 0.20559999
134.39999 7.3000002 0.22239999
134.39999 7.3499999 0.2208
134.39999 7.4000001 0.2208
134.39999 7.4499998 0.22239999
134.39999 7.5 0.2096
134.39999 7.5500002 0.1928
134.39999 7.5999999 0.1912
134.39999 7.6500001 0.18880001
134.39999 7.6999998 0.1936
134.39999 7.75 0.1928
134.39999 7.8000002 0.2032
134.39999 7.8499999 0.2016
134.39999 7.9000001 0.2
134.39999 7.9499998 0.19679999
134.39999 8 0.1992
134.39999 8.0500002 0.2
134.39999 8.1000004 0.1992
134.39999 8.1499996 0.1928
134.39999 8.1999998 0.78719997
134.39999 8.25 0.18080001
134.39999 8.3000002 0.1688
134.39999 8.3500004 0.1656
134.39999 8.3999996 0.1744
134.39999 8.4499998 0.1664
134.39999 8.5 0.1568
134.39999 8.5500002 0.18880001
134.39999 8.6000004 0.2088
134.39999 8.6499996 0.74879998
134.39999 8.6999998 0.884
134.39999 8.75 0.88480002
134.39999 8.8000002 0.89200002
134.39999 8.8500004 0.88480002
134.39999 8.8999996 0.8416
134.39999 8.9499998 0.80400002
134.39999 9 0.75440001
134.39999 9.0500002 0.69199997
134.39999 9.1000004 0.64319998
134.39999 9.1499996 0.588
134.39999 9.1999998 0.51999998
134.39999 9.25 0.46239999
134.39999 9.3000002 0.3944
134.39999 9.3500004 0.31999999
134.39999 9.3999996 0.25839999
134.39999 9.4499998 0.168
134.39999 9.5 0.092
134.39999 9.5500002 -0.0024000001
134.39999 9.6000004 -0.1008
134.60001 4.5 -1.4848
134.60001 4.5500002 -1.4664
134.60001 4.5999999 -1.4608001
134.60001 4.6500001 -1.4344
134.60001 4.6999998 -1.4312
134.60001 4.75 -1.444
134.60001 5.9000001 0.098399997
134.60001 5.9499998 0.132
134.60001 6 0.1664
134.60001 6.0500002 0.1768
134.60001 6.0999999 0.1904
134.60001 6.1500001 0.19599999
134.60001 6.1999998 0.1936
134.60001 6.25 0.19679999
134.60001 6.3000002 0.1928
134.60001 6.3499999 0.192
134.60001 6.4000001 0.1936
134.60001 6.4499998 0.1936
134.60001 6.5 0.1944
134.60001 6.5500002 0.19599999
134.60001 6.5999999 0.1912
134.60001 6.6500001 0.1944
134.60001 6.6999998 0.1952
134.60001 6.75 0.19599999
134.60001 6.8000002 0.19599999
134.60001 6.8499999 0.1928
134.60001 6.9000001 0.1928
134.60001 6.9499998 0.18960001
134.60001 7 0.192
134.60001 7.0500002 0.204
134.60001 7.0999999 0.21439999
134.60001 7.1500001 0.2
134.60001 7.1999998 0.19840001
134.60001 7.25 0.21600001
134.60001 7.3000002 0.19599999
134.60001 7.3499999 0.19599999
134.60001 7.4000001 0.2008
134.60001 7.4499998 0.20640001
134.60001 7.5 0.2088
134.60001 7.5500002 0.1952
134.60001 7.5999999 0.1936
134.60001 7.6500001 0.1928
134.60001 7.6999998 0.1936
134.60001 7.75 0.1952
134.60001 7.8000002 0.2008
134.60001 7.8499999 0.20479999
134.60001 7.9000001 0.19679999
134.60001 7.9499998 0.19599999
134.60001 8 0.2
134.60001 8.0500002 0.1952
134.60001 8.1000004 0.192
134.60001 8.1499996 0.1832
134.60001 8.1999998 0.17039999
134.60001 8.25 0.176
134.60001 8.3000002 0.1728
134.60001 8.3500004 0.1832
134.60001 8.3999996 0.17200001
134.60001 8.4499998 0.1664
134.60001 8.5 0.22
134.60001 8.5500002 0.74080002
134.60001 8.6000004 0.76639998
134.60001 8.6499996 0.88319999
134.60001 8.6999998 0.88880002
134.60001 8.75 0.88559997
134.60001 8.8000002 0.8696
134.60001 8.8500004 0.81999999
134.60001 8.8999996 0.78640002
134.60001 8.9499998 0.72960001
134.60001 9 0.68080002
134.60001 9.0500002 0.62480003
134.60001 9.1000004 0.56879997
134.60001 9.1499996 0.4984
134.60001 9.1999998 0.44
134.60001 9.25 0.3664
134.60001 9.3000002 0.30000001
134.60001 9.3500004 0.23199999
134.60001 9.3999996 0.16
134.60001 9.4499998 0.056000002
134.8 4.3499999 -1.3096
134.8 4.4000001 -1.4184
134.8 4.4499998 -1.4263999
134.8 4.5 -1.4296
134.8 4.5500002 -1.4328001
134.8 4.5999999 -1.4304
134.8 4.6500001 -1.4344
134.8 4.6999998 -1.444
134.8 4.75 -1.4400001
134.8 4.8000002 -1.452
134.8 6.0500002 0.1336
134.8 6.0999999 0.15440001
134.8 6.1500001 0.16
134.8 6.1999998 0.184
134.8 6.25 0.18960001
134.8 6.3000002 0.1928
134.8 6.3499999 0.1936
134.8 6.4000001 0.18960001
134.8 6.4499998 0.1936
134.8 6.5 0.1928
134.8 6.5500002 0.1928
134.8 6.5999999 0.19679999
134.8 6.6500001 0.1952
134.8 6.6999998 0.19679999
134.8 6.75 0.1944
134.8 6.8000002 0.19679999
134.8 6.8499999 0.2008
134.8 6.9000001 0.19679999
134.8 6.9499998 0.19840001
134.8 7 0.19679999
134.8 7.0500002 0.1912
134.8 7.0999999 0.1904
134.8 7.1500001 0.2088
134.8 7.1999998 0.20720001
134.8 7.25 0.2024
134.8 7.3000002 0.2016
134.8 7.3499999 0.19840001
134.8 7.4000001 0.2176
134.8 7.4499998 0.212
134.8 7.5 0.20559999
134.8 7.5500002 0.19679999
134.8 7.5999999 0.192
134.8 7.6500001 0.1928
134.8 7.6999998 0.1952
134.8 7.75 0.2016
134.8 7.8000002 0.212
134.8 7.8499999 0.204
134.8 7.9000001 0.2008
134.8 7.9499998 0.1944
134.8 8 0.18719999
134.8 8.0500002 0.1952
134.8 8.1000004 0.1696
134.8 8.1499996 0.1672
134.8 8.1999998 0.1672
134.8 8.25 0.164
134.8 8.3000002 0.1656
134.8 8.3500004 0.15360001
134.8 8.3999996 0.244
134.8 8.4499998 0.24079999
134.8 8.5 0.75279999
134.8 8.5500002 0.87919998
134.8 8.6000004 0.89679998
134.8 8.6499996 0.88559997
134.8 8.6999998 0.8872
134.8 8.75 0.85600001
134.8 8.8000002 0.7992
134.8 8.8500004 0.75760001
134.8 8.8999996 0.7008
134.8 8.9499998 0.6552
134.8 9 0.60479999
134.8 9.0500002 0.53600001
134.8 9.1000004 0.48480001
134.8 9.1499996 0.40799999
134.8 9.1999998 0.34799999
134.8 9.25 0.27200001
134.8 9.3000002 0.19679999
134.8 9.3500004 0.1208
134.8 9.3999996 0.0184
134.8 9.4499998 -0.0832
134.8 9.5 -0.16240001
135 4.1500001 -1.4376
135 4.1999998 -1.4232
135 4.25 -1.4248
135 4.3000002 -1.4288
135 4.3499999 -1.4304
135 4.4000001 -1.428
135 4.4499998 -1.4256001
135 4.5 -1.4272
135 4.5500002 -1.428
135 4.5999999 -1.4352
135 4.6500001 -1.4272
135 4.6999998 -1.4352
135 4.75 -1.428
135 4.8000002 -1.4328001
135 6.1500001 0.051199999
135 6.1999998 0.092
135 6.25 0.1568
135 6.3000002 0.1736
135 6.3499999 0.1928
135 6.4000001 0.1944
135 6.4499998 0.19679999
135 6.5 0.1928
135 6.5500002 0.1944
135 6.5999999 0.1928
135 6.6500001 0.19760001
135 6.6999998 0.1944
135 6.75 0.1992
135 6.8000002 0.19679999
135 6.8499999 0.19599999
135 6.9000001 0.19760001
135 6.9499998 0.2024
135 7 0.1824
135 7.0500002 0.18719999
135 7.0999999 0.19760001
135 7.1500001 0.2008
135 7.1999998 0.20479999
135 7.25 0.20720001
135 7.3000002 0.20720001
135 7.3499999 0.19840001
135 7.4000001 0.1944
135 7.4499998 0.19760001
135 7.5 0.19840001
135 7.5500002 0.2128
135 7.5999999 0.32319999
135 7.6500001 0.28799999
135 7.6999998 0.2216
135 7.75 0.2
135 7.8000002 0.48800001
135 7.8499999 0.4736
135 7.9000001 0.30239999
135 7.9499998 0.1848
135 8 0.43360001
135 8.0500002 0.1552
135 8.1000004 0.1776
135 8.1499996 0.192
135 8.1999998 0.19840001
135 8.25 0.1816
135 8.3000002 0.17839999
135 8.3500004 0.26159999
135 8.3999996 0.74800003
135 8.4499998 0.84719998
135 8.5 0.89600003
135 8.5500002 0.88959998
135 8.6000004 0.89039999
135 8.6499996 0.86720002
135 8.6999998 0.82319999
135 8.75 0.78240001
135 8.8000002 0.736
135 8.8500004 0.67199999
135 8.8999996 0.61680001
135 8.9499998 0.56559998
135 9 0.4984
135 9.0500002 0.44800001
135 9.1000004 0.38800001
135 9.1499996 0.31279999
135 9.1999998 0.252
135 9.25 0.1576
135 9.3000002 0.060800001
135 9.3500004 -0.035999998
135.2 3.55 -1.46
135.2 3.5999999 -1.4248
135.2 3.6500001 -1.4224
135.2 3.7 -1.4208
135.2 3.75 -1.4168
135.2 3.8 -1.4191999
135.2 3.8499999 -1.4191999
135.2 3.9000001 -1.4296
135.2 3.95 -1.4232
135.2 4 -1.4304
135.2 4.0500002 -1.4263999
135.2 4.0999999 -1.4352
135.2 4.1500001 -1.4191999
135.2 4.1999998 -1.4296
135.2 4.25 -1.424
135.2 4.3000002 -1.428
135.2 4.3499999 -1.428
135.2 4.4000001 -1.4408
135.2 4.4499998 -1.4328001
135.2 4.5 -1.432
135.2 4.5500002 -1.4312
135.2 4.5999999 -1.4328001
135.2 4.6500001 -1.4328001
135.2 4.6999998 -1.428
135.2 4.75 -1.4256001
135.2 4.8000002 -1.4248
135.2 4.8499999 -1.42
135.2 4.9000001 -1.4208
135.2 4.9499998 -1.4288
135.2 5 -1.4104
135.2 5.0500002 -1.4119999
135.2 5.0999999 -1.4104
135.2 5.1500001 -1.4
135.2 5.1999998 -1.4064
135.2 5.25 -1.4008
135.2 5.3000002 -1.3968
135.2 5.3499999 -1.3968
135.2 5.4000001 -1.3864
135.2 5.4499998 -1.3896
135.2 5.5 -1.36
135.2 6.1999998 0.0288
135.2 6.25 0.0616
135.2 6.3000002 0.1128
135.2 6.3499999 0.17919999
135.2 6.4000001 0.1928
135.2 6.4499998 0.19679999
135.2 6.5 0.19840001
135.2 6.5500002 0.19599999
135.2 6.5999999 0.1952
135.2 6.6500001 0.192
135.2 6.6999998 0.1936
135.2 6.75 0.1992
135.2 6.8000002 0.2
135.2 6.8499999 0.19599999
135.2 6.9000001 0.1912
135.2 6.9499998 0.1936
135.2 7 0.2016
135.2 7.0500002 0.19599999
135.2 7.0999999 0.1936
135.2 7.1500001 0.19840001
135.2 7.1999998 0.19760001
135.2 7.25 0.19760001
135.2 7.3000002 0.19599999
135.2 7.3499999 0.19599999
135.2 7.4000001 0.1944
135.2 7.4499998 0.1992
135.2 7.5 0.1936
135.2 7.5500002 0.19599999
135.2 7.5999999 0.1992
135.2 7.6500001 0.1936
135.2 7.6999998 0.20479999
135.2 7.75 0.1848
135.2 7.8000002 0.176
135.2 7.8499999 0.1848
135.2 7.9000001 0.1832
135.2 7.9499998 0.1816
135.2 8 0.18880001
135.2 8.0500002 0.17839999
135.2 8.1000004 0.176
135.2 8.1499996 0.176
135.2 8.1999998 0.1744
135.2 8.25 0.2304
135.2 8.3000002 0.74879998
135.2 8.3500004 0.76639998
135.2 8.3999996 0.88959998
135.2 8.4499998 0.89359999
135.2 8.5 0.8976
135.2 8.5500002 0.88080001
135.2 8.6000004 0.8448
135.2 8.6499996 0.8064
135.2 8.6999998 0.74400002
135.2 8.75 0.70160002
135.2 8.8000002 0.63999999
135.2 8.8500004 0.57359999
135.2 8.8999996 0.53200001
135.2 8.9499998 0.47839999
135.2 9 0.40079999
135.2 9.0500002 0.33199999
135.2 9.1000004 0.2728
135.2 9.1499996 0.19599999
135.2 9.1999998 0.1096
135.39999 3.55 -1.4536
135.39999 3.5999999 -1.4296
135.39999 3.6500001 -1.4168
135.39999 3.7 -1.428
135.39999 3.75 -1.4304
135.39999 3.8 -1.4184
135.39999 3.8499999 -1.4272
135.39999 3.9000001 -1.4248
135.39999 3.95 -1.424
135.39999 4 -1.4304
135.39999 4.0500002 -1.424
135.39999 4.0999999 -1.4263999
135.39999 4.1500001 -1.4232
135.39999 4.1999998 -1.4216
135.39999 4.25 -1.4272
135.39999 4.3000002 -1.432
135.39999 4.3499999 -1.432
135.39999 4.4000001 -1.4272
135.39999 4.4499998 -1.4304
135.39999 4.5 -1.4416
135.39999 4.5500002 -1.4448
135.39999 4.5999999 -1.4615999
135.39999 4.6500001 -1.476
135.39999 5.25 -1.4608001
135.39999 5.3000002 -1.4368
135.39999 5.3499999 -1.4432
135.39999 5.4000001 -1.4272
135.39999 5.4499998 -1.4208
135.39999 5.5 -1.4064
135.39999 5.5500002 -1.4224
135.39999 5.5999999 -1.4208
135.39999 5.6500001 -1.4136
135.39999 5.6999998 -1.4088
135.39999 5.75 -1.4072
135.39999 5.8000002 -1.404
135.39999 5.8499999 -1.416
135.39999 5.9000001 -1.256
135.39999 5.9499998 -1.0864
135.39999 6 -0.91600001
135.39999 6.0500002 -0.7464
135.39999 6.0999999 -0.57599998
135.39999 6.1500001 -0.40560001
135.39999 6.1999998 -0.236
135.39999 6.25 -0.0656
135.39999 6.3000002 0.044
135.39999 6.3499999 0.092
135.39999 6.4000001 0.14
135.39999 6.4499998 0.18080001
135.39999 6.5 0.176
135.39999 6.5500002 0.1768
135.39999 6.5999999 0.176
135.39999 6.6500001 0.1728
135.39999 6.6999998 0.1696
135.39999 6.75 0.176
135.39999 6.8000002 0.1744
135.39999 6.8499999 0.17039999
135.39999 6.9000001 0.1736
135.39999 6.9499998 0.1688
135.39999 7 0.1688
135.39999 7.0500002 0.1752
135.39999 7.0999999 0.1688
135.39999 7.1500001 0.1672
135.39999 7.1999998 0.168
135.39999 7.25 0.16320001
135.39999 7.3000002 0.1664
135.39999 7.3499999 0.1696
135.39999 7.4000001 0.1736
135.39999 7.4499998 0.1768
135.39999 7.5 0.176
135.39999 7.5500002 0.18000001
135.39999 7.5999999 0.184
135.39999 7.6500001 0.17919999
135.39999 7.6999998 0.1776
135.39999 7.75 0.17919999
135.39999 7.8000002 0.1752
135.39999 7.8499999 0.18000001
135.39999 7.9000001 0.1752
135.39999 7.9499998 0.1832
135.39999 8 0.17839999
135.39999 8.0500002 0.1728
135.39999 8.1000004 0.1592
135.39999 8.1499996 0.2384
135.39999 8.1999998 0.75599998
135.39999 8.25 0.7568
135.39999 8.3000002 0.89600003
135.39999 8.3500004 0.89840001
135.39999 8.3999996 0.89679998
135.39999 8.4499998 0.87840003
135.39999 8.5 0.84399998
135.39999 8.5500002 0.80320001
135.39999 8.6000004 0.75279999
135.39999 8.6499996 0.71520001
135.39999 8.6999998 0.66159999
135.39999 8.75 0.60399997
135.39999 8.8000002 0.55119997
135.39999 8.8500004 0.49200001
135.39999 8.8999996 0.43200001
135.39999 8.9499998 0.3536
135.39999 9 0.28080001
135.39999 9.0500002 0.21600001
135.39999 9.1000004 0.1472
135.60001 3.55 -1.4624
135.60001 3.5999999 -1.4232
135.60001 3.6500001 -1.4256001
135.60001 3.7 -1.4232
135.60001 3.75 -1.42
135.60001 3.8 -1.4184
135.60001 3.8499999 -1.432
135.60001 3.9000001 -1.4232
135.60001 3.95 -1.428
135.60001 4 -1.4224
135.60001 4.0500002 -1.4248
135.60001 4.0999999 -1.4288
135.60001 4.1500001 -1.4263999
135.60001 4.1999998 -1.4232
135.60001 4.25 -1.4232
135.60001 4.3000002 -1.4335999
135.60001 4.3499999 -1.4568
135.60001 5.3499999 -1.4912
135.60001 5.4000001 -1.4712
135.60001 5.4499998 -1.4456
135.60001 5.5 -1.4368
135.60001 5.5500002 -1.4296
135.60001 5.5999999 -1.432
135.60001 5.6500001 -1.4272
135.60001 5.6999998 -1.436
135.60001 5.75 -1.4312
135.60001 5.8000002 -1.4304
135.60001 5.8499999 -1.436
135.60001 5.9000001 -1.4296
135.60001 5.9499998 -1.4216
135.60001 6 -1.3968
135.60001 6.0500002 -1.252
135.60001 6.0999999 -1.0136
135.60001 6.1500001 -0.77520001
135.60001 6.1999998 -0.53680003
135.60001 6.25 -0.29840001
135.60001 6.3000002 -0.059999999
135.60001 6.3499999 0.048799999
135.60001 6.4000001 0.090400003
135.60001 6.4499998 0.1512
135.60001 6.5 0.1824
135.60001 6.5500002 0.1824
135.60001 6.5999999 0.1776
135.60001 6.6500001 0.18000001
135.60001 6.6999998 0.184
135.60001 6.75 0.1768
135.60001 6.8000002 0.17919999
135.60001 6.8499999 0.17919999
135.60001 6.9000001 0.17839999
135.60001 6.9499998 0.1728
135.60001 7 0.1744
135.60001 7.0500002 0.1736
135.60001 7.0999999 0.1696
135.60001 7.1500001 0.1696
135.60001 7.1999998 0.1728
135.60001 7.25 0.1672
135.60001 7.3000002 0.1768
135.60001 7.3499999 0.1752
135.60001 7.4000001 0.1816
135.60001 7.4499998 0.1824
135.60001 7.5 0.18080001
135.60001 7.5500002 0.1848
135.60001 7.5999999 0.1832
135.60001 7.6500001 0.17919999
135.60001 7.6999998 0.17039999
135.60001 7.75 0.1816
135.60001 7.8000002 0.176
135.60001 7.8499999 0.1832
135.60001 7.9000001 0.1832
135.60001 7.9499998 0.18080001
135.60001 8 0.17039999
135.60001 8.0500002 0.32879999
135.60001 8.1000004 0.73839998
135.60001 8.1499996 0.76959997
135.60001 8.1999998 0.8944
135.60001 8.25 0.89279997
135.60001 8.3000002 0.89200002
135.60001 8.3500004 0.88480002
135.60001 8.3999996 0.8664
135.60001 8.4499998 0.80320001
135.60001 8.5 0.76480001
135.60001 8.5500002 0.70959997
135.60001 8.6000004 0.66960001
135.60001 8.6499996 0.61199999
135.60001 8.6999998 0.55919999
135.60001 8.75 0.49919999
135.60001 8.8000002 0.4368
135.60001 8.8500004 0.36880001
135.60001 8.8999996 0.30239999
135.60001 8.9499998 0.2288
135.60001 9 0.1552
135.8 3.55 -1.4543999
135.8 3.5999999 -1.4256001
135.8 3.6500001 -1.4072
135.8 3.7 -1.4152
135.8 3.75 -1.4096
135.8 3.8 -1.416
135.8 3.8499999 -1.4168
135.8 3.9000001 -1.4248
135.8 3.95 -1.4208
135.8 4 -1.4232
135.8 4.0500002 -1.4208
135.8 4.0999999 -1.4272
135.8 4.1500001 -1.424
135.8 4.1999998 -1.4232
135.8 4.25 -1.4736
135.8 5.25 -1.452
135.8 5.3000002 -1.4528
135.8 5.3499999 -1.4648
135.8 5.4000001 -1.4784
135.8 5.4499998 -1.492
135.8 5.5 -1.4712
135.8 5.5500002 -1.4352
135.8 5.5999999 -1.4424
135.8 5.6500001 -1.4352
135.8 5.6999998 -1.4376
135.8 5.75 -1.4408
135.8 5.8000002 -1.4448
135.8 5.8499999 -1.4392
135.8 5.9000001 -1.4328001
135.8 5.9499998 -1.4344
135.8 6 -1.4392
135.8 6.0500002 -1.432
135.8 6.0999999 -1.4304
135.8 6.1500001 -1.4008
135.8 6.1999998 -1.0088
135.8 6.25 -0.56400001
135.8 6.3000002 -0.1192
135.8 6.3499999 0.048799999
135.8 6.4000001 0.072800003
135.8 6.4499998 0.1312
135.8 6.5 0.1832
135.8 6.5500002 0.184
135.8 6.5999999 0.1856
135.8 6.6500001 0.184
135.8 6.6999998 0.184
135.8 6.75 0.1816
135.8 6.8000002 0.1824
135.8 6.8499999 0.1832
135.8 6.9000001 0.18080001
135.8 6.9499998 0.1744
135.8 7 0.18080001
135.8 7.0500002 0.18719999
135.8 7.0999999 0.18080001
135.8 7.1500001 0.1768
135.8 7.1999998 0.1824
135.8 7.25 0.1856
135.8 7.3000002 0.18080001
135.8 7.3499999 0.1864
135.8 7.4000001 0.1848
135.8 7.4499998 0.1856
135.8 7.5 0.1864
135.8 7.5500002 0.1856
135.8 7.5999999 0.1856
135.8 7.6500001 0.184
135.8 7.6999998 0.1856
135.8 7.75 0.18880001
135.8 7.8000002 0.1848
135.8 7.8499999 0.17839999
135.8 7.9000001 0.168
135.8 7.9499998 0.25839999
135.8 8 0.75599998
135.8 8.0500002 0.75840002
135.8 8.1000004 0.89520001
135.8 8.1499996 0.89600003
135.8 8.1999998 0.8976
135.8 8.25 0.89120001
135.8 8.3000002 0.84960002
135.8 8.3500004 0.81279999
135.8 8.3999996 0.77600002
135.8 8.4499998 0.71520001
135.8 8.5 0.67199999
