# .PCD v0.7 - Point Cloud Data file format
VERSION 0.7
FIELDS x y z
SIZE 4 4 4
TYPE F F F
COUNT 1 1 1
WIDTH 1887
HEIGHT 1
VIEWPOINT 0 0 0 1 0 0 0
POINTS 1887
DATA ascii
134.39999 7.1500001 0.46399999
134.39999 7.1999998 0.45359999
134.39999 7.25 0.43759999
134.39999 7.3000002 0.4472
134.39999 7.3499999 0.44240001
134.39999 7.4000001 0.43200001
134.39999 7.4499998 0.4048
134.39999 7.5 0.42719999
134.39999 7.5500002 0.63840002
134.39999 7.5999999 0.43360001
134.39999 7.6500001 0.4368
134.39999 7.6999998 0.43279999
134.39999 7.75 0.42480001
134.39999 7.8000002 0.43040001
134.39999 7.8499999 0.48159999
134.39999 7.9000001 0.4928
134.39999 7.9499998 0.4896
134.39999 8 0.47040001
134.39999 8.0500002 0.45519999
134.39999 8.1000004 0.4488
134.39999 8.1499996 0.43599999
134.39999 8.1999998 0.46160001
134.39999 8.25 0.43520001
134.39999 8.3000002 0.44639999
134.39999 8.3500004 0.4192
134.39999 8.3999996 0.42399999
134.39999 8.4499998 0.42160001
134.39999 8.5 0.40799999
134.39999 8.5500002 0.42399999
134.39999 8.6000004 0.41119999
134.39999 8.6499996 0.49360001
134.39999 8.6999998 0.45039999
134.39999 8.75 0.45199999
134.39999 8.8000002 0.46239999
134.39999 8.8500004 0.4296
134.39999 8.8999996 0.44080001
134.39999 8.9499998 0.51999998
134.39999 9 0.49039999
134.39999 9.0500002 0.51359999
134.39999 9.1000004 0.48800001
134.39999 9.1499996 0.43759999
134.39999 9.1999998 0.42879999
134.39999 9.25 0.42719999
134.39999 9.3000002 0.43040001
134.39999 9.3500004 0.26320001
134.39999 9.3999996 0.26480001
134.39999 9.4499998 0.27599999
134.39999 9.5 0.2472
134.39999 9.5500002 0.22400001
134.39999 9.6000004 0.2272
134.39999 9.6499996 0.22319999
134.39999 9.6999998 0.2216
134.39999 9.75 0.24959999
134.39999 9.8000002 0.80000001
134.39999 9.8500004 0.81599998
134.39999 9.8999996 0.9472
134.39999 9.9499998 0.94880003
134.39999 10 0.94800001
134.39999 10.05 0.93120003
134.39999 10.1 0.89200002
134.39999 10.15 0.84399998
134.39999 10.2 0.79680002
134.39999 10.25 0.74080002
134.39999 10.3 0.68000001
134.39999 10.35 0.63120002
134.39999 10.4 0.55680001
134.39999 10.45 0.51120001
134.39999 10.5 0.42879999
134.39999 10.55 0.35600001
134.39999 10.6 0.28240001
134.39999 10.65 0.18960001
134.39999 10.7 0.096799999
134.39999 10.75 0.0088
134.39999 10.8 -0.095200002
134.60001 5.5 0.1136
134.60001 5.5500002 0.1488
134.60001 5.5999999 0.1592
134.60001 5.6500001 0.15279999
134.60001 5.6999998 0.1472
134.60001 5.75 0.1408
134.60001 5.8000002 0.1344
134.60001 5.8499999 0.1288
134.60001 5.9000001 0.1224
134.60001 5.9499998 0.116
134.60001 6 0.1096
134.60001 6.0500002 0.29840001
134.60001 6.0999999 0.39520001
134.60001 6.1500001 0.44960001
134.60001 6.1999998 0.44639999
134.60001 6.25 0.43279999
134.60001 6.3000002 0.4136
134.60001 6.3499999 0.4104
134.60001 6.4000001 0.42879999
134.60001 6.4499998 0.41760001
134.60001 6.5 0.4064
134.60001 6.5500002 0.40959999
134.60001 6.5999999 0.41440001
134.60001 6.6500001 0.40959999
134.60001 6.6999998 0.40799999
134.60001 6.75 0.42399999
134.60001 6.8000002 0.42559999
134.60001 6.8499999 0.4224
134.60001 6.9000001 0.42879999
134.60001 6.9499998 0.41760001
134.60001 7 0.43360001
134.60001 7.0500002 0.42879999
134.60001 7.0999999 0.43279999
134.60001 7.1500001 0.43599999
134.60001 7.1999998 0.428
134.60001 7.25 0.4208
134.60001 7.3000002 0.41119999
134.60001 7.3499999 0.41280001
134.60001 7.4000001 0.40880001
134.60001 7.4499998 0.40799999
134.60001 7.5 0.3944
134.60001 7.5500002 0.38960001
134.60001 7.5999999 0.39359999
134.60001 7.6500001 0.384
134.60001 7.6999998 0.37760001
134.60001 7.75 0.39680001
134.60001 7.8000002 0.37760001
134.60001 7.8499999 0.44159999
134.60001 7.9000001 0.45919999
134.60001 7.9499998 0.40880001
134.60001 8 0.4032
134.60001 8.0500002 0.39919999
134.60001 8.1000004 0.36160001
134.60001 8.1499996 0.36880001
134.60001 8.1999998 0.38960001
134.60001 8.25 0.39359999
134.60001 8.3000002 0.396
134.60001 8.3500004 0.38640001
134.60001 8.3999996 0.37599999
134.60001 8.4499998 0.39199999
134.60001 8.5 0.41119999
134.60001 8.5500002 0.41440001
134.60001 8.6000004 0.41119999
134.60001 8.6499996 0.4296
134.60001 8.6999998 0.47119999
134.60001 8.75 0.44800001
134.60001 8.8000002 0.4016
134.60001 8.8500004 0.3784
134.60001 8.8999996 0.36320001
134.60001 8.9499998 0.3488
134.60001 9 0.33360001
134.60001 9.0500002 0.31920001
134.60001 9.1000004 0.30399999
134.60001 9.1499996 0.28960001
134.60001 9.1999998 0.2744
134.60001 9.25 0.26159999
134.60001 9.3000002 0.25600001
134.60001 9.3500004 0.25600001
134.60001 9.3999996 0.25920001
134.60001 9.4499998 0.2376
134.60001 9.5 0.22480001
134.60001 9.5500002 0.2272
134.60001 9.6000004 0.2272
134.60001 9.6499996 0.22400001
134.60001 9.6999998 0.24240001
134.60001 9.75 0.796
134.60001 9.8000002 0.81599998
134.60001 9.8500004 0.95120001
134.60001 9.8999996 0.9472
134.60001 9.9499998 0.94880003
134.60001 10 0.93839997
134.60001 10.05 0.8872
134.60001 10.1 0.84399998
134.60001 10.15 0.79040003
134.60001 10.2 0.73280001
134.60001 10.25 0.68000001
134.60001 10.3 0.63200003
134.60001 10.35 0.56239998
134.60001 10.4 0.5
134.60001 10.45 0.42399999
134.60001 10.5 0.3592
134.60001 10.55 0.27599999
134.60001 10.6 0.1864
134.60001 10.65 0.1064
134.60001 10.7 0.0264
134.60001 10.75 -0.079999998
134.60001 10.8 -0.17200001
134.8 5.6999998 0.1648
134.8 5.75 0.2024
134.8 5.8000002 0.2008
134.8 5.8499999 0.19840001
134.8 5.9000001 0.19679999
134.8 5.9499998 0.1952
134.8 6 0.1936
134.8 6.0500002 0.192
134.8 6.0999999 0.2608
134.8 6.1500001 0.29280001
134.8 6.1999998 0.29519999
134.8 6.25 0.30160001
134.8 6.3000002 0.32159999
134.8 6.3499999 0.31760001
134.8 6.4000001 0.3184
134.8 6.4499998 0.3168
134.8 6.5 0.3224
134.8 6.5500002 0.3224
134.8 6.5999999 0.32159999
134.8 6.6500001 0.33759999
134.8 6.6999998 0.3312
134.8 6.75 0.3136
134.8 6.8000002 0.324
134.8 6.8499999 0.30880001
134.8 6.9000001 0.32159999
134.8 6.9499998 0.28639999
134.8 7 0.2816
134.8 7.0500002 0.29440001
134.8 7.0999999 0.3064
134.8 7.1500001 0.3272
134.8 7.1999998 0.3152
134.8 7.25 0.28960001
134.8 7.3000002 0.264
134.8 7.3499999 0.2712
134.8 7.4000001 0.29840001
134.8 7.4499998 0.2872
134.8 7.5 0.26480001
134.8 7.5500002 0.26159999
134.8 7.5999999 0.26320001
134.8 7.6500001 0.2656
134.8 7.6999998 0.2608
134.8 7.75 0.26480001
134.8 7.8000002 0.27039999
134.8 7.8499999 0.264
134.8 7.9000001 0.252
134.8 7.9499998 0.26879999
134.8 8 0.28240001
134.8 8.0500002 0.3136
134.8 8.1000004 0.30399999
134.8 8.1499996 0.2568
134.8 8.1999998 0.2608
134.8 8.25 0.26480001
134.8 8.3000002 0.2608
134.8 8.3500004 0.25999999
134.8 8.3999996 0.25920001
134.8 8.4499998 0.2536
134.8 8.5 0.25040001
134.8 8.5500002 0.25999999
134.8 8.6000004 0.2624
134.8 8.6499996 0.2568
134.8 8.6999998 0.25999999
134.8 8.75 0.25440001
134.8 8.8000002 0.252
134.8 8.8500004 0.23999999
134.8 8.8999996 0.2568
134.8 8.9499998 0.2568
134.8 9 0.2568
134.8 9.0500002 0.25839999
134.8 9.1000004 0.26320001
134.8 9.1499996 0.25920001
134.8 9.1999998 0.2608
134.8 9.25 0.26159999
134.8 9.3000002 0.25279999
134.8 9.3500004 0.2568
134.8 9.3999996 0.2344
134.8 9.4499998 0.23280001
134.8 9.5 0.23280001
134.8 9.5500002 0.23199999
134.8 9.6000004 0.2256
134.8 9.6499996 0.2656
134.8 9.6999998 0.80320001
134.8 9.75 0.82880002
134.8 9.8000002 0.94400001
134.8 9.8500004 0.9472
134.8 9.8999996 0.95039999
134.8 9.9499998 0.93919998
134.8 10 0.88480002
134.8 10.05 0.84320003
134.8 10.1 0.7816
134.8 10.15 0.73760003
134.8 10.2 0.67439997
134.8 10.25 0.62080002
134.8 10.3 0.55040002
134.8 10.35 0.48879999
134.8 10.4 0.42480001
134.8 10.45 0.3432
134.8 10.5 0.27360001
134.8 10.55 0.17200001
134.8 10.6 0.1024
134.8 10.65 0.0016
134.8 10.7 -0.104
135 5.8000002 0.1424
135 5.8499999 0.1944
135 5.9000001 0.2168
135 5.9499998 0.20479999
135 6 0.1656
135 6.0500002 0.1664
135 6.0999999 0.23199999
135 6.1500001 0.2552
135 6.1999998 0.2608
135 6.25 0.2624
135 6.3000002 0.26719999
135 6.3499999 0.25839999
135 6.4000001 0.2624
135 6.4499998 0.25920001
135 6.5 0.25999999
135 6.5500002 0.26640001
135 6.5999999 0.2624
135 6.6500001 0.2536
135 6.6999998 0.2568
135 6.75 0.24879999
135 6.8000002 0.24160001
135 6.8499999 0.27680001
135 6.9000001 0.26719999
135 6.9499998 0.26719999
135 7 0.26480001
135 7.0500002 0.2624
135 7.0999999 0.26320001
135 7.1500001 0.26719999
135 7.1999998 0.25999999
135 7.25 0.2624
135 7.3000002 0.2624
135 7.3499999 0.2624
135 7.4000001 0.26800001
135 7.4499998 0.26320001
135 7.5 0.2552
135 7.5500002 0.2552
135 7.5999999 0.25279999
135 7.6500001 0.25760001
135 7.6999998 0.24879999
135 7.75 0.25440001
135 7.8000002 0.25440001
135 7.8499999 0.25440001
135 7.9000001 0.26159999
135 7.9499998 0.25440001
135 8 0.25440001
135 8.0500002 0.25119999
135 8.1000004 0.25040001
135 8.1499996 0.25279999
135 8.1999998 0.252
135 8.25 0.2552
135 8.3000002 0.25279999
135 8.3500004 0.25600001
135 8.3999996 0.25279999
135 8.4499998 0.252
135 8.5 0.25040001
135 8.5500002 0.2464
135 8.6000004 0.252
135 8.6499996 0.252
135 8.6999998 0.25119999
135 8.75 0.25040001
135 8.8000002 0.2448
135 8.8500004 0.252
135 8.8999996 0.24879999
135 8.9499998 0.248
135 9 0.25440001
135 9.0500002 0.25760001
135 9.1000004 0.25839999
135 9.1499996 0.25839999
135 9.1999998 0.25040001
135 9.25 0.25999999
135 9.3000002 0.36880001
135 9.3500004 0.2304
135 9.3999996 0.23280001
135 9.4499998 0.2296
135 9.5 0.2272
135 9.5500002 0.23199999
135 9.6000004 0.27599999
135 9.6499996 0.80320001
135 9.6999998 0.87599999
135 9.75 0.9472
135 9.8000002 0.95120001
135 9.8500004 0.93919998
135 9.8999996 0.91839999
135 9.9499998 0.88
135 10 0.8272
135 10.05 0.77520001
135 10.1 0.71520001
135 10.15 0.6656
135 10.2 0.60159999
135 10.25 0.55199999
135 10.3 0.47999999
135 10.35 0.4016
135 10.4 0.33039999
135 10.45 0.2472
135 10.5 0.1752
135 10.55 0.088799998
135 10.6 -0.019200001
135 10.65 -0.1304
135.2 6.0500002 0.1736
135.2 6.0999999 0.2216
135.2 6.1500001 0.25999999
135.2 6.1999998 0.25999999
135.2 6.25 0.2608
135.2 6.3000002 0.25999999
135.2 6.3499999 0.2608
135.2 6.4000001 0.2608
135.2 6.4499998 0.2536
135.2 6.5 0.26320001
135.2 6.5500002 0.2608
135.2 6.5999999 0.2568
135.2 6.6500001 0.2568
135.2 6.6999998 0.24959999
135.2 6.75 0.2536
135.2 6.8000002 0.25040001
135.2 6.8499999 0.25839999
135.2 6.9000001 0.26879999
135.2 6.9499998 0.26800001
135.2 7 0.26879999
135.2 7.0500002 0.2608
135.2 7.0999999 0.25920001
135.2 7.1500001 0.26159999
135.2 7.1999998 0.2608
135.2 7.25 0.25999999
135.2 7.3000002 0.26159999
135.2 7.3499999 0.25999999
135.2 7.4000001 0.25760001
135.2 7.4499998 0.25760001
135.2 7.5 0.25839999
135.2 7.5500002 0.24959999
135.2 7.5999999 0.25279999
135.2 7.6500001 0.25920001
135.2 7.6999998 0.25760001
135.2 7.75 0.25839999
135.2 7.8000002 0.25440001
135.2 7.8499999 0.2536
135.2 7.9000001 0.25119999
135.2 7.9499998 0.2536
135.2 8 0.24879999
135.2 8.0500002 0.24959999
135.2 8.1000004 0.2432
135.2 8.1499996 0.25440001
135.2 8.1999998 0.25279999
135.2 8.25 0.2552
135.2 8.3000002 0.2536
135.2 8.3500004 0.252
135.2 8.3999996 0.2536
135.2 8.4499998 0.25600001
135.2 8.5 0.252
135.2 8.5500002 0.25440001
135.2 8.6000004 0.248
135.2 8.6499996 0.248
135.2 8.6999998 0.25040001
135.2 8.75 0.2536
135.2 8.8000002 0.2472
135.2 8.8500004 0.2472
135.2 8.8999996 0.25279999
135.2 8.9499998 0.2536
135.2 9 0.248
135.2 9.0500002 0.25440001
135.2 9.1000004 0.26480001
135.2 9.1499996 0.25920001
135.2 9.1999998 0.2536
135.2 9.25 0.24959999
135.2 9.3000002 0.2304
135.2 9.3500004 0.236
135.2 9.3999996 0.24160001
135.2 9.4499998 0.2288
135.2 9.5 0.26719999
135.2 9.5500002 0.77200001
135.2 9.6000004 0.8136
135.2 9.6499996 0.95599997
135.2 9.6999998 0.94959998
135.2 9.75 0.94800001
135.2 9.8000002 0.93919998
135.2 9.8500004 0.912
135.2 9.8999996 0.86320001
135.2 9.9499998 0.8096
135.2 10 0.75999999
135.2 10.05 0.70880002
135.2 10.1 0.64960003
135.2 10.15 0.5848
135.2 10.2 0.52719998
135.2 10.25 0.46000001
135.2 10.3 0.38640001
135.2 10.35 0.30239999
135.2 10.4 0.2264
135.2 10.45 0.1432
135.2 10.5 0.062399998
135.39999 6.0500002 0.17039999
135.39999 6.0999999 0.2288
135.39999 6.1500001 0.2568
135.39999 6.1999998 0.25040001
135.39999 6.25 0.2608
135.39999 6.3000002 0.26159999
135.39999 6.3499999 0.264
135.39999 6.4000001 0.26320001
135.39999 6.4499998 0.25920001
135.39999 6.5 0.25600001
135.39999 6.5500002 0.2568
135.39999 6.5999999 0.25839999
135.39999 6.6500001 0.2568
135.39999 6.6999998 0.2536
135.39999 6.75 0.2568
135.39999 6.8000002 0.25040001
135.39999 6.8499999 0.25119999
135.39999 6.9000001 0.264
135.39999 6.9499998 0.26640001
135.39999 7 0.26480001
135.39999 7.0500002 0.2608
135.39999 7.0999999 0.2608
135.39999 7.1500001 0.2552
135.39999 7.1999998 0.2624
135.39999 7.25 0.25920001
135.39999 7.3000002 0.2568
135.39999 7.3499999 0.25999999
135.39999 7.4000001 0.25920001
135.39999 7.4499998 0.25839999
135.39999 7.5 0.25920001
135.39999 7.5500002 0.26159999
135.39999 7.5999999 0.2568
135.39999 7.6500001 0.2568
135.39999 7.6999998 0.25279999
135.39999 7.75 0.252
135.39999 7.8000002 0.25839999
135.39999 7.8499999 0.2552
135.39999 7.9000001 0.25279999
135.39999 7.9499998 0.25760001
135.39999 8 0.2536
135.39999 8.0500002 0.2568
135.39999 8.1000004 0.25040001
135.39999 8.1499996 0.25600001
135.39999 8.1999998 0.252
135.39999 8.25 0.2552
135.39999 8.3000002 0.25040001
135.39999 8.3500004 0.24879999
135.39999 8.3999996 0.25040001
135.39999 8.4499998 0.2536
135.39999 8.5 0.25040001
135.39999 8.5500002 0.25040001
135.39999 8.6000004 0.25119999
135.39999 8.6499996 0.25440001
135.39999 8.6999998 0.248
135.39999 8.75 0.252
135.39999 8.8000002 0.252
135.39999 8.8500004 0.25440001
135.39999 8.8999996 0.24879999
135.39999 8.9499998 0.25440001
135.39999 9 0.25119999
135.39999 9.0500002 0.26159999
135.39999 9.1000004 0.25839999
135.39999 9.1499996 0.252
135.39999 9.1999998 0.2368
135.39999 9.25 0.23280001
135.39999 9.3000002 0.2376
135.39999 9.3500004 0.23199999
135.39999 9.3999996 0.228
135.39999 9.4499998 0.27039999
135.39999 9.5 0.80720001
135.39999 9.5500002 0.83039999
135.39999 9.6000004 0.95039999
135.39999 9.6499996 0.94959998
135.39999 9.6999998 0.94400001
135.39999 9.75 0.92799997
135.39999 9.8000002 0.884
135.39999 9.8500004 0.8344
135.39999 9.8999996 0.79680002
135.39999 9.9499998 0.73839998
135.39999 10 0.68480003
135.39999 10.05 0.62159997
135.39999 10.1 0.5704
135.39999 10.15 0.50880003
135.39999 10.2 0.428
135.39999 10.25 0.36000001
135.39999 10.3 0.2888
135.39999 10.35 0.1928
135.39999 10.4 0.12720001
135.39999 10.45 0.0392
135.60001 6.0500002 0.1664
135.60001 6.0999999 0.21359999
135.60001 6.1500001 0.25999999
135.60001 6.1999998 0.25440001
135.60001 6.25 0.2624
135.60001 6.3000002 0.25440001
135.60001 6.3499999 0.25279999
135.60001 6.4000001 0.2608
135.60001 6.4499998 0.26480001
135.60001 6.5 0.2608
135.60001 6.5500002 0.25999999
135.60001 6.5999999 0.25839999
135.60001 6.6500001 0.25600001
135.60001 6.6999998 0.25999999
135.60001 6.75 0.2536
135.60001 6.8000002 0.25760001
135.60001 6.8499999 0.24959999
135.60001 6.9000001 0.24879999
135.60001 6.9499998 0.2552
135.60001 7 0.26800001
135.60001 7.0500002 0.25999999
135.60001 7.0999999 0.25839999
135.60001 7.1500001 0.25999999
135.60001 7.1999998 0.25760001
135.60001 7.25 0.25920001
135.60001 7.3000002 0.2624
135.60001 7.3499999 0.25600001
135.60001 7.4000001 0.25760001
135.60001 7.4499998 0.2568
135.60001 7.5 0.25760001
135.60001 7.5500002 0.25999999
135.60001 7.5999999 0.25279999
135.60001 7.6500001 0.25839999
135.60001 7.6999998 0.2608
135.60001 7.75 0.25600001
135.60001 7.8000002 0.2608
135.60001 7.8499999 0.2568
135.60001 7.9000001 0.2536
135.60001 7.9499998 0.25040001
135.60001 8 0.252
135.60001 8.0500002 0.25279999
135.60001 8.1000004 0.25440001
135.60001 8.1499996 0.252
135.60001 8.1999998 0.25440001
135.60001 8.25 0.2536
135.60001 8.3000002 0.2536
135.60001 8.3500004 0.24879999
135.60001 8.3999996 0.252
135.60001 8.4499998 0.25440001
135.60001 8.5 0.25600001
135.60001 8.5500002 0.2552
135.60001 8.6000004 0.2568
135.60001 8.6499996 0.252
135.60001 8.6999998 0.2568
135.60001 8.75 0.25839999
135.60001 8.8000002 0.2568
135.60001 8.8500004 0.25600001
135.60001 8.8999996 0.25040001
135.60001 8.9499998 0.25839999
135.60001 9 0.25920001
135.60001 9.0500002 0.2568
135.60001 9.1000004 0.24079999
135.60001 9.1499996 0.2304
135.60001 9.1999998 0.23280001
135.60001 9.25 0.23119999
135.60001 9.3000002 0.2192
135.60001 9.3500004 0.26480001
135.60001 9.3999996 0.60399997
135.60001 9.4499998 0.81519997
135.60001 9.5 0.9544
135.60001 9.5500002 0.94959998
135.60001 9.6000004 0.94639999
135.60001 9.6499996 0.94400001
135.60001 9.6999998 0.90399998
135.60001 9.75 0.86320001
135.60001 9.8000002 0.81040001
135.60001 9.8500004 0.76639998
135.60001 9.8999996 0.70639998
135.60001 9.9499998 0.65439999
135.60001 10 0.59680003
135.60001 10.05 0.53039998
135.60001 10.1 0.47279999
135.60001 10.15 0.39840001
135.60001 10.2 0.324
135.60001 10.25 0.264
135.60001 10.3 0.184
135.60001 10.35 0.080799997
135.60001 10.4 -0.0040000002
135.8 6.0500002 0.168
135.8 6.0999999 0.22
135.8 6.1500001 0.25839999
135.8 6.1999998 0.26159999
135.8 6.25 0.26320001
135.8 6.3000002 0.26159999
135.8 6.3499999 0.25999999
135.8 6.4000001 0.264
135.8 6.4499998 0.26320001
135.8 6.5 0.2608
135.8 6.5500002 0.2608
135.8 6.5999999 0.25760001
135.8 6.6500001 0.25600001
135.8 6.6999998 0.25600001
135.8 6.75 0.25440001
135.8 6.8000002 0.25040001
135.8 6.8499999 0.26159999
135.8 6.9000001 0.252
135.8 6.9499998 0.24879999
135.8 7 0.25279999
135.8 7.0500002 0.2448
135.8 7.0999999 0.2624
135.8 7.1500001 0.2568
135.8 7.1999998 0.25920001
135.8 7.25 0.26159999
135.8 7.3000002 0.25760001
135.8 7.3499999 0.25760001
135.8 7.4000001 0.25839999
135.8 7.4499998 0.26320001
135.8 7.5 0.2608
135.8 7.5500002 0.2568
135.8 7.5999999 0.2552
135.8 7.6500001 0.2608
135.8 7.6999998 0.2568
135.8 7.75 0.2552
135.8 7.8000002 0.25279999
135.8 7.8499999 0.2536
135.8 7.9000001 0.2536
135.8 7.9499998 0.25600001
135.8 8 0.25279999
135.8 8.0500002 0.24879999
135.8 8.1000004 0.25279999
135.8 8.1499996 0.25279999
135.8 8.1999998 0.25999999
135.8 8.25 0.252
135.8 8.3000002 0.25600001
135.8 8.3500004 0.25440001
135.8 8.3999996 0.2552
135.8 8.4499998 0.2536
135.8 8.5 0.25600001
135.8 8.5500002 0.2536
135.8 8.6000004 0.26159999
135.8 8.6499996 0.25839999
135.8 8.6999998 0.25839999
135.8 8.75 0.2608
135.8 8.8000002 0.25440001
135.8 8.8500004 0.25279999
135.8 8.8999996 0.25999999
135.8 8.9499998 0.24959999
135.8 9 0.2296
135.8 9.0500002 0.236
135.8 9.1000004 0.2304
135.8 9.1499996 0.24160001
135.8 9.1999998 0.22239999
135.8 9.25 0.24959999
135.8 9.3000002 0.30239999
135.8 9.3500004 0.8136
135.8 9.3999996 0.93199998
135.8 9.4499998 0.94959998
135.8 9.5 0.95200002
135.8 9.5500002 0.94239998
135.8 9.6000004 0.93440002
135.8 9.6499996 0.8768
135.8 9.6999998 0.82319999
135.8 9.75 0.78079998
135.8 9.8000002 0.71759999
135.8 9.8500004 0.68080002
135.8 9.8999996 0.61040002
135.8 9.9499998 0.56
135.8 10 0.50480002
135.8 10.05 0.43279999
135.8 10.1 0.36480001
135.8 10.15 0.2888
135.8 10.2 0.2176
135.8 10.25 0.1192
135.8 10.3 0.042399999
136 6.0500002 0.1568
136 6.0999999 0.2216
136 6.1500001 0.25999999
136 6.1999998 0.25839999
136 6.25 0.25999999
136 6.3000002 0.25999999
136 6.3499999 0.26320001
136 6.4000001 0.2608
136 6.4499998 0.25839999
136 6.5 0.25760001
136 6.5500002 0.25999999
136 6.5999999 0.25999999
136 6.6500001 0.25839999
136 6.6999998 0.24959999
136 6.75 0.2536
136 6.8000002 0.25119999
136 6.8499999 0.25999999
136 6.9000001 0.25040001
136 6.9499998 0.25440001
136 7 0.2536
136 7.0500002 0.25279999
136 7.0999999 0.252
136 7.1500001 0.244
136 7.1999998 0.24879999
136 7.25 0.248
136 7.3000002 0.252
136 7.3499999 0.26159999
136 7.4000001 0.26320001
136 7.4499998 0.2608
136 7.5 0.2608
136 7.5500002 0.25920001
136 7.5999999 0.26159999
136 7.6500001 0.2608
136 7.6999998 0.25999999
136 7.75 0.25999999
136 7.8000002 0.25920001
136 7.8499999 0.25920001
136 7.9000001 0.25839999
136 7.9499998 0.2568
136 8 0.2568
136 8.0500002 0.2552
136 8.1000004 0.25920001
136 8.1499996 0.2608
136 8.1999998 0.25279999
136 8.25 0.25440001
136 8.3000002 0.2552
136 8.3500004 0.25760001
136 8.3999996 0.2568
136 8.4499998 0.24959999
136 8.5 0.2536
136 8.5500002 0.26480001
136 8.6000004 0.264
136 8.6499996 0.25839999
136 8.6999998 0.25119999
136 8.75 0.2344
136 8.8000002 0.23119999
136 8.8500004 0.2368
136 8.8999996 0.23280001
136 8.9499998 0.23999999
136 9 0.24079999
136 9.0500002 0.23999999
136 9.1000004 0.22400001
136 9.1499996 0.23999999
136 9.1999998 0.308
136 9.25 0.81599998
136 9.3000002 0.83039999
136 9.3500004 0.95120001
136 9.3999996 0.95279998
136 9.4499998 0.9544
136 9.5 0.94400001
136 9.5500002 0.89999998
136 9.6000004 0.84640002
136 9.6499996 0.80080003
136 9.6999998 0.75999999
136 9.75 0.704
136 9.8000002 0.63679999
136 9.8500004 0.57120001
136 9.8999996 0.51599997
136 9.9499998 0.4472
136 10 0.384
136 10.05 0.31760001
136 10.1 0.23999999
136 10.15 0.16320001
136 10.2 0.067199998
136.2 6.0999999 0.2288
136.2 6.1500001 0.25839999
136.2 6.1999998 0.2608
136.2 6.25 0.25920001
136.2 6.3000002 0.26159999
136.2 6.3499999 0.25920001
136.2 6.4000001 0.25999999
136.2 6.4499998 0.2608
136.2 6.5 0.2608
136.2 6.5500002 0.2608
136.2 6.5999999 0.25600001
136.2 6.6500001 0.25999999
136.2 6.6999998 0.2536
136.2 6.75 0.2536
136.2 6.8000002 0.2536
136.2 6.8499999 0.248
136.2 6.9000001 0.252
136.2 6.9499998 0.24879999
136.2 7 0.25760001
136.2 7.0500002 0.25440001
136.2 7.0999999 0.244
136.2 7.1500001 0.25440001
136.2 7.1999998 0.2472
136.2 7.25 0.2472
136.2 7.3000002 0.2464
136.2 7.3499999 0.244
136.2 7.4000001 0.24160001
136.2 7.4499998 0.2376
136.2 7.5 0.2392
136.2 7.5500002 0.244
136.2 7.5999999 0.2368
136.2 7.6500001 0.2304
136.2 7.6999998 0.23999999
136.2 7.75 0.24240001
136.2 7.8000002 0.23999999
136.2 7.8499999 0.24160001
136.2 7.9000001 0.2384
136.2 7.9499998 0.2288
136.2 8 0.22480001
136.2 8.0500002 0.23199999
136.2 8.1000004 0.228
136.2 8.1499996 0.22
136.2 8.1999998 0.23199999
136.2 8.25 0.2352
136.2 8.3000002 0.2288
136.2 8.3500004 0.23119999
136.2 8.3999996 0.23280001
136.2 8.4499998 0.2352
136.2 8.5 0.23119999
136.2 8.5500002 0.236
136.2 8.6000004 0.2384
136.2 8.6499996 0.236
136.2 8.6999998 0.248
136.2 8.75 0.24879999
136.2 8.8000002 0.2392
136.2 8.8500004 0.2448
136.2 8.8999996 0.2464
136.2 8.9499998 0.23999999
136.2 9 0.2264
136.2 9.0500002 0.22400001
136.2 9.1000004 0.32080001
136.2 9.1499996 0.81919998
136.2 9.1999998 0.82959998
136.2 9.25 0.95279998
136.2 9.3000002 0.95920002
136.2 9.3500004 0.95679998
136.2 9.3999996 0.93839997
136.2 9.4499998 0.91039997
136.2 9.5 0.85360003
136.2 9.5500002 0.81599998
136.2 9.6000004 0.75040001
136.2 9.6499996 0.69760001
136.2 9.6999998 0.64160001
136.2 9.75 0.59359998
136.2 9.8000002 0.52880001
136.2 9.8500004 0.46880001
136.2 9.8999996 0.40959999
136.2 9.9499998 0.3344
136.2 10 0.2624
136.2 10.05 0.18080001
136.2 10.1 0.104
136.2 10.15 0.0088
136.2 10.2 -0.1024
136.2 10.25 -0.25279999
136.2 10.3 -0.40400001
136.2 10.35 -0.55360001
136.2 10.4 -0.704
136.2 10.45 -0.85439998
136.2 10.5 -1.0048
136.39999 6.0999999 0.2168
136.39999 6.1500001 0.26159999
136.39999 6.1999998 0.25839999
136.39999 6.25 0.2568
136.39999 6.3000002 0.25999999
136.39999 6.3499999 0.2568
136.39999 6.4000001 0.2552
136.39999 6.4499998 0.2608
136.39999 6.5 0.25999999
136.39999 6.5500002 0.26159999
136.39999 6.5999999 0.25760001
136.39999 6.6500001 0.25839999
136.39999 6.6999998 0.25279999
136.39999 6.75 0.2536
136.39999 6.8000002 0.248
136.39999 6.8499999 0.2464
136.39999 6.9000001 0.252
136.39999 6.9499998 0.24879999
136.39999 7 0.25279999
136.39999 7.0500002 0.25279999
136.39999 7.0999999 0.25040001
136.39999 7.1500001 0.25119999
136.39999 7.1999998 0.2456
136.39999 7.25 0.23999999
136.39999 7.3000002 0.244
136.39999 7.3499999 0.24240001
136.39999 7.4000001 0.25040001
136.39999 7.4499998 0.24240001
136.39999 7.5 0.2432
136.39999 7.5500002 0.2448
136.39999 7.5999999 0.2464
136.39999 7.6500001 0.2472
136.39999 7.6999998 0.24240001
136.39999 7.75 0.24079999
136.39999 7.8000002 0.2464
136.39999 7.8499999 0.2448
136.39999 7.9000001 0.2456
136.39999 7.9499998 0.23999999
136.39999 8 0.24160001
136.39999 8.0500002 0.24079999
136.39999 8.1000004 0.2392
136.39999 8.1499996 0.2368
136.39999 8.1999998 0.24079999
136.39999 8.25 0.24079999
136.39999 8.3000002 0.2376
136.39999 8.3500004 0.2368
136.39999 8.3999996 0.2368
136.39999 8.4499998 0.24160001
136.39999 8.5 0.23999999
136.39999 8.5500002 0.244
136.39999 8.6000004 0.2472
136.39999 8.6499996 0.2464
136.39999 8.6999998 0.2448
136.39999 8.75 0.25040001
136.39999 8.8000002 0.248
136.39999 8.8500004 0.24959999
136.39999 8.8999996 0.23119999
136.39999 8.9499998 0.2464
136.39999 9 0.3272
136.39999 9.0500002 0.81440002
136.39999 9.1000004 0.824
136.39999 9.1499996 0.9544
136.39999 9.1999998 0.95599997
136.39999 9.25 0.9544
136.39999 9.3000002 0.94639999
136.39999 9.3500004 0.91119999
136.39999 9.3999996 0.85039997
136.39999 9.4499998 0.80479997
136.39999 9.5 0.75999999
136.39999 9.5500002 0.71039999
136.39999 9.6000004 0.6584
136.39999 9.6499996 0.59359998
136.39999 9.6999998 0.53280002
136.39999 9.75 0.47600001
136.39999 9.8000002 0.41280001
136.39999 9.8500004 0.33919999
136.39999 9.8999996 0.27759999
136.39999 9.9499998 0.21439999
136.39999 10 0.1208
136.39999 10.05 0.0096000005
136.60001 6.0999999 0.25279999
136.60001 6.1500001 0.2536
136.60001 6.1999998 0.2552
136.60001 6.25 0.25440001
136.60001 6.3000002 0.26159999
136.60001 6.3499999 0.2608
136.60001 6.4000001 0.25839999
136.60001 6.4499998 0.25839999
136.60001 6.5 0.25600001
136.60001 6.5500002 0.2568
136.60001 6.5999999 0.25760001
136.60001 6.6500001 0.25839999
136.60001 6.6999998 0.25600001
136.60001 6.75 0.25119999
136.60001 6.8000002 0.25040001
136.60001 6.8499999 0.25279999
136.60001 6.9000001 0.25119999
136.60001 6.9499998 0.25119999
136.60001 7 0.25600001
136.60001 7.0500002 0.25119999
136.60001 7.0999999 0.2472
136.60001 7.1500001 0.24959999
136.60001 7.1999998 0.252
136.60001 7.25 0.24079999
136.60001 7.3000002 0.25040001
136.60001 7.3499999 0.25040001
136.60001 7.4000001 0.24879999
136.60001 7.4499998 0.2464
136.60001 7.5 0.2432
136.60001 7.5500002 0.2448
136.60001 7.5999999 0.24879999
136.60001 7.6500001 0.2464
136.60001 7.6999998 0.24879999
136.60001 7.75 0.2456
136.60001 7.8000002 0.24160001
136.60001 7.8499999 0.2456
136.60001 7.9000001 0.2472
136.60001 7.9499998 0.2432
136.60001 8 0.24959999
136.60001 8.0500002 0.2376
136.60001 8.1000004 0.2456
136.60001 8.1499996 0.248
136.60001 8.1999998 0.2376
136.60001 8.25 0.248
136.60001 8.3000002 0.25040001
136.60001 8.3500004 0.2456
136.60001 8.3999996 0.25279999
136.60001 8.4499998 0.2536
136.60001 8.5 0.2472
136.60001 8.5500002 0.25600001
136.60001 8.6000004 0.25279999
136.60001 8.6499996 0.24879999
136.60001 8.6999998 0.25440001
136.60001 8.75 0.24879999
136.60001 8.8000002 0.2288
136.60001 8.8500004 0.292
136.60001 8.8999996 0.38640001
136.60001 8.9499998 0.81199998
136.60001 9 0.94800001
136.60001 9.0500002 0.95359999
136.60001 9.1000004 0.95679998
136.60001 9.1499996 0.94959998
136.60001 9.1999998 0.93199998
136.60001 9.25 0.88639998
136.60001 9.3000002 0.84799999
136.60001 9.3500004 0.80479997
136.60001 9.3999996 0.74800003
136.60001 9.4499998 0.70319998
136.60001 9.5 0.6584
136.60001 9.5500002 0.59280002
136.60001 9.6000004 0.53680003
136.60001 9.6499996 0.47279999
136.60001 9.6999998 0.41679999
136.60001 9.75 0.34240001
136.60001 9.8000002 0.27200001
136.60001 9.8500004 0.20640001
136.60001 9.8999996 0.1104
136.8 6.0999999 0.24079999
136.8 6.1500001 0.25600001
136.8 6.1999998 0.25440001
136.8 6.25 0.25999999
136.8 6.3000002 0.264
136.8 6.3499999 0.25600001
136.8 6.4000001 0.25999999
136.8 6.4499998 0.2536
136.8 6.5 0.2568
136.8 6.5500002 0.25440001
136.8 6.5999999 0.2552
136.8 6.6500001 0.2568
136.8 6.6999998 0.25760001
136.8 6.75 0.25440001
136.8 6.8000002 0.25440001
136.8 6.8499999 0.252
136.8 6.9000001 0.252
136.8 6.9499998 0.252
136.8 7 0.252
136.8 7.0500002 0.24959999
136.8 7.0999999 0.2448
136.8 7.1500001 0.248
136.8 7.1999998 0.24879999
136.8 7.25 0.244
136.8 7.3000002 0.248
136.8 7.3499999 0.2464
136.8 7.4000001 0.2456
136.8 7.4499998 0.2464
136.8 7.5 0.244
136.8 7.5500002 0.244
136.8 7.5999999 0.24879999
136.8 7.6500001 0.24959999
136.8 7.6999998 0.2432
136.8 7.75 0.24959999
136.8 7.8000002 0.2472
136.8 7.8499999 0.244
136.8 7.9000001 0.248
136.8 7.9499998 0.2392
136.8 8 0.2456
136.8 8.0500002 0.2432
136.8 8.1000004 0.2472
136.8 8.1499996 0.244
136.8 8.1999998 0.24959999
136.8 8.25 0.2448
136.8 8.3000002 0.25040001
136.8 8.3500004 0.252
136.8 8.3999996 0.25279999
136.8 8.4499998 0.252
136.8 8.5 0.25119999
136.8 8.5500002 0.25279999
136.8 8.6000004 0.2536
136.8 8.6499996 0.2376
136.8 8.6999998 0.2256
136.8 8.75 0.33759999
136.8 8.8000002 0.81279999
136.8 8.8500004 0.82560003
136.8 8.8999996 0.95840001
136.8 8.9499998 0.95999998
136.8 9 0.95679998
136.8 9.0500002 0.9472
136.8 9.1000004 0.90799999
136.8 9.1499996 0.88959998
136.8 9.1999998 0.8416
136.8 9.25 0.78960001
136.8 9.3000002 0.7464
136.8 9.3500004 0.70719999
136.8 9.3999996 0.64160001
136.8 9.4499998 0.58240002
136.8 9.5 0.53359997
136.8 9.5500002 0.4664
136.8 9.6000004 0.41119999
136.8 9.6499996 0.3448
136.8 9.6999998 0.2904
136.8 9.75 0.1776
136.8 9.8000002 0.1216
137 6.0500002 0.23199999
137 6.0999999 0.2472
137 6.1500001 0.2608
137 6.1999998 0.25760001
137 6.25 0.25999999
137 6.3000002 0.2568
137 6.3499999 0.25600001
137 6.4000001 0.2568
137 6.4499998 0.25920001
137 6.5 0.25920001
137 6.5500002 0.25839999
137 6.5999999 0.25760001
137 6.6500001 0.25600001
137 6.6999998 0.252
137 6.75 0.25920001
137 6.8000002 0.25760001
137 6.8499999 0.2552
137 6.9000001 0.25440001
137 6.9499998 0.25920001
137 7 0.25839999
137 7.0500002 0.25279999
137 7.0999999 0.24879999
137 7.1500001 0.25119999
137 7.1999998 0.2472
137 7.25 0.252
137 7.3000002 0.2472
137 7.3499999 0.2536
137 7.4000001 0.24879999
137 7.4499998 0.25119999
137 7.5 0.24879999
137 7.5500002 0.24879999
137 7.5999999 0.252
137 7.6500001 0.25040001
137 7.6999998 0.24959999
137 7.75 0.25119999
137 7.8000002 0.2432
137 7.8499999 0.2472
137 7.9000001 0.24879999
137 7.9499998 0.24959999
137 8 0.25440001
137 8.0500002 0.25279999
137 8.1000004 0.25279999
137 8.1499996 0.25600001
137 8.1999998 0.24879999
137 8.25 0.2552
137 8.3000002 0.25600001
137 8.3500004 0.2568
137 8.3999996 0.25440001
137 8.4499998 0.25839999
137 8.5 0.25040001
137 8.5500002 0.23280001
137 8.6000004 0.23199999
137 8.6499996 0.81840003
137 8.6999998 0.81519997
137 8.75 0.88559997
137 8.8000002 0.96399999
137 8.8500004 0.96240002
137 8.8999996 0.95840001
137 8.9499998 0.93839997
137 9 0.90960002
137 9.0500002 0.87519997
137 9.1000004 0.82639998
137 9.1499996 0.78079998
137 9.1999998 0.73040003
137 9.25 0.67839998
137 9.3000002 0.62400001
137 9.3500004 0.57359999
137 9.3999996 0.50480002
137 9.4499998 0.44400001
137 9.5 0.384
137 9.5500002 0.31999999
137 9.6000004 0.2472
137.2 6 0.2216
137.2 6.0500002 0.252
137.2 6.0999999 0.25839999
137.2 6.1500001 0.25839999
137.2 6.1999998 0.25839999
137.2 6.25 0.25839999
137.2 6.3000002 0.25760001
137.2 6.3499999 0.26480001
137.2 6.4000001 0.2552
137.2 6.4499998 0.2568
137.2 6.5 0.26480001
137.2 6.5500002 0.26320001
137.2 6.5999999 0.264
137.2 6.6500001 0.25920001
137.2 6.6999998 0.25920001
137.2 6.75 0.2536
137.2 6.8000002 0.25760001
137.2 6.8499999 0.25440001
137.2 6.9000001 0.2552
137.2 6.9499998 0.252
137.2 7 0.25279999
137.2 7.0500002 0.25040001
137.2 7.0999999 0.2552
137.2 7.1500001 0.24959999
137.2 7.1999998 0.24959999
137.2 7.25 0.248
137.2 7.3000002 0.24959999
137.2 7.3499999 0.25279999
137.2 7.4000001 0.252
137.2 7.4499998 0.25760001
137.2 7.5 0.25600001
137.2 7.5500002 0.2448
137.2 7.5999999 0.2552
137.2 7.6500001 0.25040001
137.2 7.6999998 0.25999999
137.2 7.75 0.252
137.2 7.8000002 0.2552
137.2 7.8499999 0.2552
137.2 7.9000001 0.25920001
137.2 7.9499998 0.25119999
137.2 8 0.24959999
137.2 8.0500002 0.25440001
137.2 8.1000004 0.2552
137.2 8.1499996 0.26320001
137.2 8.1999998 0.2608
137.2 8.25 0.25600001
137.2 8.3000002 0.2568
137.2 8.3500004 0.25119999
137.2 8.3999996 0.2376
137.2 8.4499998 0.28400001
137.2 8.5 0.39359999
137.2 8.5500002 0.82239997
137.2 8.6000004 0.83679998
137.2 8.6499996 0.96719998
137.2 8.6999998 0.96160001
137.2 8.75 0.96319997
137.2 8.8000002 0.95200002
137.2 8.8500004 0.92079997
137.2 8.8999996 0.87840003
137.2 8.9499998 0.84640002
137.2 9 0.81040001
137.2 9.0500002 0.74400002
137.2 9.1000004 0.70639998
137.2 9.1499996 0.66159999
137.2 9.1999998 0.60000002
137.2 9.25 0.54640001
137.2 9.3000002 0.4808
137.2 9.3500004 0.41600001
137.2 9.3999996 0.37040001
137.2 9.4499998 0.28960001
137.2 9.5 0.2088
137.39999 5.9499998 0.21520001
137.39999 6 0.25839999
137.39999 6.0500002 0.25920001
137.39999 6.0999999 0.25999999
137.39999 6.1500001 0.25999999
137.39999 6.1999998 0.2568
137.39999 6.25 0.25920001
137.39999 6.3000002 0.25760001
137.39999 6.3499999 0.25999999
137.39999 6.4000001 0.25440001
137.39999 6.4499998 0.25600001
137.39999 6.5 0.26320001
137.39999 6.5500002 0.25999999
137.39999 6.5999999 0.25600001
137.39999 6.6500001 0.25839999
137.39999 6.6999998 0.25600001
137.39999 6.75 0.2568
137.39999 6.8000002 0.2568
137.39999 6.8499999 0.25839999
137.39999 6.9000001 0.252
137.39999 6.9499998 0.25440001
137.39999 7 0.25440001
137.39999 7.0500002 0.2536
137.39999 7.0999999 0.25440001
137.39999 7.1500001 0.252
137.39999 7.1999998 0.252
137.39999 7.25 0.25040001
137.39999 7.3000002 0.2552
137.39999 7.3499999 0.248
137.39999 7.4000001 0.2552
137.39999 7.4499998 0.25760001
137.39999 7.5 0.2568
137.39999 7.5500002 0.25279999
137.39999 7.5999999 0.25440001
137.39999 7.6500001 0.25600001
137.39999 7.6999998 0.2568
137.39999 7.75 0.2552
137.39999 7.8000002 0.2568
137.39999 7.8499999 0.25920001
137.39999 7.9000001 0.25440001
137.39999 7.9499998 0.25279999
137.39999 8 0.24959999
137.39999 8.0500002 0.25839999
137.39999 8.1000004 0.25920001
137.39999 8.1499996 0.2568
137.39999 8.1999998 0.2552
137.39999 8.25 0.2376
137.39999 8.3000002 0.2296
137.39999 8.3500004 0.36480001
137.39999 8.3999996 0.82160002
137.39999 8.4499998 0.82880002
137.39999 8.5 0.97280002
137.39999 8.5500002 0.97039998
137.39999 8.6000004 0.96160001
137.39999 8.6499996 0.95840001
137.39999 8.6999998 0.94
137.39999 8.75 0.9016
137.39999 8.8000002 0.8592
137.39999 8.8500004 0.81999999
137.39999 8.8999996 0.7744
137.39999 8.9499998 0.71679997
137.39999 9 0.67760003
137.39999 9.0500002 0.61360002
137.39999 9.1000004 0.56800002
137.39999 9.1499996 0.51679999
137.39999 9.1999998 0.45519999
137.39999 9.25 0.39359999
137.39999 9.3000002 0.3152
137.39999 9.3500004 0.25279999
137.39999 9.3999996 0.1944
137.60001 5.9000001 0.2304
137.60001 5.9499998 0.2568
137.60001 6 0.2624
137.60001 6.0500002 0.25920001
137.60001 6.0999999 0.2608
137.60001 6.1500001 0.25920001
137.60001 6.1999998 0.264
137.60001 6.25 0.25999999
137.60001 6.3000002 0.264
137.60001 6.3499999 0.26159999
137.60001 6.4000001 0.25600001
137.60001 6.4499998 0.25440001
137.60001 6.5 0.25440001
137.60001 6.5500002 0.2568
137.60001 6.5999999 0.25920001
137.60001 6.6500001 0.2568
137.60001 6.6999998 0.25839999
137.60001 6.75 0.25040001
137.60001 6.8000002 0.25920001
137.60001 6.8499999 0.25999999
137.60001 6.9000001 0.25440001
137.60001 6.9499998 0.24959999
137.60001 7 0.25440001
137.60001 7.0500002 0.25760001
137.60001 7.0999999 0.2472
137.60001 7.1500001 0.2608
137.60001 7.1999998 0.25040001
137.60001 7.25 0.2472
137.60001 7.3000002 0.2568
137.60001 7.3499999 0.25279999
137.60001 7.4000001 0.25440001
137.60001 7.4499998 0.2552
137.60001 7.5 0.264
137.60001 7.5500002 0.25920001
137.60001 7.5999999 0.25760001
137.60001 7.6500001 0.25920001
137.60001 7.6999998 0.26159999
137.60001 7.75 0.25839999
137.60001 7.8000002 0.26320001
137.60001 7.8499999 0.26159999
137.60001 7.9000001 0.25760001
137.60001 7.9499998 0.2624
137.60001 8 0.26159999
137.60001 8.0500002 0.2608
137.60001 8.1000004 0.2344
137.60001 8.1499996 0.27520001
137.60001 8.1999998 0.68239999
137.60001 8.25 0.82480001
137.60001 8.3000002 0.83279997
137.60001 8.3500004 0.96880001
137.60001 8.3999996 0.97600001
137.60001 8.4499998 0.96079999
137.60001 8.5 0.9576
137.60001 8.5500002 0.9368
137.60001 8.6000004 0.90799999
137.60001 8.6499996 0.86080003
137.60001 8.6999998 0.81999999
137.60001 8.75 0.7816
137.60001 8.8000002 0.736
137.60001 8.8500004 0.68559998
137.60001 8.8999996 0.63679999
137.60001 8.9499998 0.57359999
137.60001 9 0.53039998
137.60001 9.0500002 0.4632
137.60001 9.1000004 0.41280001
137.60001 9.1499996 0.3608
137.60001 9.1999998 0.28560001
137.8 5.8000002 0.2352
137.8 5.8499999 0.26320001
137.8 5.9000001 0.2624
137.8 5.9499998 0.26480001
137.8 6 0.26719999
137.8 6.0500002 0.2624
137.8 6.0999999 0.25999999
137.8 6.1500001 0.26640001
137.8 6.1999998 0.26480001
137.8 6.25 0.26480001
137.8 6.3000002 0.26320001
137.8 6.3499999 0.264
137.8 6.4000001 0.2608
137.8 6.4499998 0.2568
137.8 6.5 0.2624
137.8 6.5500002 0.26159999
137.8 6.5999999 0.25839999
137.8 6.6500001 0.26159999
137.8 6.6999998 0.26159999
137.8 6.75 0.25760001
137.8 6.8000002 0.25920001
137.8 6.8499999 0.25600001
137.8 6.9000001 0.2568
137.8 6.9499998 0.25839999
137.8 7 0.2568
137.8 7.0500002 0.264
137.8 7.0999999 0.2552
137.8 7.1500001 0.25440001
137.8 7.1999998 0.2608
137.8 7.25 0.252
137.8 7.3000002 0.25839999
137.8 7.3499999 0.2536
137.8 7.4000001 0.2552
137.8 7.4499998 0.25839999
137.8 7.5 0.25440001
137.8 7.5500002 0.2608
137.8 7.5999999 0.2624
137.8 7.6500001 0.264
137.8 7.6999998 0.26480001
137.8 7.75 0.2624
137.8 7.8000002 0.26480001
137.8 7.8499999 0.2656
137.8 7.9000001 0.2608
137.8 7.9499998 0.2208
137.8 8 0.21520001
137.8 8.0500002 0.80320001
137.8 8.1000004 0.83200002
137.8 8.1499996 0.84799999
137.8 8.1999998 0.97280002
137.8 8.25 0.96799999
137.8 8.3000002 0.97039998
137.8 8.3500004 0.95999998
137.8 8.3999996 0.94
137.8 8.4499998 0.89920002
137.8 8.5 0.85759997
137.8 8.5500002 0.81919998
137.8 8.6000004 0.7784
137.8 8.6499996 0.73280001
137.8 8.6999998 0.68959999
137.8 8.75 0.63679999
137.8 8.8000002 0.60000002
137.8 8.8500004 0.53359997
137.8 8.8999996 0.48800001
138 5.6500001 0.20640001
138 5.6999998 0.236
138 5.75 0.264
138 5.8000002 0.2624
138 5.8499999 0.2656
138 5.9000001 0.26480001
138 5.9499998 0.26640001
138 6 0.264
138 6.0500002 0.26320001
138 6.0999999 0.2656
138 6.1500001 0.26320001
138 6.1999998 0.26800001
138 6.25 0.26159999
138 6.3000002 0.26159999
138 6.3499999 0.26320001
138 6.4000001 0.264
138 6.4499998 0.26159999
138 6.5 0.25839999
138 6.5500002 0.25839999
138 6.5999999 0.2552
138 6.6500001 0.25999999
138 6.6999998 0.25999999
138 6.75 0.25760001
138 6.8000002 0.25999999
138 6.8499999 0.2608
138 6.9000001 0.25760001
138 6.9499998 0.26480001
138 7 0.25999999
138 7.0500002 0.2536
138 7.0999999 0.25920001
138 7.1500001 0.2568
138 7.1999998 0.25999999
138 7.25 0.26159999
138 7.3000002 0.2624
138 7.3499999 0.2608
138 7.4000001 0.25839999
138 7.4499998 0.264
138 7.5 0.2608
138 7.5500002 0.2552
138 7.5999999 0.26320001
138 7.6500001 0.2696
138 7.6999998 0.2656
138 7.75 0.25760001
138 7.8000002 0.2112
138 7.8499999 0.4136
138 7.9000001 0.83600003
138 7.9499998 0.8312
138 8 0.96799999
138 8.0500002 0.97119999
138 8.1000004 0.96799999
138 8.1499996 0.96719998
138 8.1999998 0.95279998
138 8.25 0.91759998
138 8.3000002 0.89039999
138 8.3500004 0.85280001
138 8.3999996 0.81599998
138 8.4499998 0.77200001
138 8.5 0.7288
138 8.5500002 0.676
138 8.6000004 0.63919997
138 8.6499996 0.58160001
138 8.6999998 0.54479998
138 8.75 0.4752
138.2 5.5500002 0.2088
138.2 5.5999999 0.26800001
138.2 5.6500001 0.26719999
138.2 5.6999998 0.27200001
138.2 5.75 0.27360001
138.2 5.8000002 0.2712
138.2 5.8499999 0.2712
138.2 5.9000001 0.27680001
138.2 5.9499998 0.27360001
138.2 6 0.2744
138.2 6.0500002 0.2784
138.2 6.0999999 0.2784
138.2 6.1500001 0.27599999
138.2 6.1999998 0.2728
138.2 6.25 0.27680001
138.2 6.3000002 0.27200001
138.2 6.3499999 0.27200001
138.2 6.4000001 0.26800001
138.2 6.4499998 0.27680001
138.2 6.5 0.2656
138.2 6.5500002 0.27200001
138.2 6.5999999 0.2624
138.2 6.6500001 0.264
138.2 6.6999998 0.26640001
138.2 6.75 0.27200001
138.2 6.8000002 0.2656
138.2 6.8499999 0.26800001
138.2 6.9000001 0.2608
138.2 6.9499998 0.26320001
138.2 7 0.26159999
138.2 7.0500002 0.26800001
138.2 7.0999999 0.2656
138.2 7.1500001 0.26320001
138.2 7.1999998 0.26480001
138.2 7.25 0.2656
138.2 7.3000002 0.26480001
138.2 7.3499999 0.26159999
138.2 7.4000001 0.26879999
138.2 7.4499998 0.26640001
138.2 7.5 0.26800001
138.2 7.5500002 0.25760001
138.2 7.5999999 0.22319999
138.2 7.6500001 0.41119999
138.2 7.6999998 0.82639998
138.2 7.75 0.84399998
138.2 7.8000002 0.8696
138.2 7.8499999 0.96960002
138.2 7.9000001 0.97680002
138.2 7.9499998 0.97600001
138.2 8 0.96319997
138.2 8.0500002 0.94080001
138.2 8.1000004 0.9224
138.2 8.1499996 0.87199998
138.2 8.1999998 0.8448
138.2 8.25 0.79680002
138.2 8.3000002 0.7568
138.2 8.3500004 0.71039999
138.2 8.3999996 0.6656
138.2 8.4499998 0.60879999
138.2 8.5 0.56160003
138.2 8.5500002 0.51999998
138.2 8.6000004 0.47119999
138.2 8.6499996 0.4064
138.39999 5.3499999 0.1928
138.39999 5.4000001 0.20640001
138.39999 5.4499998 0.2432
138.39999 5.5 0.27599999
138.39999 5.5500002 0.2728
138.39999 5.5999999 0.2744
138.39999 5.6500001 0.27680001
138.39999 5.6999998 0.2816
138.39999 5.75 0.2744
138.39999 5.8000002 0.2784
138.39999 5.8499999 0.27680001
138.39999 5.9000001 0.27680001
138.39999 5.9499998 0.27200001
138.39999 6 0.2712
138.39999 6.0500002 0.27680001
138.39999 6.0999999 0.26879999
138.39999 6.1500001 0.2728
138.39999 6.1999998 0.2712
138.39999 6.25 0.2744
138.39999 6.3000002 0.27200001
138.39999 6.3499999 0.27520001
138.39999 6.4000001 0.26879999
138.39999 6.4499998 0.2712
138.39999 6.5 0.27360001
138.39999 6.5500002 0.26719999
138.39999 6.5999999 0.2696
138.39999 6.6500001 0.26719999
138.39999 6.6999998 0.2712
138.39999 6.75 0.26800001
138.39999 6.8000002 0.2712
138.39999 6.8499999 0.2728
138.39999 6.9000001 0.26480001
138.39999 6.9499998 0.26879999
138.39999 7 0.26719999
138.39999 7.0500002 0.27039999
138.39999 7.0999999 0.26879999
138.39999 7.1500001 0.26320001
138.39999 7.1999998 0.26719999
138.39999 7.25 0.26480001
138.39999 7.3000002 0.26719999
138.39999 7.3499999 0.25600001
138.39999 7.4000001 0.19599999
138.39999 7.4499998 0.1928
138.39999 7.5 0.83759999
138.39999 7.5500002 0.83520001
138.39999 7.5999999 0.96560001
138.39999 7.6500001 0.97759998
138.39999 7.6999998 0.97280002
138.39999 7.75 0.97600001
138.39999 7.8000002 0.96799999
138.39999 7.8499999 0.94880003
138.39999 7.9000001 0.90799999
138.39999 7.9499998 0.88880002
138.39999 8 0.87040001
138.39999 8.0500002 0.81519997
138.39999 8.1000004 0.77999997
138.39999 8.1499996 0.74080002
138.39999 8.1999998 0.6904
138.39999 8.25 0.63999999
138.39999 8.3000002 0.59200001
138.39999 8.3500004 0.54479998
138.39999 8.3999996 0.5072
138.60001 5.0999999 -0.1096
138.60001 5.1500001 -0.16320001
138.60001 5.1999998 0.1952
138.60001 5.25 0.2104
138.60001 5.3000002 0.28
138.60001 5.3499999 0.2728
138.60001 5.4000001 0.28080001
138.60001 5.4499998 0.2832
138.60001 5.5 0.27919999
138.60001 5.5500002 0.28240001
138.60001 5.5999999 0.2784
138.60001 5.6500001 0.28240001
138.60001 5.6999998 0.27919999
138.60001 5.75 0.27599999
138.60001 5.8000002 0.2728
138.60001 5.8499999 0.28080001
138.60001 5.9000001 0.27759999
138.60001 5.9499998 0.27680001
138.60001 6 0.27919999
138.60001 6.0500002 0.27759999
138.60001 6.0999999 0.2728
138.60001 6.1500001 0.27599999
138.60001 6.1999998 0.2744
138.60001 6.25 0.2744
138.60001 6.3000002 0.27520001
138.60001 6.3499999 0.27360001
138.60001 6.4000001 0.26879999
138.60001 6.4499998 0.26879999
138.60001 6.5 0.27520001
138.60001 6.5500002 0.2712
138.60001 6.5999999 0.2696
138.60001 6.6500001 0.27599999
138.60001 6.6999998 0.26879999
138.60001 6.75 0.27520001
138.60001 6.8000002 0.2712
138.60001 6.8499999 0.27039999
138.60001 6.9000001 0.2696
138.60001 6.9499998 0.2728
138.60001 7 0.27039999
138.60001 7.0500002 0.27599999
138.60001 7.0999999 0.2784
138.60001 7.1500001 0.2568
138.60001 7.1999998 0.184
138.60001 7.25 0.46160001
138.60001 7.3000002 0.84240001
138.60001 7.3499999 0.83920002
138.60001 7.4000001 0.97920001
138.60001 7.4499998 0.98079997
138.60001 7.5 0.97680002
138.60001 7.5500002 0.98320001
138.60001 7.5999999 0.97839999
138.60001 7.6500001 0.94880003
138.60001 7.6999998 0.91759998
138.60001 7.75 0.90079999
138.60001 7.8000002 0.85759997
138.60001 7.8499999 0.82639998
138.60001 7.9000001 0.78240001
138.60001 7.9499998 0.74400002
138.60001 8 0.7008
138.60001 8.0500002 0.6656
138.60001 8.1000004 0.61360002
138.60001 8.1499996 0.56080002
138.60001 8.1999998 0.51359999
138.60001 8.25 0.46959999
138.8 4.8499999 -0.091200002
138.8 4.9000001 -0.13600001
138.8 4.9499998 -0.1552
138.8 5 0.2184
138.8 5.0500002 0.2696
138.8 5.0999999 0.28080001
138.8 5.1500001 0.28400001
138.8 5.1999998 0.2832
138.8 5.25 0.28400001
138.8 5.3000002 0.2832
138.8 5.3499999 0.28479999
138.8 5.4000001 0.28639999
138.8 5.4499998 0.2888
138.8 5.5 0.2784
138.8 5.5500002 0.28479999
138.8 5.5999999 0.28639999
138.8 5.6500001 0.2832
138.8 5.6999998 0.28240001
138.8 5.75 0.27599999
138.8 5.8000002 0.28400001
138.8 5.8499999 0.2816
138.8 5.9000001 0.27599999
138.8 5.9499998 0.28240001
138.8 6 0.27599999
138.8 6.0500002 0.2728
138.8 6.0999999 0.27919999
138.8 6.1500001 0.27360001
138.8 6.1999998 0.27520001
138.8 6.25 0.2784
138.8 6.3000002 0.27200001
138.8 6.3499999 0.2744
138.8 6.4000001 0.2728
138.8 6.4499998 0.2784
138.8 6.5 0.2728
138.8 6.5500002 0.27360001
138.8 6.5999999 0.28080001
138.8 6.6500001 0.2728
138.8 6.6999998 0.2728
138.8 6.75 0.27759999
138.8 6.8000002 0.2816
138.8 6.8499999 0.27039999
138.8 6.9000001 0.2608
138.8 6.9499998 0.23199999
138.8 7 0.17839999
138.8 7.0500002 0.8488
138.8 7.0999999 0.84640002
138.8 7.1500001 0.84719998
138.8 7.1999998 0.98720002
138.8 7.25 0.9824
138.8 7.3000002 0.97280002
138.8 7.3499999 0.98400003
138.8 7.4000001 0.98000002
138.8 7.4499998 0.93839997
138.8 7.5 0.91119999
138.8 7.5500002 0.88480002
138.8 7.5999999 0.86080003
138.8 7.6500001 0.82480001
138.8 7.6999998 0.7816
138.8 7.75 0.74239999
138.8 7.8000002 0.70319998
138.8 7.8499999 0.6552
138.8 7.9000001 0.616
138.8 7.9499998 0.58160001
138.8 8 0.51679999
138.8 8.0500002 0.47279999
138.8 8.1000004 0.43599999
139 4.5 -0.062399998
139 4.5500002 -0.112
139 4.5999999 -0.116
139 4.6500001 -0.116
139 4.6999998 0.20559999
139 4.75 0.2344
139 4.8000002 0.2832
139 4.8499999 0.29280001
139 4.9000001 0.2832
139 4.9499998 0.28479999
139 5 0.28479999
139 5.0500002 0.2832
139 5.0999999 0.28
139 5.1500001 0.28560001
139 5.1999998 0.28240001
139 5.25 0.28560001
139 5.3000002 0.2904
139 5.3499999 0.29120001
139 5.4000001 0.28080001
139 5.4499998 0.2816
139 5.5 0.28080001
139 5.5500002 0.27680001
139 5.5999999 0.27759999
139 5.6500001 0.2784
139 5.6999998 0.27599999
139 5.75 0.27919999
139 5.8000002 0.27680001
139 5.8499999 0.28080001
139 5.9000001 0.27759999
139 5.9499998 0.27360001
139 6 0.27680001
139 6.0500002 0.2744
139 6.0999999 0.27520001
139 6.1500001 0.2728
139 6.1999998 0.28080001
139 6.25 0.2784
139 6.3000002 0.27759999
139 6.3499999 0.28
139 6.4000001 0.27919999
139 6.4499998 0.27599999
139 6.5 0.27599999
139 6.5500002 0.28240001
139 6.5999999 0.28080001
139 6.6500001 0.26879999
139 6.6999998 0.19840001
139 6.75 0.1592
139 6.8000002 0.84799999
139 6.8499999 0.84960002
139 6.9000001 0.84960002
139 6.9499998 0.9896
139 7 0.9896
139 7.0500002 0.98479998
139 7.0999999 0.98559999
139 7.1500001 0.97839999
139 7.1999998 0.97039998
139 7.25 0.93279999
139 7.3000002 0.88319999
139 7.3499999 0.884
139 7.4000001 0.83279997
139 7.4499998 0.80479997
139 7.5 0.77280003
139 7.5500002 0.72479999
139 7.5999999 0.69919997
139 7.6500001 0.64880002
139 7.6999998 0.62400001
139 7.75 0.5776
139 7.8000002 0.53359997
139 7.8499999 0.4736
139 7.9000001 0.41679999
139 7.9499998 0.37760001
139.2 4.1500001 -0.1288
139.2 4.1999998 -0.12800001
139.2 4.25 -0.1248
139.2 4.3000002 0.2112
139.2 4.3499999 0.2456
139.2 4.4000001 0.2744
139.2 4.4499998 0.29359999
139.2 4.5 0.29120001
139.2 4.5500002 0.28400001
139.2 4.5999999 0.2904
139.2 4.6500001 0.28799999
139.2 4.6999998 0.2832
139.2 4.75 0.29120001
139.2 4.8000002 0.29120001
139.2 4.8499999 0.28400001
139.2 4.9000001 0.29120001
139.2 4.9499998 0.28240001
139.2 5 0.28240001
