# .PCD v0.7 - Point Cloud Data file format
VERSION 0.7
FIELDS x y z
SIZE 4 4 4
TYPE F F F
COUNT 1 1 1
WIDTH 2060
HEIGHT 1
VIEWPOINT 0 0 0 1 0 0 0
POINTS 2060
DATA ascii
28.799999 27.25 1.5184
28.799999 27.299999 1.4776
28.799999 27.35 1.4216
28.799999 27.4 1.3872
28.799999 27.450001 1.3464
28.799999 27.5 1.2912
28.799999 27.549999 1.2528
28.799999 27.6 1.1848
28.799999 27.65 1.1312
28.799999 27.700001 1.0576
28.799999 27.75 1.0104001
28.799999 27.799999 0.96319997
28.799999 27.85 0.87519997
28.799999 27.9 0.7992
28.799999 27.950001 0.70719999
28.799999 28 0.62239999
28.799999 28.049999 0.52160001
28.799999 28.1 0.42399999
28.799999 28.15 0.324
28.799999 28.200001 0.2352
28.799999 28.25 0.083999999
28.799999 28.299999 -0.1096
28.799999 28.35 -0.35519999
29 20 0.96560001
29 20.049999 0.98159999
29 20.1 0.98320001
29 20.15 1.0664001
29 20.200001 1.1208
29 20.25 1.124
29 20.299999 1.1440001
29 20.35 1.16
29 20.4 1.1632
29 20.450001 1.1544
29 20.5 1.1592
29 20.549999 1.1664
29 20.6 1.1768
29 20.65 1.1768
29 20.700001 1.1648
29 20.75 1.1688
29 20.799999 1.168
29 20.85 1.184
29 20.9 1.1768
29 20.950001 1.1736
29 21 1.1752
29 21.049999 1.1544
29 21.1 1.164
29 21.15 1.1608
29 21.200001 1.1536
29 21.25 1.1832
29 21.299999 1.1808
29 21.35 1.1552
29 21.4 1.1592
29 21.450001 1.1472
29 21.5 1.1608
29 21.549999 1.1544
29 21.6 1.1440001
29 21.65 1.1496
29 21.700001 1.1447999
29 21.75 1.1568
29 21.799999 1.1576
29 21.85 1.1488
29 21.9 1.1312
29 21.950001 1.1248
29 22 1.1368001
29 22.049999 1.1384
29 22.1 1.1504
29 22.15 1.1544
29 22.200001 1.1456
29 22.25 1.1303999
29 22.299999 1.1288
29 22.35 1.1408
29 22.4 1.1392
29 22.450001 1.2136
29 22.5 1.1720001
29 22.549999 1.1504
29 22.6 1.136
29 22.65 1.14
29 22.700001 1.1424
29 22.75 1.1303999
29 22.799999 1.1208
29 22.85 1.1152
29 22.9 1.0872
29 22.950001 1.064
29 23 0.96960002
29 23.049999 0.96799999
29 23.1 0.96079999
29 23.15 0.95279998
29 23.200001 0.95679998
29 23.25 0.95039999
29 23.299999 0.95279998
29 23.35 0.95679998
29 23.4 0.95920002
29 23.450001 0.95039999
29 23.5 0.95120001
29 23.549999 0.94880003
29 23.6 0.94800001
29 23.65 0.95679998
29 23.700001 0.95120001
29 23.75 0.95520002
29 23.799999 0.95200002
29 23.85 0.94959998
29 23.9 0.95679998
29 23.950001 0.95120001
29 24 0.95679998
29 24.049999 0.95279998
29 24.1 0.95279998
29 24.15 0.94639999
29 24.200001 0.93599999
29 24.25 0.93360001
29 24.299999 0.94080001
29 24.35 0.9368
29 24.4 0.93760002
29 24.450001 0.93839997
29 24.5 0.93360001
29 24.549999 0.93360001
29 24.6 0.93279999
29 24.65 0.93120003
29 24.700001 0.9368
29 24.75 0.94160002
29 24.799999 0.93279999
29 24.85 0.93360001
29 24.9 0.93919998
29 24.950001 0.93360001
29 25 0.93760002
29 25.049999 0.94160002
29 25.1 0.93199998
29 25.15 0.93440002
29 25.200001 0.93839997
29 25.25 0.93440002
29 25.299999 0.94880003
29 25.35 0.93919998
29 25.4 0.93440002
29 25.450001 0.94319999
29 25.5 0.93599999
29 25.549999 0.94080001
29 25.6 0.94080001
29 25.65 0.93839997
29 25.700001 0.93839997
29 25.75 0.93760002
29 25.799999 0.94
29 25.85 0.93919998
29 25.9 0.94639999
29 25.950001 0.94639999
29 26 0.94319999
29 26.049999 0.94480002
29 26.1 0.93440002
29 26.15 0.94639999
29 26.200001 0.94959998
29 26.25 0.94400001
29 26.299999 0.94639999
29 26.35 0.94800001
29 26.4 0.95039999
29 26.450001 0.95520002
29 26.5 0.96079999
29 26.549999 0.9752
29 26.6 0.99919999
29 26.65 1.1144
29 26.700001 1.1968
29 26.75 1.28
29 26.799999 1.3624001
29 26.85 1.4448
29 26.9 1.5024
29 26.950001 1.5328
29 27 1.6248
29 27.049999 1.6464
29 27.1 1.664
29 27.15 1.6624
29 27.200001 1.6688
29 27.25 1.6624
29 27.299999 1.5976
29 27.35 1.5696
29 27.4 1.5408
29 27.450001 1.4704
29 27.5 1.4368
29 27.549999 1.4016
29 27.6 1.3415999
29 27.65 1.3008
29 27.700001 1.2575999
29 27.75 1.1848
29 27.799999 1.1272
29 27.85 1.0816
29 27.9 0.99599999
29 27.950001 0.94800001
29 28 0.86080003
29 28.049999 0.80800003
29 28.1 0.70880002
29 28.15 0.61680001
29 28.200001 0.53600001
29 28.25 0.428
29 28.299999 0.32319999
29 28.35 0.18719999
29 28.4 0.048
29 28.450001 -0.094400004
29.200001 20 0.89840001
29.200001 20.049999 0.9576
29.200001 20.1 0.96240002
29.200001 20.15 1.0152
29.200001 20.200001 1.0976
29.200001 20.25 1.1
29.200001 20.299999 1.1272
29.200001 20.35 1.132
29.200001 20.4 1.1416
29.200001 20.450001 1.148
29.200001 20.5 1.1496
29.200001 20.549999 1.1584001
29.200001 20.6 1.168
29.200001 20.65 1.1808
29.200001 20.700001 1.1928
29.200001 20.75 1.2144001
29.200001 20.799999 1.2503999
29.200001 20.85 1.2616
29.200001 20.9 1.2688
29.200001 20.950001 1.2816
29.200001 21 1.296
29.200001 21.049999 1.3048
29.200001 21.1 1.3432
29.200001 21.15 1.3368
29.200001 21.200001 1.3296
29.200001 21.25 1.3464
29.200001 21.299999 1.3592
29.200001 21.35 1.3552001
29.200001 21.4 1.3767999
29.200001 21.450001 1.3848
29.200001 21.5 1.2592
29.200001 21.549999 1.3063999
29.200001 21.6 1.296
29.200001 21.65 1.2264
29.200001 21.700001 1.216
29.200001 21.75 1.2112
29.200001 21.799999 1.204
29.200001 21.85 1.1968
29.200001 21.9 1.1848
29.200001 21.950001 1.188
29.200001 22 1.1528
29.200001 22.049999 1.1447999
29.200001 22.1 1.1368001
29.200001 22.15 1.5856
29.200001 22.200001 1.1256
29.200001 22.25 1.1352
29.200001 22.299999 1.124
29.200001 22.35 1.1168
29.200001 22.4 1.132
29.200001 22.450001 1.136
29.200001 22.5 1.1296
29.200001 22.549999 1.1208
29.200001 22.6 1.1272
29.200001 22.65 1.132
29.200001 22.700001 1.14
29.200001 22.75 1.128
29.200001 22.799999 1.1264
29.200001 22.85 1.12
29.200001 22.9 1.104
29.200001 22.950001 1.028
29.200001 23 0.99119997
29.200001 23.049999 0.95679998
29.200001 23.1 0.95999998
29.200001 23.15 0.96240002
29.200001 23.200001 0.95840001
29.200001 23.25 0.95279998
29.200001 23.299999 0.95599997
29.200001 23.35 0.96079999
29.200001 23.4 0.95200002
29.200001 23.450001 0.95039999
29.200001 23.5 0.95359999
29.200001 23.549999 0.95920002
29.200001 23.6 0.95279998
29.200001 23.65 0.95520002
29.200001 23.700001 0.95200002
29.200001 23.75 0.95679998
29.200001 23.799999 0.95359999
29.200001 23.85 0.94800001
29.200001 23.9 0.95359999
29.200001 23.950001 0.95999998
29.200001 24 0.93360001
29.200001 24.049999 0.94
29.200001 24.1 0.94
29.200001 24.15 0.9368
29.200001 24.200001 0.93919998
29.200001 24.25 0.93839997
29.200001 24.299999 0.94080001
29.200001 24.35 0.93760002
29.200001 24.4 0.93839997
29.200001 24.450001 0.93199998
29.200001 24.5 0.9368
29.200001 24.549999 0.94160002
29.200001 24.6 0.94080001
29.200001 24.65 0.93839997
29.200001 24.700001 0.93599999
29.200001 24.75 0.93760002
29.200001 24.799999 0.9368
29.200001 24.85 0.93199998
29.200001 24.9 0.93519998
29.200001 24.950001 0.9368
29.200001 25 0.93599999
29.200001 25.049999 0.93599999
29.200001 25.1 0.93279999
29.200001 25.15 0.93760002
29.200001 25.200001 0.94239998
29.200001 25.25 0.94080001
29.200001 25.299999 0.94400001
29.200001 25.35 0.93839997
29.200001 25.4 0.94239998
29.200001 25.450001 0.94160002
29.200001 25.5 0.93839997
29.200001 25.549999 0.93360001
29.200001 25.6 0.93519998
29.200001 25.65 0.94800001
29.200001 25.700001 0.94239998
29.200001 25.75 0.93120003
29.200001 25.799999 0.94160002
29.200001 25.85 0.93599999
29.200001 25.9 0.94160002
29.200001 25.950001 0.94
29.200001 26 0.9472
29.200001 26.049999 0.94239998
29.200001 26.1 0.94800001
29.200001 26.15 0.93839997
29.200001 26.200001 0.94400001
29.200001 26.25 0.94080001
29.200001 26.299999 0.94639999
29.200001 26.35 0.9472
29.200001 26.4 0.95039999
29.200001 26.450001 0.95039999
29.200001 26.5 0.95039999
29.200001 26.549999 0.95120001
29.200001 26.6 0.95120001
29.200001 26.65 0.95520002
29.200001 26.700001 0.96160001
29.200001 26.75 0.9752
29.200001 26.799999 1.0096
29.200001 26.85 1.0872
29.200001 26.9 1.1904
29.200001 26.950001 1.2936
29.200001 27 1.3968
29.200001 27.049999 1.5008
29.200001 27.1 1.5368
29.200001 27.15 1.5632
29.200001 27.200001 1.6504
29.200001 27.25 1.6648
29.200001 27.299999 1.6608
29.200001 27.35 1.6664
29.200001 27.4 1.6632
29.200001 27.450001 1.604
29.200001 27.5 1.5736001
29.200001 27.549999 1.5312001
29.200001 27.6 1.4895999
29.200001 27.65 1.4512
29.200001 27.700001 1.3944
29.200001 27.75 1.3648
29.200001 27.799999 1.2848001
29.200001 27.85 1.2464
29.200001 27.9 1.1752
29.200001 27.950001 1.1272
29.200001 28 1.0608
29.200001 28.049999 0.99599999
29.200001 28.1 0.93120003
29.200001 28.15 0.85439998
29.200001 28.200001 0.7536
29.200001 28.25 0.67439997
29.200001 28.299999 0.60720003
29.200001 28.35 0.50239998
29.200001 28.4 0.3872
29.200001 28.450001 0.2728
29.200001 28.5 0.12720001
29.200001 28.549999 -0.034400001
29.200001 28.6 -0.1568
29.4 20 0.90960002
29.4 20.049999 0.95279998
29.4 20.1 0.96079999
29.4 20.15 0.96160001
29.4 20.200001 0.97439998
29.4 20.25 1.0632
29.4 20.299999 1.0951999
29.4 20.35 1.1048
29.4 20.4 1.1095999
29.4 20.450001 1.1288
29.4 20.5 1.1375999
29.4 20.549999 1.1352
29.4 20.6 1.1288
29.4 20.65 1.1208
29.4 20.700001 1.128
29.4 20.75 1.1552
29.4 20.799999 1.1896
29.4 20.85 1.2352
29.4 20.9 1.2536
29.4 20.950001 1.2776
29.4 21 1.3088
29.4 21.049999 1.3344001
29.4 21.1 1.3568
29.4 21.15 1.3688
29.4 21.200001 1.3839999
29.4 21.25 1.396
29.4 21.299999 1.3936
29.4 21.35 1.404
29.4 21.4 1.4056
29.4 21.450001 1.3992
29.4 21.5 1.3968
29.4 21.549999 1.4216
29.4 21.6 1.3839999
29.4 21.65 1.3664
29.4 21.700001 1.3544
29.4 21.75 1.2927999
29.4 21.799999 1.2768
29.4 21.85 1.232
29.4 21.9 1.1712
29.4 21.950001 1.1704
29.4 22 1.1584001
29.4 22.049999 1.1568
29.4 22.1 1.1568
29.4 22.15 1.1272
29.4 22.200001 1.1224
29.4 22.25 1.1208
29.4 22.299999 1.1176
29.4 22.35 1.1064
29.4 22.4 1.1224
29.4 22.450001 1.1168
29.4 22.5 1.1112
29.4 22.549999 1.1160001
29.4 22.6 1.1095999
29.4 22.65 1.12
29.4 22.700001 1.128
29.4 22.75 1.1264
29.4 22.799999 1.1288
29.4 22.85 1.1216
29.4 22.9 1.1032
29.4 22.950001 1.0712
29.4 23 0.95599997
29.4 23.049999 0.96560001
29.4 23.1 0.9576
29.4 23.15 0.95599997
29.4 23.200001 0.95520002
29.4 23.25 0.95999998
29.4 23.299999 0.9576
29.4 23.35 0.96719998
29.4 23.4 0.95840001
29.4 23.450001 0.95999998
29.4 23.5 0.95999998
29.4 23.549999 0.95999998
29.4 23.6 0.95039999
29.4 23.65 0.94480002
29.4 23.700001 0.94239998
29.4 23.75 0.94080001
29.4 23.799999 0.93839997
29.4 23.85 0.94239998
29.4 23.9 0.94
29.4 23.950001 0.93599999
29.4 24 0.9368
29.4 24.049999 0.93919998
29.4 24.1 0.93919998
29.4 24.15 0.93839997
29.4 24.200001 0.94239998
29.4 24.25 0.93839997
29.4 24.299999 0.94
29.4 24.35 0.93919998
29.4 24.4 0.92720002
29.4 24.450001 0.9368
29.4 24.5 0.94
29.4 24.549999 0.94239998
29.4 24.6 0.9296
29.4 24.65 0.93360001
29.4 24.700001 0.93599999
29.4 24.75 0.93440002
29.4 24.799999 0.93599999
29.4 24.85 0.93519998
29.4 24.9 0.93599999
29.4 24.950001 0.93519998
29.4 25 0.93919998
29.4 25.049999 0.93599999
29.4 25.1 0.94
29.4 25.15 0.93839997
29.4 25.200001 0.9368
29.4 25.25 0.94
29.4 25.299999 0.93919998
29.4 25.35 0.93760002
29.4 25.4 0.9368
29.4 25.450001 0.94480002
29.4 25.5 0.93519998
29.4 25.549999 0.94080001
29.4 25.6 0.94160002
29.4 25.65 0.93760002
29.4 25.700001 0.9368
29.4 25.75 0.93440002
29.4 25.799999 0.9296
29.4 25.85 0.93599999
29.4 25.9 0.93440002
29.4 25.950001 0.93279999
29.4 26 0.93519998
29.4 26.049999 0.94080001
29.4 26.1 0.93839997
29.4 26.15 0.93919998
29.4 26.200001 0.93839997
29.4 26.25 0.94080001
29.4 26.299999 0.94080001
29.4 26.35 0.94080001
29.4 26.4 0.94880003
29.4 26.450001 0.95039999
29.4 26.5 0.94400001
29.4 26.549999 0.94639999
29.4 26.6 0.94959998
29.4 26.65 0.94959998
29.4 26.700001 0.94959998
29.4 26.75 0.95359999
29.4 26.799999 0.95920002
29.4 26.85 0.95279998
29.4 26.9 0.96399999
29.4 26.950001 0.98720002
29.4 27 1.1408
29.4 27.049999 1.2184
29.4 27.1 1.3072
29.4 27.15 1.3968
29.4 27.200001 1.4856
29.4 27.25 1.5136
29.4 27.299999 1.564
29.4 27.35 1.6392
29.4 27.4 1.66
29.4 27.450001 1.6648
29.4 27.5 1.6632
29.4 27.549999 1.6528
29.4 27.6 1.5968
29.4 27.65 1.5688
29.4 27.700001 1.5216
29.4 27.75 1.4823999
29.4 27.799999 1.436
29.4 27.85 1.3872
29.4 27.9 1.336
29.4 27.950001 1.2888
29.4 28 1.2192
29.4 28.049999 1.1824
29.4 28.1 1.096
29.4 28.15 1.0408
29.4 28.200001 0.95279998
29.4 28.25 0.88639998
29.4 28.299999 0.82160002
29.4 28.35 0.75199997
29.4 28.4 0.6512
29.4 28.450001 0.59359998
29.4 28.5 0.45120001
29.4 28.549999 0.3048
29.4 28.6 0.21439999
29.4 28.65 0.048799999
29.4 28.700001 -0.087200001
29.6 20 0.92079997
29.6 20.049999 0.95920002
29.6 20.1 0.96079999
29.6 20.15 0.96319997
29.6 20.200001 0.96880001
29.6 20.25 0.96560001
29.6 20.299999 0.96880001
29.6 20.35 1
29.6 20.4 1.0624
29.6 20.450001 1.0648
29.6 20.5 1.1216
29.6 20.549999 1.1248
29.6 20.6 1.1447999
29.6 20.65 1.1440001
29.6 20.700001 1.156
29.6 20.75 1.156
29.6 20.799999 1.1368001
29.6 20.85 1.128
29.6 20.9 1.1296
29.6 20.950001 1.1392
29.6 21 1.1488
29.6 21.049999 1.1655999
29.6 21.1 1.1848
29.6 21.15 1.1968
29.6 21.200001 1.2336
29.6 21.25 1.2568001
29.6 21.299999 1.2768
29.6 21.35 1.296
29.6 21.4 1.3048
29.6 21.450001 1.3072
29.6 21.5 1.2312
29.6 21.549999 1.2079999
29.6 21.6 1.2208
29.6 21.65 1.2312
29.6 21.700001 1.2568001
29.6 21.75 1.2952
29.6 21.799999 1.3063999
29.6 21.85 1.3368
29.6 21.9 1.3216
29.6 21.950001 1.256
29.6 22 1.2151999
29.6 22.049999 1.1928
29.6 22.1 1.1648
29.6 22.15 1.1392
29.6 22.200001 1.128
29.6 22.25 1.1152
29.6 22.299999 1.1144
29.6 22.35 1.1168
29.6 22.4 1.1208
29.6 22.450001 1.1256
29.6 22.5 1.1152
29.6 22.549999 1.112
29.6 22.6 1.1048
29.6 22.65 1.1056
29.6 22.700001 1.1088001
29.6 22.75 1.1056
29.6 22.799999 1.1023999
29.6 22.85 1.0968
29.6 22.9 1.1095999
29.6 22.950001 1.0592
29.6 23 0.94080001
29.6 23.049999 0.94400001
29.6 23.1 0.94880003
29.6 23.15 0.94639999
29.6 23.200001 0.9472
29.6 23.25 0.9472
29.6 23.299999 0.94400001
29.6 23.35 0.94160002
29.6 23.4 0.94080001
29.6 23.450001 0.9472
29.6 23.5 0.94559997
29.6 23.549999 0.94639999
29.6 23.6 0.94480002
29.6 23.65 0.94800001
29.6 23.700001 0.94319999
29.6 23.75 0.94880003
29.6 23.799999 0.94480002
29.6 23.85 0.94639999
29.6 23.9 0.94239998
29.6 23.950001 0.94480002
29.6 24 0.94559997
29.6 24.049999 0.94239998
29.6 24.1 0.93440002
29.6 24.15 0.93440002
29.6 24.200001 0.93599999
29.6 24.25 0.94080001
29.6 24.299999 0.9368
29.6 24.35 0.94
29.6 24.4 0.94639999
29.6 24.450001 0.93839997
29.6 24.5 0.94
29.6 24.549999 0.93760002
29.6 24.6 0.94
29.6 24.65 0.94080001
29.6 24.700001 0.94400001
29.6 24.75 0.94239998
29.6 24.799999 0.94239998
29.6 24.85 0.93839997
29.6 24.9 0.93360001
29.6 24.950001 0.93519998
29.6 25 0.93839997
29.6 25.049999 0.93919998
29.6 25.1 0.9368
29.6 25.15 0.94080001
29.6 25.200001 0.93919998
29.6 25.25 0.9368
29.6 25.299999 0.93279999
29.6 25.35 0.93839997
29.6 25.4 0.93760002
29.6 25.450001 0.93839997
29.6 25.5 0.93120003
29.6 25.549999 0.93839997
29.6 25.6 0.93839997
29.6 25.65 0.94080001
29.6 25.700001 0.94319999
29.6 25.75 0.93919998
29.6 25.799999 0.93519998
29.6 25.85 0.93919998
29.6 25.9 0.93040001
29.6 25.950001 0.94400001
29.6 26 0.94080001
29.6 26.049999 0.94080001
29.6 26.1 0.94
29.6 26.15 0.94080001
29.6 26.200001 0.93360001
29.6 26.25 0.93839997
29.6 26.299999 0.94559997
29.6 26.35 0.94239998
29.6 26.4 0.94959998
29.6 26.450001 0.94880003
29.6 26.5 0.95200002
29.6 26.549999 0.9544
29.6 26.6 0.94800001
29.6 26.65 0.94959998
29.6 26.700001 0.95200002
29.6 26.75 0.9472
29.6 26.799999 0.94639999
29.6 26.85 0.95120001
29.6 26.9 0.94559997
29.6 26.950001 0.9544
29.6 27 0.95359999
29.6 27.049999 0.95999998
29.6 27.1 0.97759998
29.6 27.15 1.036
29.6 27.200001 1.204
29.6 27.25 1.2936
29.6 27.299999 1.3832
29.6 27.35 1.472
29.6 27.4 1.5352
29.6 27.450001 1.6144
29.6 27.5 1.6528
29.6 27.549999 1.66
29.6 27.6 1.6576
29.6 27.65 1.6632
29.6 27.700001 1.668
29.6 27.75 1.5951999
29.6 27.799999 1.5512
29.6 27.85 1.5048
29.6 27.9 1.4632
29.6 27.950001 1.4152
29.6 28 1.3568
29.6 28.049999 1.3
29.6 28.1 1.2608
29.6 28.15 1.1904
29.6 28.200001 1.1368001
29.6 28.25 1.0896
29.6 28.299999 0.98799998
29.6 28.35 0.93440002
29.6 28.4 0.8768
29.6 28.450001 0.7784
29.6 28.5 0.69440001
29.6 28.549999 0.60479999
29.6 28.6 0.46720001
29.6 28.65 0.3944
29.6 28.700001 0.2272
29.6 28.75 0.1024
29.6 28.799999 -0.052000001
29.6 28.85 -0.2728
29.799999 20 0.93199998
29.799999 20.049999 0.96240002
29.799999 20.1 0.96399999
29.799999 20.15 0.96319997
29.799999 20.200001 0.96319997
29.799999 20.25 0.96560001
29.799999 20.299999 0.9648
29.799999 20.35 0.96399999
29.799999 20.4 0.9648
29.799999 20.450001 0.97359997
29.799999 20.5 0.96560001
29.799999 20.549999 0.98000002
29.799999 20.6 1.0216
29.799999 20.65 1.0832
29.799999 20.700001 1.1112
29.799999 20.75 1.132
29.799999 20.799999 1.1384
29.799999 20.85 1.1447999
29.799999 20.9 1.148
29.799999 20.950001 1.152
29.799999 21 1.1447999
29.799999 21.049999 1.1296
29.799999 21.1 1.112
29.799999 21.15 1.1184
29.799999 21.200001 1.1208
29.799999 21.25 1.2472
29.799999 21.299999 1.24
29.799999 21.35 1.028
29.799999 21.4 0.99760002
29.799999 21.450001 0.98879999
29.799999 21.5 1.0168
29.799999 21.549999 1.104
29.799999 21.6 1.1272
29.799999 21.65 1.1375999
29.799999 21.700001 1.1928
29.799999 21.75 1.2256
29.799999 21.799999 1.2888
29.799999 21.85 1.3408
29.799999 21.9 1.3512
29.799999 21.950001 1.3424
29.799999 22 1.2352
29.799999 22.049999 1.1752
29.799999 22.1 1.1375999
29.799999 22.15 1.1224
29.799999 22.200001 1.1336
29.799999 22.25 1.1168
29.799999 22.299999 1.112
29.799999 22.35 1.1208
29.799999 22.4 1.1248
29.799999 22.450001 1.1328
29.799999 22.5 1.1312
29.799999 22.549999 1.1160001
29.799999 22.6 1.1224
29.799999 22.65 1.1104
29.799999 22.700001 1.1136
29.799999 22.75 1.1112
29.799999 22.799999 1.1008
29.799999 22.85 1.0984
29.799999 22.9 1.084
29.799999 22.950001 0.98159999
29.799999 23 0.94
29.799999 23.049999 0.94080001
29.799999 23.1 0.94400001
29.799999 23.15 0.94880003
29.799999 23.200001 0.94639999
29.799999 23.25 0.94639999
29.799999 23.299999 0.94400001
29.799999 23.35 0.94800001
29.799999 23.4 0.94080001
29.799999 23.450001 0.93519998
29.799999 23.5 0.94319999
29.799999 23.549999 0.93360001
29.799999 23.6 0.93839997
29.799999 23.65 0.94480002
29.799999 23.700001 0.94639999
29.799999 23.75 0.94400001
29.799999 23.799999 0.94400001
29.799999 23.85 0.94480002
29.799999 23.9 0.94239998
29.799999 23.950001 0.94639999
29.799999 24 0.93839997
29.799999 24.049999 0.94080001
29.799999 24.1 0.93360001
29.799999 24.15 0.93839997
29.799999 24.200001 0.94
29.799999 24.25 0.9368
29.799999 24.299999 0.94
29.799999 24.35 0.93919998
29.799999 24.4 0.93839997
29.799999 24.450001 0.93919998
29.799999 24.5 0.94
29.799999 24.549999 0.94
29.799999 24.6 0.9472
29.799999 24.65 0.93760002
29.799999 24.700001 0.94080001
29.799999 24.75 0.9368
29.799999 24.799999 0.94
29.799999 24.85 0.93360001
29.799999 24.9 0.93599999
29.799999 24.950001 0.93760002
29.799999 25 0.93040001
29.799999 25.049999 0.93760002
29.799999 25.1 0.93120003
29.799999 25.15 0.94
29.799999 25.200001 0.92879999
29.799999 25.25 0.93120003
29.799999 25.299999 0.93440002
29.799999 25.35 0.93199998
29.799999 25.4 0.94
29.799999 25.450001 0.94160002
29.799999 25.5 0.93199998
29.799999 25.549999 0.93360001
29.799999 25.6 0.93360001
29.799999 25.65 0.93279999
29.799999 25.700001 0.94
29.799999 25.75 0.93279999
29.799999 25.799999 0.93199998
29.799999 25.85 0.93360001
29.799999 25.9 0.94239998
29.799999 25.950001 0.9368
29.799999 26 0.93279999
29.799999 26.049999 0.93040001
29.799999 26.1 0.9368
29.799999 26.15 0.94239998
29.799999 26.200001 0.93919998
29.799999 26.25 0.94480002
29.799999 26.299999 0.94480002
29.799999 26.35 0.94319999
29.799999 26.4 0.94559997
29.799999 26.450001 0.95039999
29.799999 26.5 0.94959998
29.799999 26.549999 0.9472
29.799999 26.6 0.95279998
29.799999 26.65 0.95120001
29.799999 26.700001 0.95200002
29.799999 26.75 0.94639999
29.799999 26.799999 0.94480002
29.799999 26.85 0.94880003
29.799999 26.9 0.94880003
29.799999 26.950001 0.94559997
29.799999 27 0.95279998
29.799999 27.049999 0.94559997
29.799999 27.1 0.95120001
29.799999 27.15 0.94880003
29.799999 27.200001 0.95840001
29.799999 27.25 0.97280002
29.799999 27.299999 0.99919999
29.799999 27.35 1.1912
29.799999 27.4 1.3008
29.799999 27.450001 1.4096
29.799999 27.5 1.4960001
29.799999 27.549999 1.5376
29.799999 27.6 1.6232001
29.799999 27.65 1.6536
29.799999 27.700001 1.6624
29.799999 27.75 1.6664
29.799999 27.799999 1.664
29.799999 27.85 1.608
29.799999 27.9 1.5832
29.799999 27.950001 1.5296
29.799999 28 1.4904
29.799999 28.049999 1.4256001
29.799999 28.1 1.3896
29.799999 28.15 1.3288
29.799999 28.200001 1.2816
29.799999 28.25 1.2079999
29.799999 28.299999 1.1616
29.799999 28.35 1.0984
29.799999 28.4 1.0264
29.799999 28.450001 0.94319999
29.799999 28.5 0.88639998
29.799999 28.549999 0.79280001
29.799999 28.6 0.74400002
29.799999 28.65 0.64160001
29.799999 28.700001 0.5352
29.799999 28.75 0.39039999
29.799999 28.799999 0.2744
29.799999 28.85 0.18880001
29.799999 28.9 0.012
29.799999 28.950001 -0.1608
30 20.049999 0.95120001
30 20.1 0.9648
30 20.15 0.96560001
30 20.200001 0.96240002
30 20.25 0.9648
30 20.299999 0.96719998
30 20.35 0.96719998
30 20.4 0.96399999
30 20.450001 0.96399999
30 20.5 0.96240002
30 20.549999 0.96560001
30 20.6 0.96719998
30 20.65 0.97759998
30 20.700001 0.97280002
30 20.75 0.972
30 20.799999 0.98720002
30 20.85 0.98799998
30 20.9 1.016
30 20.950001 1.0648
30 21 1.048
30 21.049999 1.0112
30 21.1 0.98479998
30 21.15 0.97680002
30 21.200001 0.97680002
30 21.25 0.98079997
30 21.299999 0.96240002
30 21.35 0.96560001
30 21.4 0.96880001
30 21.450001 0.95359999
30 21.5 0.94639999
30 21.549999 0.9472
30 21.6 0.94639999
30 21.65 0.94880003
30 21.700001 0.95039999
30 21.75 0.97759998
30 21.799999 1.0584
30 21.85 1.1664
30 21.9 1.2624
30 21.950001 1.2528
30 22 1.2512
30 22.049999 1.2176
30 22.1 1.1928
30 22.15 1.1544
30 22.200001 1.1408
30 22.25 1.1328
30 22.299999 1.1184
30 22.35 1.1176
30 22.4 1.1136
30 22.450001 1.1144
30 22.5 1.1128
30 22.549999 1.1104
30 22.6 1.0951999
30 22.65 1.0976
30 22.700001 1.1048
30 22.75 1.0968
30 22.799999 1.1112
30 22.85 1.1095999
30 22.9 1.0904
30 22.950001 0.9752
30 23 0.94239998
30 23.049999 0.94959998
30 23.1 0.94239998
30 23.15 0.95200002
30 23.200001 0.94639999
30 23.25 0.94639999
30 23.299999 0.94319999
30 23.35 0.95120001
30 23.4 0.94800001
30 23.450001 0.94880003
30 23.5 0.94160002
30 23.549999 0.94639999
30 23.6 0.9472
30 23.65 0.94239998
30 23.700001 0.94639999
30 23.75 0.94160002
30 23.799999 0.94400001
30 23.85 0.9472
30 23.9 0.93839997
30 23.950001 0.93440002
30 24 0.94080001
30 24.049999 0.94
30 24.1 0.93760002
30 24.15 0.94
30 24.200001 0.93839997
30 24.25 0.93839997
30 24.299999 0.9368
30 24.35 0.93919998
30 24.4 0.93599999
30 24.450001 0.93519998
30 24.5 0.93040001
30 24.549999 0.93919998
30 24.6 0.93760002
30 24.65 0.93360001
30 24.700001 0.93199998
30 24.75 0.9368
30 24.799999 0.9368
30 24.85 0.9368
30 24.9 0.93279999
30 24.950001 0.93199998
30 25 0.93360001
30 25.049999 0.93199998
30 25.1 0.93279999
30 25.15 0.93440002
30 25.200001 0.93519998
30 25.25 0.93919998
30 25.299999 0.92559999
30 25.35 0.93120003
30 25.4 0.93440002
30 25.450001 0.93599999
30 25.5 0.92799997
30 25.549999 0.92479998
30 25.6 0.93519998
30 25.65 0.93599999
30 25.700001 0.93519998
30 25.75 0.9368
30 25.799999 0.93519998
30 25.85 0.93199998
30 25.9 0.93120003
30 25.950001 0.93279999
30 26 0.93599999
30 26.049999 0.93599999
30 26.1 0.94239998
30 26.15 0.93599999
30 26.200001 0.93360001
30 26.25 0.94080001
30 26.299999 0.93760002
30 26.35 0.94400001
30 26.4 0.93919998
30 26.450001 0.94400001
30 26.5 0.95279998
30 26.549999 0.95039999
30 26.6 0.95279998
30 26.65 0.94880003
30 26.700001 0.95120001
30 26.75 0.95039999
30 26.799999 0.9472
30 26.85 0.94160002
30 26.9 0.94239998
30 26.950001 0.95279998
30 27 0.94559997
30 27.049999 0.94400001
30 27.1 0.94480002
30 27.15 0.94559997
30 27.200001 0.94480002
30 27.25 0.95200002
30 27.299999 0.95039999
30 27.35 0.95679998
30 27.4 0.96399999
30 27.450001 1.024
30 27.5 1.1672
30 27.549999 1.3096
30 27.6 1.452
30 27.65 1.5032001
30 27.700001 1.5568
30 27.75 1.6464
30 27.799999 1.6592
30 27.85 1.66
30 27.9 1.66
30 27.950001 1.6536
30 28 1.5888
30 28.049999 1.5456001
30 28.1 1.4928
30 28.15 1.4448
30 28.200001 1.3976001
30 28.25 1.3584
30 28.299999 1.2808
30 28.35 1.244
30 28.4 1.1936001
30 28.450001 1.108
30 28.5 1.0512
30 28.549999 0.98400003
30 28.6 0.90079999
30 28.65 0.81519997
30 28.700001 0.7288
30 28.75 0.66079998
30 28.799999 0.54079998
30 28.85 0.4048
30 28.9 0.2976
30 28.950001 0.1656
30 29 -0.0055999998
30 29.049999 -0.16
30.200001 20 -0.1496
30.200001 20.049999 0.0264
30.200001 20.1 0.2032
30.200001 20.15 0.38
30.200001 20.200001 0.55599999
30.200001 20.25 0.73280001
30.200001 20.299999 0.91039997
30.200001 20.35 0.92879999
30.200001 20.4 0.93120003
30.200001 20.450001 0.92559999
30.200001 20.5 0.92159998
30.200001 20.549999 0.94319999
30.200001 20.6 0.93440002
30.200001 20.65 0.93120003
30.200001 20.700001 0.92879999
30.200001 20.75 0.93120003
30.200001 20.799999 0.9368
30.200001 20.85 0.92879999
30.200001 20.9 0.92159998
30.200001 20.950001 0.91439998
30.200001 21 0.90799999
30.200001 21.049999 0.90560001
30.200001 21.1 0.90399998
30.200001 21.15 0.90240002
30.200001 21.200001 0.89999998
30.200001 21.25 0.89840001
30.200001 21.299999 0.89679998
30.200001 21.35 0.89520001
30.200001 21.4 0.89279997
30.200001 21.450001 0.8944
30.200001 21.5 0.85519999
30.200001 21.549999 0.83600003
30.200001 21.6 0.83679998
30.200001 21.65 0.83759999
30.200001 21.700001 0.83279997
30.200001 21.75 0.84719998
30.200001 21.799999 0.8664
30.200001 21.85 0.95279998
30.200001 21.9 1.1528
30.200001 22.700001 1.0448
30.200001 22.75 1.0472
30.200001 22.799999 1.016
30.200001 22.85 0.98400003
30.200001 22.9 0.95679998
30.200001 22.950001 0.93199998
30.200001 23 0.87040001
30.200001 23.049999 0.86720002
30.200001 23.1 0.89999998
30.200001 23.15 0.87120003
30.200001 23.200001 0.83520001
30.200001 23.25 0.8136
30.200001 23.299999 0.80879998
30.200001 23.35 0.8312
30.200001 23.4 0.81999999
30.200001 23.450001 0.82080001
30.200001 23.5 0.80559999
30.200001 23.549999 0.83679998
30.200001 23.6 0.84079999
30.200001 23.65 0.83520001
30.200001 23.700001 0.83999997
30.200001 23.75 0.79759997
30.200001 23.799999 0.80239999
30.200001 23.85 0.78479999
30.200001 23.9 0.8096
30.200001 23.950001 0.79119998
30.200001 24 0.78719997
30.200001 24.049999 0.79280001
30.200001 24.1 0.792
30.200001 24.15 0.79680002
30.200001 24.200001 0.80400002
30.200001 24.25 0.78240001
30.200001 24.299999 0.78799999
30.200001 24.35 0.77600002
30.200001 24.4 0.79839998
30.200001 24.450001 0.79040003
30.200001 24.5 0.79040003
30.200001 24.549999 0.75760001
30.200001 24.6 0.79119998
30.200001 25.15 0.77359998
30.200001 25.200001 0.77600002
30.200001 25.25 0.80800003
30.200001 25.299999 0.8168
30.200001 25.35 0.84240001
30.200001 25.4 0.852
30.200001 25.450001 0.88480002
30.200001 25.5 0.9048
30.200001 25.549999 0.9192
30.200001 25.6 0.9296
30.200001 25.65 0.92799997
30.200001 25.700001 0.92879999
30.200001 25.75 0.92799997
30.200001 25.799999 0.92320001
30.200001 25.85 0.92720002
30.200001 25.9 0.92799997
30.200001 25.950001 0.92559999
30.200001 26 0.92640001
30.200001 26.049999 0.92640001
30.200001 26.1 0.92640001
30.200001 26.15 0.92400002
30.200001 26.200001 0.92640001
30.200001 26.25 0.92720002
30.200001 26.299999 0.92400002
30.200001 26.35 0.93120003
30.200001 26.4 0.93040001
30.200001 26.450001 0.94
30.200001 26.5 0.94639999
30.200001 26.549999 0.94080001
30.200001 26.6 0.95039999
30.200001 26.65 0.94800001
30.200001 26.700001 0.94639999
30.200001 26.75 0.93919998
30.200001 26.799999 0.94480002
30.200001 26.85 0.93839997
30.200001 26.9 0.94160002
30.200001 26.950001 0.94400001
30.200001 27 0.94080001
30.200001 27.049999 0.94639999
30.200001 27.1 0.94160002
30.200001 27.15 0.94559997
30.200001 27.200001 0.94400001
30.200001 27.25 0.94480002
30.200001 27.299999 0.9368
30.200001 27.35 0.93440002
30.200001 27.4 0.94400001
30.200001 27.450001 0.9472
30.200001 27.5 0.94880003
30.200001 27.549999 0.96880001
30.200001 27.6 1.0599999
30.200001 27.65 1.204
30.200001 27.700001 1.3487999
30.200001 27.75 1.4864
30.200001 27.799999 1.5272
30.200001 27.85 1.6208
30.200001 27.9 1.6488
30.200001 27.950001 1.6512001
30.200001 28 1.6552
30.200001 28.049999 1.6472
30.200001 28.1 1.5904
30.200001 28.15 1.556
30.200001 28.200001 1.5024
30.200001 28.25 1.4664
30.200001 28.299999 1.3952
30.200001 28.35 1.34
30.200001 28.4 1.2984
30.200001 28.450001 1.2312
30.200001 28.5 1.1888
30.200001 28.549999 1.1192
30.200001 28.6 1.0496
30.200001 28.65 0.98079997
30.200001 28.700001 0.91439998
30.200001 28.75 0.81599998
30.200001 28.799999 0.74800003
30.200001 28.85 0.63440001
30.200001 28.9 0.55199999
30.200001 28.950001 0.40799999
30.200001 29 0.29840001
30.200001 29.049999 0.1824
30.200001 29.1 0.00079999998
30.4 23.25 0.82080001
30.4 25.9 0.83279997
30.4 25.950001 0.88559997
30.4 26 0.88880002
30.4 26.049999 0.90640002
30.4 26.1 0.92400002
30.4 26.15 0.92640001
30.4 26.200001 0.92720002
30.4 26.25 0.92159998
30.4 26.299999 0.92640001
30.4 26.35 0.92559999
30.4 26.4 0.92879999
30.4 26.450001 0.93279999
30.4 26.5 0.94160002
30.4 26.549999 0.94160002
30.4 26.6 0.94400001
30.4 26.65 0.94639999
30.4 26.700001 0.93760002
30.4 26.75 0.94400001
30.4 26.799999 0.94
30.4 26.85 0.94480002
30.4 26.9 0.94480002
30.4 26.950001 0.94480002
30.4 27 0.94400001
30.4 27.049999 0.93839997
30.4 27.1 0.94239998
30.4 27.15 0.94
30.4 27.200001 0.94800001
30.4 27.25 0.9368
30.4 27.299999 0.94080001
30.4 27.35 0.9368
30.4 27.4 0.93760002
30.4 27.450001 0.94160002
30.4 27.5 0.93919998
30.4 27.549999 0.94239998
30.4 27.6 0.94480002
30.4 27.65 0.96319997
30.4 27.700001 1.028
30.4 27.75 1.1608
30.4 27.799999 1.3152
30.4 27.85 1.4704
30.4 27.9 1.5176001
30.4 27.950001 1.6176
30.4 28 1.6488
30.4 28.049999 1.6568
30.4 28.1 1.6528
30.4 28.15 1.6568
30.4 28.200001 1.6072
30.4 28.25 1.5504
30.4 28.299999 1.5096
30.4 28.35 1.464
30.4 28.4 1.4112
30.4 28.450001 1.3608
30.4 28.5 1.3008
30.4 28.549999 1.2336
30.4 28.6 1.1952
30.4 28.65 1.1128
30.4 28.700001 1.0472
30.4 28.75 0.97759998
30.4 28.799999 0.90719998
30.4 28.85 0.81440002
30.4 28.9 0.7432
30.4 28.950001 0.61760002
30.4 29 0.53600001
30.4 29.049999 0.42879999
30.4 29.1 0.27520001
30.4 29.15 0.1552
30.4 29.200001 0.0176
30.4 29.25 -0.29280001
30.6 22.950001 0.8312
30.6 26.25 0.7888
30.6 26.299999 0.80080003
30.6 26.35 0.86879998
30.6 26.4 0.89999998
30.6 26.450001 0.92559999
30.6 26.5 0.93839997
30.6 26.549999 0.94160002
30.6 26.6 0.94239998
30.6 26.65 0.93440002
30.6 26.700001 0.94480002
30.6 26.75 0.94080001
30.6 26.799999 0.94319999
30.6 26.85 0.9368
30.6 26.9 0.93599999
30.6 26.950001 0.94400001
30.6 27 0.94080001
30.6 27.049999 0.93760002
30.6 27.1 0.94080001
30.6 27.15 0.93519998
30.6 27.200001 0.94080001
30.6 27.25 0.9368
30.6 27.299999 0.93599999
30.6 27.35 0.94
30.6 27.4 0.94400001
30.6 27.450001 0.94400001
30.6 27.5 0.9368
30.6 27.549999 0.9368
30.6 27.6 0.94080001
30.6 27.65 0.94480002
30.6 27.700001 0.94800001
30.6 27.75 0.95200002
30.6 27.799999 0.97359997
30.6 27.85 1.0976
30.6 27.9 1.2808
30.6 27.950001 1.464
30.6 28 1.5024
30.6 28.049999 1.6256
30.6 28.1 1.6424
30.6 28.15 1.6568
30.6 28.200001 1.6584001
30.6 28.25 1.6624
30.6 28.299999 1.5896
30.6 28.35 1.5432
30.6 28.4 1.5168
30.6 28.450001 1.4512
30.6 28.5 1.4032
30.6 28.549999 1.34
30.6 28.6 1.2872
30.6 28.65 1.2328
30.6 28.700001 1.1655999
30.6 28.75 1.1176
30.6 28.799999 1.0184
30.6 28.85 0.9544
30.6 28.9 0.87360001
30.6 28.950001 0.78640002
30.6 29 0.74000001
30.6 29.049999 0.63679999
30.6 29.1 0.51279998
30.6 29.15 0.3976
30.6 29.200001 0.2784
30.6 29.25 0.099200003
30.6 29.299999 -0.043200001
30.6 29.35 -0.29280001
30.799999 22.75 0.77600002
30.799999 26.6 0.84399998
30.799999 26.65 0.89200002
30.799999 26.700001 0.9224
30.799999 26.75 0.93040001
30.799999 26.799999 0.94319999
30.799999 26.85 0.9368
30.799999 26.9 0.94559997
30.799999 26.950001 0.9368
30.799999 27 0.94319999
30.799999 27.049999 0.9472
30.799999 27.1 0.94
30.799999 27.15 0.93760002
30.799999 27.200001 0.93760002
30.799999 27.25 0.94160002
30.799999 27.299999 0.93040001
30.799999 27.35 0.9296
30.799999 27.4 0.94639999
30.799999 27.450001 0.94559997
30.799999 27.5 0.94239998
30.799999 27.549999 0.9368
30.799999 27.6 0.93760002
30.799999 27.65 0.9368
30.799999 27.700001 0.93919998
30.799999 27.75 0.94080001
30.799999 27.799999 0.94239998
30.799999 27.85 0.94480002
30.799999 27.9 0.95279998
30.799999 27.950001 1.0496
30.799999 28 1.252
30.799999 28.049999 1.4543999
30.799999 28.1 1.5136
30.799999 28.15 1.6184
30.799999 28.200001 1.652
30.799999 28.25 1.6528
30.799999 28.299999 1.6544
30.799999 28.35 1.6552
30.799999 28.4 1.6088001
30.799999 28.450001 1.5584
30.799999 28.5 1.488
30.799999 28.549999 1.456
30.799999 28.6 1.4048001
30.799999 28.65 1.3448
30.799999 28.700001 1.2808
30.799999 28.75 1.2072001
30.799999 28.799999 1.1528
30.799999 28.85 1.0984
30.799999 28.9 1.0416
30.799999 28.950001 0.94160002
30.799999 29 0.8488
30.799999 29.049999 0.7744
30.799999 29.1 0.67040002
30.799999 29.15 0.59359998
30.799999 29.200001 0.47279999
30.799999 29.25 0.3504
30.799999 29.299999 0.2032
30.799999 29.35 0.1
30.799999 29.4 -0.13680001
30.799999 29.450001 -0.352
31 22.65 0.70160002
31 26.799999 0.85039997
31 26.85 0.88800001
31 26.9 0.92320001
31 26.950001 0.93519998
31 27 0.93599999
31 27.049999 0.93760002
31 27.1 0.94080001
31 27.15 0.93760002
31 27.200001 0.94
31 27.25 0.94319999
31 27.299999 0.94
31 27.35 0.94
31 27.4 0.94080001
31 27.450001 0.9368
31 27.5 0.94319999
31 27.549999 0.94319999
31 27.6 0.93440002
31 27.65 0.93760002
31 27.700001 0.94239998
31 27.75 0.94319999
31 27.799999 0.94080001
31 27.85 0.93919998
31 27.9 0.94160002
31 27.950001 0.94800001
31 28 0.9544
31 28.049999 1.0488
31 28.1 1.2711999
31 28.15 1.4904
31 28.200001 1.5247999
31 28.25 1.6256
31 28.299999 1.648
31 28.35 1.6584001
31 28.4 1.6568
31 28.450001 1.64
31 28.5 1.5688
31 28.549999 1.5247999
31 28.6 1.4848
31 28.65 1.4335999
31 28.700001 1.3784
31 28.75 1.3048
31 28.799999 1.2624
31 28.85 1.2024
31 28.9 1.1303999
31 28.950001 1.0528001
31 29 0.98640001
31 29.049999 0.89679998
31 29.1 0.83600003
31 29.15 0.73119998
31 29.200001 0.63840002
31 29.25 0.58719999
31 29.299999 0.3976
31 29.35 0.28560001
31 29.4 0.1384
31 29.450001 -0.031199999
31 29.5 -0.2208
31 29.549999 -0.55199999
31.200001 26.950001 0.83520001
31.200001 27 0.87919998
31.200001 27.049999 0.90960002
31.200001 27.1 0.93040001
31.200001 27.15 0.94080001
31.200001 27.200001 0.93360001
31.200001 27.25 0.9368
31.200001 27.299999 0.94
31.200001 27.35 0.94080001
31.200001 27.4 0.93839997
31.200001 27.450001 0.94080001
31.200001 27.5 0.9368
31.200001 27.549999 0.94080001
31.200001 27.6 0.93760002
31.200001 27.65 0.9368
31.200001 27.700001 0.93440002
31.200001 27.75 0.93360001
31.200001 27.799999 0.9368
31.200001 27.85 0.94080001
31.200001 27.9 0.9368
31.200001 27.950001 0.93760002
31.200001 28 0.93760002
31.200001 28.049999 0.94880003
31.200001 28.1 0.96079999
31.200001 28.15 1.0824
31.200001 28.200001 1.3328
31.200001 28.25 1.4895999
31.200001 28.299999 1.5344
31.200001 28.35 1.6408
31.200001 28.4 1.656
31.200001 28.450001 1.6504
31.200001 28.5 1.6584001
31.200001 28.549999 1.6192
31.200001 28.6 1.5544
31.200001 28.65 1.5144
31.200001 28.700001 1.46
31.200001 28.75 1.4224
31.200001 28.799999 1.3448
31.200001 28.85 1.3024
31.200001 28.9 1.232
31.200001 28.950001 1.168
31.200001 29 1.0944
31.200001 29.049999 1.0328
31.200001 29.1 0.94959998
31.200001 29.15 0.8696
31.200001 29.200001 0.79040003
31.200001 29.25 0.67199999
31.200001 29.299999 0.5984
31.200001 29.35 0.47040001
31.200001 29.4 0.34
31.200001 29.450001 0.2184
31.200001 29.5 0.0832
31.200001 29.549999 -0.1664
31.200001 29.6 -0.47839999
31.4 27.1 0.8624
31.4 27.15 0.884
31.4 27.200001 0.9192
31.4 27.25 0.93279999
31.4 27.299999 0.93919998
31.4 27.35 0.93839997
31.4 27.4 0.94
31.4 27.450001 0.94080001
31.4 27.5 0.94
31.4 27.549999 0.9368
31.4 27.6 0.93279999
31.4 27.65 0.93279999
31.4 27.700001 0.93760002
31.4 27.75 0.93599999
31.4 27.799999 0.93120003
31.4 27.85 0.93199998
31.4 27.9 0.93760002
31.4 27.950001 0.93279999
31.4 28 0.93360001
31.4 28.049999 0.93919998
31.4 28.1 0.94080001
31.4 28.15 0.9544
31.4 28.200001 0.95520002
31.4 28.25 1.14
31.4 28.299999 1.4263999
31.4 28.35 1.5104001
31.4 28.4 1.6048
31.4 28.450001 1.6440001
31.4 28.5 1.656
31.4 28.549999 1.6552
31.4 28.6 1.6472
31.4 28.65 1.5832
31.4 28.700001 1.536
31.4 28.75 1.4864
31.4 28.799999 1.4344
31.4 28.85 1.3736
31.4 28.9 1.3415999
31.4 28.950001 1.2431999
31.4 29 1.188
31.4 29.049999 1.12
31.4 29.1 1.0608
31.4 29.15 0.9824
31.4 29.200001 0.90960002
31.4 29.25 0.82480001
31.4 29.299999 0.736
31.4 29.35 0.62080002
31.4 29.4 0.52880001
31.4 29.450001 0.3976
31.4 29.5 0.2568
31.4 29.549999 0.087200001
31.4 29.6 -0.028000001
31.4 29.65 -0.32159999
31.6 27.200001 0.81599998
31.6 27.25 0.85519999
31.6 27.299999 0.90880001
31.6 27.35 0.9368
31.6 27.4 0.93519998
31.6 27.450001 0.93279999
31.6 27.5 0.93599999
31.6 27.549999 0.93279999
31.6 27.6 0.94
31.6 27.65 0.93199998
31.6 27.700001 0.93199998
31.6 27.75 0.93360001
31.6 27.799999 0.94
31.6 27.85 0.93440002
31.6 27.9 0.93599999
31.6 27.950001 0.93440002
31.6 28 0.93519998
31.6 28.049999 0.93839997
31.6 28.1 0.93440002
31.6 28.15 0.94559997
31.6 28.200001 0.94959998
31.6 28.25 0.95039999
31.6 28.299999 0.98320001
31.6 28.35 1.3032
31.6 28.4 1.4928
31.6 28.450001 1.5328
31.6 28.5 1.6432
31.6 28.549999 1.6536
31.6 28.6 1.6592
31.6 28.65 1.656
31.6 28.700001 1.6064
31.6 28.75 1.5568
31.6 28.799999 1.5096
31.6 28.85 1.4528
31.6 28.9 1.3968
31.6 28.950001 1.344
31.6 29 1.284
31.6 29.049999 1.22
31.6 29.1 1.1528
31.6 29.15 1.0856
31.6 29.200001 1.012
31.6 29.25 0.93519998
31.6 29.299999 0.8488
31.6 29.35 0.76880002
31.6 29.4 0.66799998
31.6 29.450001 0.53839999
31.6 29.5 0.45840001
31.6 29.549999 0.29679999
31.6 29.6 0.20720001
31.6 29.65 -0.028000001
31.799999 27.299999 0.83840001
31.799999 27.35 0.87919998
31.799999 27.4 0.91680002
31.799999 27.450001 0.93040001
31.799999 27.5 0.93519998
31.799999 27.549999 0.93440002
31.799999 27.6 0.9368
31.799999 27.65 0.92879999
31.799999 27.700001 0.92879999
31.799999 27.75 0.92640001
31.799999 27.799999 0.93440002
31.799999 27.85 0.93519998
31.799999 27.9 0.94239998
31.799999 27.950001 0.93519998
31.799999 28 0.93760002
31.799999 28.049999 0.93519998
31.799999 28.1 0.93519998
31.799999 28.15 0.93919998
31.799999 28.200001 0.93760002
31.799999 28.25 0.94080001
31.799999 28.299999 0.94080001
31.799999 28.35 0.95920002
31.799999 28.4 1.1384
31.799999 28.450001 1.4712
31.799999 28.5 1.5128
31.799999 28.549999 1.6344
31.799999 28.6 1.6544
31.799999 28.65 1.6528
31.799999 28.700001 1.656
31.799999 28.75 1.6264
31.799999 28.799999 1.5648
31.799999 28.85 1.5112
31.799999 28.9 1.4608001
31.799999 28.950001 1.4224
31.799999 29 1.3496
31.799999 29.049999 1.2936
31.799999 29.1 1.2384
31.799999 29.15 1.1616
31.799999 29.200001 1.1064
31.799999 29.25 1.0376
31.799999 29.299999 0.94639999
31.799999 29.35 0.88239998
31.799999 29.4 0.78079998
31.799999 29.450001 0.6864
31.799999 29.5 0.57679999
31.799999 29.549999 0.46079999
31.799999 29.6 0.32640001
31.799999 29.65 0.20720001
31.799999 29.700001 0.0416
32 27.4 0.8488
32 27.450001 0.89840001
32 27.5 0.92879999
32 27.549999 0.93279999
32 27.6 0.93279999
32 27.65 0.93599999
32 27.700001 0.92799997
32 27.75 0.93360001
32 27.799999 0.93440002
32 27.85 0.9368
32 27.9 0.9296
32 27.950001 0.93599999
32 28 0.93279999
32 28.049999 0.93839997
32 28.1 0.93360001
32 28.15 0.93599999
32 28.200001 0.93199998
32 28.25 0.94
32 28.299999 0.93760002
32 28.35 0.94400001
32 28.4 0.95279998
32 28.450001 1.0048
32 28.5 1.4552
32 28.549999 1.5072
32 28.6 1.572
32 28.65 1.6440001
32 28.700001 1.6528
32 28.75 1.6504
32 28.799999 1.6336
32 28.85 1.5848
32 28.9 1.528
32 28.950001 1.492
32 29 1.4263999
32 29.049999 1.3608
32 29.1 1.2984
32 29.15 1.2552
32 29.200001 1.1799999
32 29.25 1.1112
32 29.299999 1.0304
32 29.35 0.96399999
32 29.4 0.87360001
32 29.450001 0.792
32 29.5 0.68400002
32 29.549999 0.60320002
32 29.6 0.4752
32 29.65 0.35440001
32 29.700001 0.1864
32 29.75 0.0504
32 29.799999 -0.17200001
32.200001 27.450001 0.84640002
32.200001 27.5 0.89679998
32.200001 27.549999 0.92479998
32.200001 27.6 0.92799997
32.200001 27.65 0.93760002
32.200001 27.700001 0.94
32.200001 27.75 0.9296
32.200001 27.799999 0.93120003
32.200001 27.85 0.9368
32.200001 27.9 0.93440002
32.200001 27.950001 0.93360001
32.200001 28 0.93360001
32.200001 28.049999 0.93360001
32.200001 28.1 0.93599999
32.200001 28.15 0.93919998
32.200001 28.200001 0.93760002
32.200001 28.25 0.93760002
32.200001 28.299999 0.93919998
32.200001 28.35 0.93519998
32.200001 28.4 0.94080001
32.200001 28.450001 0.94959998
32.200001 28.5 0.9576
32.200001 28.549999 1.3
32.200001 28.6 1.4992
32.200001 28.65 1.5504
32.200001 28.700001 1.6447999
32.200001 28.75 1.6544
32.200001 28.799999 1.6464
32.200001 28.85 1.6416
32.200001 28.9 1.5864
32.200001 28.950001 1.5424
32.200001 29 1.4823999
32.200001 29.049999 1.428
32.200001 29.1 1.3752
32.200001 29.15 1.3112
32.200001 29.200001 1.2656
32.200001 29.25 1.184
32.200001 29.299999 1.1184
32.200001 29.35 1.0512
32.200001 29.4 0.98559999
32.200001 29.450001 0.88080001
32.200001 29.5 0.79119998
32.200001 29.549999 0.70560002
32.200001 29.6 0.60960001
32.200001 29.65 0.4928
32.200001 29.700001 0.35839999
32.200001 29.75 0.24879999
32.200001 29.799999 0.040800001
32.200001 29.85 -0.17120001
32.400002 27.5 0.84799999
32.400002 27.549999 0.91119999
32.400002 27.6 0.92479998
32.400002 27.65 0.92799997
32.400002 27.700001 0.93440002
32.400002 27.75 0.93599999
32.400002 27.799999 0.93599999
32.400002 27.85 0.93199998
32.400002 27.9 0.93120003
32.400002 27.950001 0.93360001
32.400002 28 0.92879999
32.400002 28.049999 0.93919998
32.400002 28.1 0.9296
32.400002 28.15 0.94
32.400002 28.200001 0.93839997
32.400002 28.25 0.93919998
32.400002 28.299999 0.93919998
32.400002 28.35 0.93839997
32.400002 28.4 0.94080001
32.400002 28.450001 0.93839997
32.400002 28.5 0.9472
32.400002 28.549999 0.95039999
32.400002 28.6 1.2656
32.400002 28.65 1.4976
32.400002 28.700001 1.5504
32.400002 28.75 1.6392
32.400002 28.799999 1.652
32.400002 28.85 1.6576
32.400002 28.9 1.6464
32.400002 28.950001 1.5808001
32.400002 29 1.5319999
32.400002 29.049999 1.4872
32.400002 29.1 1.4432
32.400002 29.15 1.3808
32.400002 29.200001 1.3192
32.400002 29.25 1.2711999
32.400002 29.299999 1.1872
32.400002 29.35 1.1176
32.400002 29.4 1.0416
32.400002 29.450001 0.96160001
32.400002 29.5 0.88319999
32.400002 29.549999 0.79280001
32.400002 29.6 0.67439997
32.400002 29.65 0.59680003
32.400002 29.700001 0.47679999
32.400002 29.75 0.352
32.400002 29.799999 0.21439999
32.400002 29.85 0.047200002
32.599998 27.549999 0.88800001
32.599998 27.6 0.92799997
32.599998 27.65 0.93120003
32.599998 27.700001 0.93279999
32.599998 27.75 0.94
32.599998 27.799999 0.92799997
32.599998 27.85 0.93040001
32.599998 27.9 0.93440002
32.599998 27.950001 0.93279999
32.599998 28 0.92640001
32.599998 28.049999 0.93440002
32.599998 28.1 0.93199998
32.599998 28.15 0.9368
32.599998 28.200001 0.94080001
32.599998 28.25 0.93519998
32.599998 28.299999 0.94080001
32.599998 28.35 0.93440002
32.599998 28.4 0.93279999
32.599998 28.450001 0.94
32.599998 28.5 0.93519998
32.599998 28.549999 0.94400001
32.599998 28.6 0.94880003
32.599998 28.65 1.2088
32.599998 28.700001 1.5
32.599998 28.75 1.5472
32.599998 28.799999 1.64
32.599998 28.85 1.6496
32.599998 28.9 1.6536
32.599998 28.950001 1.6464
32.599998 29 1.5832
32.599998 29.049999 1.5352
32.599998 29.1 1.4816
32.599998 29.15 1.4424
32.599998 29.200001 1.368
32.599998 29.25 1.3168
32.599998 29.299999 1.2431999
32.599998 29.35 1.1824
32.599998 29.4 1.1064
32.599998 29.450001 1.0352
32.599998 29.5 0.96880001
32.599998 29.549999 0.86799997
32.599998 29.6 0.79040003
32.599998 29.65 0.69999999
32.599998 29.700001 0.5848
32.599998 29.75 0.4648
32.599998 29.799999 0.3328
32.599998 29.85 0.184
32.799999 27.549999 0.85680002
32.799999 27.6 0.92000002
32.799999 27.65 0.9296
32.799999 27.700001 0.93760002
32.799999 27.75 0.93199998
32.799999 27.799999 0.9368
32.799999 27.85 0.93599999
32.799999 27.9 0.93440002
32.799999 27.950001 0.92559999
32.799999 28 0.93120003
32.799999 28.049999 0.93120003
32.799999 28.1 0.93360001
32.799999 28.15 0.93599999
32.799999 28.200001 0.94080001
32.799999 28.25 0.93120003
32.799999 28.299999 0.93760002
32.799999 28.35 0.9368
32.799999 28.4 0.93360001
32.799999 28.450001 0.93839997
32.799999 28.5 0.94319999
32.799999 28.549999 0.94080001
32.799999 28.6 0.94480002
32.799999 28.65 0.93919998
32.799999 28.700001 1.1504
32.799999 28.75 1.4967999
32.799999 28.799999 1.5528001
32.799999 28.85 1.6447999
32.799999 28.9 1.6552
32.799999 28.950001 1.648
32.799999 29 1.652
32.799999 29.049999 1.5776
32.799999 29.1 1.524
32.799999 29.15 1.4768
32.799999 29.200001 1.42
32.799999 29.25 1.3528
32.799999 29.299999 1.3128
32.799999 29.35 1.2376
32.799999 29.4 1.1808
32.799999 29.450001 1.0944
32.799999 29.5 1.028
32.799999 29.549999 0.94639999
32.799999 29.6 0.8592
32.799999 29.65 0.77280003
32.799999 29.700001 0.67519999
32.799999 29.75 0.55760002
32.799999 29.799999 0.44319999
32.799999 29.85 0.30880001
32.799999 29.9 0.1736
32.799999 29.950001 -0.0128
33 27.549999 0.8696
33 27.6 0.92479998
33 27.65 0.92799997
33 27.700001 0.93120003
33 27.75 0.93279999
33 27.799999 0.93440002
33 27.85 0.93360001
33 27.9 0.93360001
33 27.950001 0.9368
33 28 0.93279999
33 28.049999 0.92879999
33 28.1 0.93279999
33 28.15 0.93440002
33 28.200001 0.93839997
33 28.25 0.9368
33 28.299999 0.93440002
33 28.35 0.94319999
33 28.4 0.9368
33 28.450001 0.94080001
33 28.5 0.93519998
33 28.549999 0.93760002
33 28.6 0.93440002
33 28.65 0.9472
33 28.700001 0.94319999
33 28.75 1.2232
33 28.799999 1.5032001
33 28.85 1.5792
33 28.9 1.6528
33 28.950001 1.6536
33 29 1.648
33 29.049999 1.6384
33 29.1 1.5728
33 29.15 1.5176001
33 29.200001 1.472
33 29.25 1.4104
33 29.299999 1.368
33 29.35 1.2848001
33 29.4 1.2176
33 29.450001 1.1528
33 29.5 1.1008
33 29.549999 1.0048
33 29.6 0.92799997
33 29.65 0.84640002
33 29.700001 0.74879998
33 29.75 0.63599998
33 29.799999 0.53119999
33 29.85 0.43200001
33 29.9 0.26480001
33 29.950001 0.1216
33.200001 27.549999 0.87120003
33.200001 27.6 0.92320001
33.200001 27.65 0.92159998
33.200001 27.700001 0.93279999
33.200001 27.75 0.93519998
33.200001 27.799999 0.93360001
33.200001 27.85 0.93440002
33.200001 27.9 0.93199998
33.200001 27.950001 0.93440002
33.200001 28 0.93440002
33.200001 28.049999 0.93279999
33.200001 28.1 0.93040001
33.200001 28.15 0.93440002
33.200001 28.200001 0.93519998
33.200001 28.25 0.93760002
33.200001 28.299999 0.93519998
33.200001 28.35 0.93519998
33.200001 28.4 0.9368
33.200001 28.450001 0.94
33.200001 28.5 0.94080001
33.200001 28.549999 0.93760002
33.200001 28.6 0.94080001
33.200001 28.65 0.93599999
33.200001 28.700001 0.94239998
33.200001 28.75 0.92559999
33.200001 28.799999 1.48
33.200001 28.85 1.5024
33.200001 28.9 1.6344
33.200001 28.950001 1.6512001
33.200001 29 1.6568
33.200001 29.049999 1.6488
33.200001 29.1 1.6152
33.200001 29.15 1.5648
33.200001 29.200001 1.5032001
33.200001 29.25 1.4464
33.200001 29.299999 1.3968
33.200001 29.35 1.3152
33.200001 29.4 1.2728
33.200001 29.450001 1.2007999
33.200001 29.5 1.1424
33.200001 29.549999 1.0608
33.200001 29.6 0.97680002
33.200001 29.65 0.89840001
33.200001 29.700001 0.80559999
33.200001 29.75 0.7184
33.200001 29.799999 0.61839998
33.200001 29.85 0.4984
33.200001 29.9 0.37200001
33.200001 29.950001 0.2024
33.400002 27.549999 0.86559999
33.400002 27.6 0.91839999
33.400002 27.65 0.92479998
33.400002 27.700001 0.93279999
33.400002 27.75 0.92879999
33.400002 27.799999 0.93440002
33.400002 27.85 0.93839997
33.400002 27.9 0.93440002
33.400002 27.950001 0.93120003
33.400002 28 0.93279999
33.400002 28.049999 0.93919998
33.400002 28.1 0.94080001
33.400002 28.15 0.93440002
33.400002 28.200001 0.93599999
33.400002 28.25 0.93440002
33.400002 28.299999 0.93279999
33.400002 28.35 0.93839997
33.400002 28.4 0.93440002
33.400002 28.450001 0.93279999
33.400002 28.5 0.93440002
33.400002 28.549999 0.93760002
33.400002 28.6 0.94160002
33.400002 28.65 0.93839997
33.400002 28.700001 0.93839997
33.400002 28.75 0.94239998
33.400002 28.799999 0.9152
33.400002 28.85 1.4912
33.400002 28.9 1.5272
