# .PCD v0.7 - Point Cloud Data file format
VERSION 0.7
FIELDS x y z
SIZE 4 4 4
TYPE F F F
COUNT 1 1 1
WIDTH 1971
HEIGHT 1
VIEWPOINT 0 0 0 1 0 0 0
POINTS 1971
DATA ascii
87.800003 28.450001 0.168
87.800003 28.5 0.1656
87.800003 28.549999 0.1608
87.800003 28.6 0.1576
87.800003 28.65 0.16159999
87.800003 28.700001 0.16240001
87.800003 28.75 0.16159999
87.800003 28.799999 0.1568
87.800003 28.85 0.1488
87.800003 28.9 0.1488
87.800003 28.950001 0.1504
87.800003 29 0.1512
87.800003 29.049999 0.152
87.800003 29.1 0.1464
87.800003 29.15 0.14399999
87.800003 29.200001 0.15360001
87.800003 29.25 0.152
87.800003 29.299999 0.15279999
87.800003 29.35 0.1568
87.800003 29.4 0.152
87.800003 29.450001 0.15360001
87.800003 29.5 0.1584
87.800003 29.549999 0.15360001
87.800003 29.6 0.152
87.800003 29.65 0.15440001
87.800003 29.700001 0.15440001
87.800003 29.75 0.1592
87.800003 29.799999 0.1576
87.800003 29.85 0.1576
87.800003 29.9 0.1576
87.800003 29.950001 0.15440001
87.800003 30 0.15440001
87.800003 30.049999 0.1576
87.800003 30.1 0.1496
87.800003 30.15 0.156
87.800003 30.200001 0.1608
87.800003 30.25 0.1584
87.800003 30.299999 0.1664
87.800003 30.35 0.1576
87.800003 30.4 0.1256
87.800003 30.450001 0.43279999
87.800003 30.5 0.73680001
87.800003 30.549999 0.73199999
87.800003 30.6 0.87040001
87.800003 30.65 0.86080003
87.800003 30.700001 0.87120003
87.800003 30.75 0.8624
87.800003 30.799999 0.8448
87.800003 30.85 0.80479997
87.800003 30.9 0.76880002
87.800003 30.950001 0.72479999
87.800003 31 0.67919999
87.800003 31.049999 0.63279998
87.800003 31.1 0.56720001
87.800003 31.15 0.53119999
87.800003 31.200001 0.46560001
87.800003 31.25 0.412
88 20 0.27599999
88 20.049999 0.27360001
88 20.1 0.28
88 20.15 0.27919999
88 20.200001 0.27520001
88 20.25 0.27680001
88 20.299999 0.2816
88 20.35 0.28
88 20.4 0.27360001
88 20.450001 0.28479999
88 20.5 0.28
88 20.549999 0.27759999
88 20.6 0.27680001
88 20.65 0.26800001
88 20.700001 0.26719999
88 20.75 0.2656
88 20.799999 0.26719999
88 20.85 0.27520001
88 20.9 0.28639999
88 20.950001 0.27200001
88 21 0.27520001
88 21.049999 0.2656
88 21.1 0.2656
88 21.15 0.25999999
88 21.200001 0.25999999
88 21.25 0.26320001
88 21.299999 0.25760001
88 21.35 0.25040001
88 21.4 0.23999999
88 21.450001 0.248
88 21.5 0.244
88 21.549999 0.248
88 21.6 0.24160001
88 21.65 0.2464
88 21.700001 0.24240001
88 21.75 0.25279999
88 21.799999 0.25119999
88 21.85 0.2552
88 21.9 0.26879999
88 21.950001 0.38159999
88 22 0.2552
88 22.049999 0.25440001
88 22.1 0.2568
88 22.15 0.25839999
88 22.200001 0.252
88 22.25 0.252
88 22.299999 0.25600001
88 22.35 0.25279999
88 22.4 0.24879999
88 22.450001 0.2552
88 22.5 0.244
88 22.549999 0.2456
88 22.6 0.2448
88 22.65 0.2456
88 22.700001 0.2456
88 22.75 0.2448
88 22.799999 0.24160001
88 22.85 0.2352
88 22.9 0.22400001
88 22.950001 0.2272
88 23 0.2352
88 23.049999 0.2288
88 23.1 0.2384
88 23.15 0.23280001
88 23.200001 0.2384
88 23.25 0.24079999
88 23.299999 0.2256
88 23.35 0.22480001
88 23.4 0.2256
88 23.450001 0.2288
88 23.5 0.2304
88 23.549999 0.23119999
88 23.6 0.22480001
88 23.65 0.2264
88 23.700001 0.2296
88 23.75 0.23360001
88 23.799999 0.2296
88 23.85 0.24079999
88 23.9 0.23199999
88 23.950001 0.2176
88 24 0.2184
88 24.049999 0.22
88 24.1 0.2184
88 24.15 0.2296
88 24.200001 0.2264
88 24.25 0.228
88 24.299999 0.2168
88 24.35 0.21520001
88 24.4 0.2128
88 24.450001 0.212
88 24.5 0.21520001
88 24.549999 0.21439999
88 24.6 0.21359999
88 24.65 0.22400001
88 24.700001 0.21359999
88 24.75 0.2096
88 24.799999 0.2096
88 24.85 0.2128
88 24.9 0.21359999
88 24.950001 0.2128
88 25 0.2112
88 25.049999 0.21520001
88 25.1 0.208
88 25.15 0.212
88 25.200001 0.2104
88 25.25 0.2112
88 25.299999 0.20559999
88 25.35 0.20559999
88 25.4 0.20640001
88 25.450001 0.212
88 25.5 0.20640001
88 25.549999 0.20720001
88 25.6 0.20479999
88 25.65 0.2032
88 25.700001 0.19679999
88 25.75 0.1936
88 25.799999 0.2008
88 25.85 0.20479999
88 25.9 0.2024
88 25.950001 0.204
88 26 0.2016
88 26.049999 0.1944
88 26.1 0.1992
88 26.15 0.2
88 26.200001 0.19840001
88 26.25 0.1992
88 26.299999 0.1992
88 26.35 0.19679999
88 26.4 0.19760001
88 26.450001 0.2016
88 26.5 0.19760001
88 26.549999 0.1936
88 26.6 0.192
88 26.65 0.1944
88 26.700001 0.19679999
88 26.75 0.1912
88 26.799999 0.1912
88 26.85 0.19599999
88 26.9 0.18960001
88 26.950001 0.18880001
88 27 0.1904
88 27.049999 0.18880001
88 27.1 0.18799999
88 27.15 0.18719999
88 27.200001 0.1848
88 27.25 0.18799999
88 27.299999 0.1816
88 27.35 0.1824
88 27.4 0.1816
88 27.450001 0.176
88 27.5 0.1736
88 27.549999 0.1664
88 27.6 0.1552
88 27.65 0.1584
88 27.700001 0.16240001
88 27.75 0.1608
88 27.799999 0.16
88 27.85 0.1672
88 27.9 0.17120001
88 27.950001 0.1696
88 28 0.1576
88 28.049999 0.1648
88 28.1 0.1672
88 28.15 0.164
88 28.200001 0.1656
88 28.25 0.1584
88 28.299999 0.1608
88 28.35 0.164
88 28.4 0.1656
88 28.450001 0.16240001
88 28.5 0.16240001
88 28.549999 0.1656
88 28.6 0.1736
88 28.65 0.18000001
88 28.700001 0.1672
88 28.75 0.15440001
88 28.799999 0.1552
88 28.85 0.1568
88 28.9 0.152
88 28.950001 0.1576
88 29 0.15279999
88 29.049999 0.1512
88 29.1 0.1512
88 29.15 0.1496
88 29.200001 0.156
88 29.25 0.16
88 29.299999 0.15279999
88 29.35 0.1512
88 29.4 0.1576
88 29.450001 0.1592
88 29.5 0.156
88 29.549999 0.16159999
88 29.6 0.15440001
88 29.65 0.1592
88 29.700001 0.1576
88 29.75 0.1576
88 29.799999 0.1552
88 29.85 0.1608
88 29.9 0.16
88 29.950001 0.1584
88 30 0.15440001
88 30.049999 0.1576
88 30.1 0.1592
88 30.15 0.16159999
88 30.200001 0.1584
88 30.25 0.112
88 30.299999 0.29840001
88 30.35 0.73199999
88 30.4 0.73439997
88 30.450001 0.86879998
88 30.5 0.87040001
88 30.549999 0.87360001
88 30.6 0.8696
88 30.65 0.84560001
88 30.700001 0.83039999
88 30.75 0.78079998
88 30.799999 0.73760003
88 30.85 0.69999999
88 30.9 0.6408
88 30.950001 0.588
88 31 0.54799998
88 31.049999 0.49680001
88 31.1 0.43279999
88 31.15 0.37040001
88 31.200001 0.308
88 31.25 0.2448
88 31.299999 0.18799999
88 31.35 0.1152
88.199997 20 0.28479999
88.199997 20.049999 0.292
88.199997 20.1 0.29440001
88.199997 20.15 0.29280001
88.199997 20.200001 0.29679999
88.199997 20.25 0.29280001
88.199997 20.299999 0.28960001
88.199997 20.35 0.29359999
88.199997 20.4 0.2904
88.199997 20.450001 0.2816
88.199997 20.5 0.28639999
88.199997 20.549999 0.2784
88.199997 20.6 0.28400001
88.199997 20.65 0.26800001
88.199997 20.700001 0.27520001
88.199997 20.75 0.28
88.199997 20.799999 0.2744
88.199997 20.85 0.2696
88.199997 20.9 0.27599999
88.199997 20.950001 0.2656
88.199997 21 0.28560001
88.199997 21.049999 0.28479999
88.199997 21.1 0.2712
88.199997 21.15 0.264
88.199997 21.200001 0.25279999
88.199997 21.25 0.2376
88.199997 21.299999 0.24959999
88.199997 21.35 0.2624
88.199997 21.4 0.25119999
88.199997 21.450001 0.2568
88.199997 21.5 0.25920001
88.199997 21.549999 0.248
88.199997 21.6 0.25600001
88.199997 21.65 0.2464
88.199997 21.700001 0.2432
88.199997 21.75 0.248
88.199997 21.799999 0.24959999
88.199997 21.85 0.25999999
88.199997 21.9 0.25760001
88.199997 21.950001 0.25119999
88.199997 22 0.25999999
88.199997 22.049999 0.2552
88.199997 22.1 0.25040001
88.199997 22.15 0.25040001
88.199997 22.200001 0.2432
88.199997 22.25 0.252
88.199997 22.299999 0.2384
88.199997 22.35 0.2352
88.199997 22.4 0.244
88.199997 22.450001 0.2392
88.199997 22.5 0.2352
88.199997 22.549999 0.2392
88.199997 22.6 0.244
88.199997 22.65 0.2368
88.199997 22.700001 0.2376
88.199997 22.75 0.23999999
88.199997 22.799999 0.2384
88.199997 22.85 0.2368
88.199997 22.9 0.24079999
88.199997 22.950001 0.23999999
88.199997 23 0.23199999
88.199997 23.049999 0.2344
88.199997 23.1 0.2368
88.199997 23.15 0.23199999
88.199997 23.200001 0.2344
88.199997 23.25 0.23199999
88.199997 23.299999 0.23360001
88.199997 23.35 0.23199999
88.199997 23.4 0.2288
88.199997 23.450001 0.2304
88.199997 23.5 0.2296
88.199997 23.549999 0.2272
88.199997 23.6 0.2256
88.199997 23.65 0.23280001
88.199997 23.700001 0.228
88.199997 23.75 0.2288
88.199997 23.799999 0.22319999
88.199997 23.85 0.2256
88.199997 23.9 0.22319999
88.199997 23.950001 0.22
88.199997 24 0.2288
88.199997 24.049999 0.2344
88.199997 24.1 0.22
88.199997 24.15 0.22400001
88.199997 24.200001 0.2192
88.199997 24.25 0.2216
88.199997 24.299999 0.2176
88.199997 24.35 0.2168
88.199997 24.4 0.21520001
88.199997 24.450001 0.2208
88.199997 24.5 0.2192
88.199997 24.549999 0.21439999
88.199997 24.6 0.21439999
88.199997 24.65 0.2128
88.199997 24.700001 0.21359999
88.199997 24.75 0.21359999
88.199997 24.799999 0.2168
88.199997 24.85 0.21520001
88.199997 24.9 0.21600001
88.199997 24.950001 0.208
88.199997 25 0.212
88.199997 25.049999 0.2104
88.199997 25.1 0.20720001
88.199997 25.15 0.2088
88.199997 25.200001 0.2088
88.199997 25.25 0.2104
88.199997 25.299999 0.20640001
88.199997 25.35 0.20640001
88.199997 25.4 0.20720001
88.199997 25.450001 0.20720001
88.199997 25.5 0.20720001
88.199997 25.549999 0.208
88.199997 25.6 0.20559999
88.199997 25.65 0.208
88.199997 25.700001 0.2032
88.199997 25.75 0.204
88.199997 25.799999 0.20720001
88.199997 25.85 0.2008
88.199997 25.9 0.204
88.199997 25.950001 0.20479999
88.199997 26 0.2016
88.199997 26.049999 0.2024
88.199997 26.1 0.2008
88.199997 26.15 0.19760001
88.199997 26.200001 0.19679999
88.199997 26.25 0.1944
88.199997 26.299999 0.192
88.199997 26.35 0.1928
88.199997 26.4 0.19599999
88.199997 26.450001 0.1936
88.199997 26.5 0.1912
88.199997 26.549999 0.1944
88.199997 26.6 0.1912
88.199997 26.65 0.1928
88.199997 26.700001 0.1904
88.199997 26.75 0.192
88.199997 26.799999 0.1936
88.199997 26.85 0.1992
88.199997 26.9 0.1944
88.199997 26.950001 0.1928
88.199997 27 0.192
88.199997 27.049999 0.192
88.199997 27.1 0.1912
88.199997 27.15 0.18799999
88.199997 27.200001 0.18960001
88.199997 27.25 0.1856
88.199997 27.299999 0.18799999
88.199997 27.35 0.192
88.199997 27.4 0.1904
88.199997 27.450001 0.1824
88.199997 27.5 0.18080001
88.199997 27.549999 0.1584
88.199997 27.6 0.156
88.199997 27.65 0.164
88.199997 27.700001 0.164
88.199997 27.75 0.164
88.199997 27.799999 0.1608
88.199997 27.85 0.1608
88.199997 27.9 0.16240001
88.199997 27.950001 0.1584
88.199997 28 0.1608
88.199997 28.049999 0.164
88.199997 28.1 0.1648
88.199997 28.15 0.1648
88.199997 28.200001 0.156
88.199997 28.25 0.164
88.199997 28.299999 0.16240001
88.199997 28.35 0.16320001
88.199997 28.4 0.1648
88.199997 28.450001 0.1664
88.199997 28.5 0.156
88.199997 28.549999 0.15279999
88.199997 28.6 0.1592
88.199997 28.65 0.1576
88.199997 28.700001 0.1648
88.199997 28.75 0.1664
88.199997 28.799999 0.1608
88.199997 28.85 0.16240001
88.199997 28.9 0.1576
88.199997 28.950001 0.1608
88.199997 29 0.16
88.199997 29.049999 0.1552
88.199997 29.1 0.1608
88.199997 29.15 0.16159999
88.199997 29.200001 0.1672
88.199997 29.25 0.16
88.199997 29.299999 0.1568
88.199997 29.35 0.1592
88.199997 29.4 0.1648
88.199997 29.450001 0.164
88.199997 29.5 0.1576
88.199997 29.549999 0.1584
88.199997 29.6 0.16159999
88.199997 29.65 0.15360001
88.199997 29.700001 0.156
88.199997 29.75 0.15360001
88.199997 29.799999 0.16159999
88.199997 29.85 0.164
88.199997 29.9 0.1584
88.199997 29.950001 0.1664
88.199997 30 0.1672
88.199997 30.049999 0.1424
88.199997 30.1 0.1112
88.199997 30.15 0.3224
88.199997 30.200001 0.7392
88.199997 30.25 0.74000001
88.199997 30.299999 0.87519997
88.199997 30.35 0.86879998
88.199997 30.4 0.87040001
88.199997 30.450001 0.86879998
88.199997 30.5 0.86080003
88.199997 30.549999 0.82800001
88.199997 30.6 0.78640002
88.199997 30.65 0.74959999
88.199997 30.700001 0.69999999
88.199997 30.75 0.65759999
88.199997 30.799999 0.60640001
88.199997 30.85 0.57200003
88.199997 30.9 0.49680001
88.199997 30.950001 0.46399999
88.199997 31 0.3928
88.400002 20 0.28080001
88.400002 20.049999 0.29359999
88.400002 20.1 0.29679999
88.400002 20.15 0.29840001
88.400002 20.200001 0.29840001
88.400002 20.25 0.29840001
88.400002 20.299999 0.29359999
88.400002 20.35 0.2976
88.400002 20.4 0.28479999
88.400002 20.450001 0.28960001
88.400002 20.5 0.30320001
88.400002 20.549999 0.29120001
88.400002 20.6 0.2816
88.400002 20.65 0.26480001
88.400002 20.700001 0.26719999
88.400002 20.75 0.26719999
88.400002 20.799999 0.2696
88.400002 20.85 0.2608
88.400002 20.9 0.2712
88.400002 20.950001 0.26800001
88.400002 21 0.2696
88.400002 21.049999 0.26480001
88.400002 21.1 0.25279999
88.400002 21.15 0.25040001
88.400002 21.200001 0.25119999
88.400002 21.25 0.25119999
88.400002 21.299999 0.25279999
88.400002 21.35 0.2464
88.400002 21.4 0.25040001
88.400002 21.450001 0.25440001
88.400002 21.5 0.25040001
88.400002 21.549999 0.248
88.400002 21.6 0.25279999
88.400002 21.65 0.252
88.400002 21.700001 0.25279999
88.400002 21.75 0.2472
88.400002 21.799999 0.24879999
88.400002 21.85 0.244
88.400002 21.9 0.24959999
88.400002 21.950001 0.2472
88.400002 22 0.2568
88.400002 22.049999 0.24240001
88.400002 22.1 0.24079999
88.400002 22.15 0.24160001
88.400002 22.200001 0.24240001
88.400002 22.25 0.248
88.400002 22.299999 0.2464
88.400002 22.35 0.2448
88.400002 22.4 0.24079999
88.400002 22.450001 0.244
88.400002 22.5 0.23280001
88.400002 22.549999 0.23360001
88.400002 22.6 0.2432
88.400002 22.65 0.2352
88.400002 22.700001 0.23280001
88.400002 22.75 0.236
88.400002 22.799999 0.2376
88.400002 22.85 0.23999999
88.400002 22.9 0.23999999
88.400002 22.950001 0.23119999
88.400002 23 0.2376
88.400002 23.049999 0.23360001
88.400002 23.1 0.2376
88.400002 23.15 0.2344
88.400002 23.200001 0.23280001
88.400002 23.25 0.22480001
88.400002 23.299999 0.2376
88.400002 23.35 0.2288
88.400002 23.4 0.2304
88.400002 23.450001 0.23199999
88.400002 23.5 0.23119999
88.400002 23.549999 0.2376
88.400002 23.6 0.23119999
88.400002 23.65 0.23119999
88.400002 23.700001 0.2288
88.400002 23.75 0.2272
88.400002 23.799999 0.2344
88.400002 23.85 0.2272
88.400002 23.9 0.22480001
88.400002 23.950001 0.2192
88.400002 24 0.22239999
88.400002 24.049999 0.2184
88.400002 24.1 0.2184
88.400002 24.15 0.2184
88.400002 24.200001 0.2192
88.400002 24.25 0.2192
88.400002 24.299999 0.21600001
88.400002 24.35 0.2176
88.400002 24.4 0.2176
88.400002 24.450001 0.2184
88.400002 24.5 0.22
88.400002 24.549999 0.21439999
88.400002 24.6 0.2184
88.400002 24.65 0.2128
88.400002 24.700001 0.2128
88.400002 24.75 0.2112
88.400002 24.799999 0.212
88.400002 24.85 0.212
88.400002 24.9 0.2112
88.400002 24.950001 0.2128
88.400002 25 0.212
88.400002 25.049999 0.2192
88.400002 25.1 0.2112
88.400002 25.15 0.212
88.400002 25.200001 0.212
88.400002 25.25 0.21359999
88.400002 25.299999 0.208
88.400002 25.35 0.2104
88.400002 25.4 0.2104
88.400002 25.450001 0.20720001
88.400002 25.5 0.20640001
88.400002 25.549999 0.20479999
88.400002 25.6 0.2024
88.400002 25.65 0.20479999
88.400002 25.700001 0.2024
88.400002 25.75 0.20559999
88.400002 25.799999 0.20559999
88.400002 25.85 0.2016
88.400002 25.9 0.19840001
88.400002 25.950001 0.1992
88.400002 26 0.1992
88.400002 26.049999 0.1992
88.400002 26.1 0.19760001
88.400002 26.15 0.1952
88.400002 26.200001 0.19760001
88.400002 26.25 0.1952
88.400002 26.299999 0.1912
88.400002 26.35 0.1944
88.400002 26.4 0.1944
88.400002 26.450001 0.1936
88.400002 26.5 0.1904
88.400002 26.549999 0.18880001
88.400002 26.6 0.1912
88.400002 26.65 0.18960001
88.400002 26.700001 0.1904
88.400002 26.75 0.18799999
88.400002 26.799999 0.1816
88.400002 26.85 0.18719999
88.400002 26.9 0.18719999
88.400002 26.950001 0.18799999
88.400002 27 0.18719999
88.400002 27.049999 0.18719999
88.400002 27.1 0.17919999
88.400002 27.15 0.18799999
88.400002 27.200001 0.1856
88.400002 27.25 0.17839999
88.400002 27.299999 0.18080001
88.400002 27.35 0.1864
88.400002 27.4 0.1856
88.400002 27.450001 0.17839999
88.400002 27.5 0.18000001
88.400002 27.549999 0.15279999
88.400002 27.6 0.1592
88.400002 27.65 0.1608
88.400002 27.700001 0.16
88.400002 27.75 0.1664
88.400002 27.799999 0.168
88.400002 27.85 0.1664
88.400002 27.9 0.1696
88.400002 27.950001 0.16320001
88.400002 28 0.1664
88.400002 28.049999 0.1648
88.400002 28.1 0.1664
88.400002 28.15 0.16240001
88.400002 28.200001 0.1608
88.400002 28.25 0.16240001
88.400002 28.299999 0.1648
88.400002 28.35 0.1608
88.400002 28.4 0.1648
88.400002 28.450001 0.1576
88.400002 28.5 0.16
88.400002 28.549999 0.16159999
88.400002 28.6 0.16
88.400002 28.65 0.1608
88.400002 28.700001 0.1584
88.400002 28.75 0.164
88.400002 28.799999 0.1568
88.400002 28.85 0.1584
88.400002 28.9 0.16320001
88.400002 28.950001 0.16
88.400002 29 0.16240001
88.400002 29.049999 0.16320001
88.400002 29.1 0.1608
88.400002 29.15 0.16159999
88.400002 29.200001 0.1728
88.400002 29.25 0.1568
88.400002 29.299999 0.1664
88.400002 29.35 0.1592
88.400002 29.4 0.16240001
88.400002 29.450001 0.1608
88.400002 29.5 0.1552
88.400002 29.549999 0.164
88.400002 29.6 0.1592
88.400002 29.65 0.1608
88.400002 29.700001 0.16240001
88.400002 29.75 0.1648
88.400002 29.799999 0.16320001
88.400002 29.85 0.1648
88.400002 29.9 0.1512
88.400002 29.950001 0.148
88.400002 30 0.62080002
88.400002 30.049999 0.7288
88.400002 30.1 0.7392
88.400002 30.15 0.87040001
88.400002 30.200001 0.8696
88.400002 30.25 0.8768
88.400002 30.299999 0.86559999
88.400002 30.35 0.84719998
88.400002 30.4 0.81199998
88.400002 30.450001 0.78320003
88.400002 30.5 0.75199997
88.400002 30.549999 0.70319998
88.400002 30.6 0.65920001
88.400002 30.65 0.60720003
88.400002 30.700001 0.58399999
88.400002 30.75 0.53039998
88.400002 30.799999 0.46799999
88.400002 30.85 0.4032
88.400002 30.9 0.35440001
88.599998 20 0.2888
88.599998 20.049999 0.2904
88.599998 20.1 0.29840001
88.599998 20.15 0.29679999
88.599998 20.200001 0.28960001
88.599998 20.25 0.29519999
88.599998 20.299999 0.28960001
88.599998 20.35 0.28639999
88.599998 20.4 0.28080001
88.599998 20.450001 0.2816
88.599998 20.5 0.28400001
88.599998 20.549999 0.2816
88.599998 20.6 0.2696
88.599998 20.65 0.26800001
88.599998 20.700001 0.26879999
88.599998 20.75 0.28
88.599998 20.799999 0.26640001
88.599998 20.85 0.2784
88.599998 20.9 0.27759999
88.599998 20.950001 0.27360001
88.599998 21 0.26879999
88.599998 21.049999 0.2784
88.599998 21.1 0.27520001
88.599998 21.15 0.26719999
88.599998 21.200001 0.26640001
88.599998 21.25 0.26640001
88.599998 21.299999 0.264
88.599998 21.35 0.26159999
88.599998 21.4 0.26320001
88.599998 21.450001 0.2608
88.599998 21.5 0.2608
88.599998 21.549999 0.2608
88.599998 21.6 0.25920001
88.599998 21.65 0.25839999
88.599998 21.700001 0.25839999
88.599998 21.75 0.2552
88.599998 21.799999 0.25600001
88.599998 21.85 0.25760001
88.599998 21.9 0.2536
88.599998 21.950001 0.2536
88.599998 22 0.252
88.599998 22.049999 0.2536
88.599998 22.1 0.24959999
88.599998 22.15 0.2536
88.599998 22.200001 0.25440001
88.599998 22.25 0.24879999
88.599998 22.299999 0.248
88.599998 22.35 0.2472
88.599998 22.4 0.24959999
88.599998 22.450001 0.25119999
88.599998 22.5 0.248
88.599998 22.549999 0.252
88.599998 22.6 0.24959999
88.599998 22.65 0.2448
88.599998 22.700001 0.2456
88.599998 22.75 0.24959999
88.599998 22.799999 0.2448
88.599998 22.85 0.248
88.599998 22.9 0.2464
88.599998 22.950001 0.24879999
88.599998 23 0.248
88.599998 23.049999 0.2448
88.599998 23.1 0.2456
88.599998 23.15 0.24879999
88.599998 23.200001 0.24959999
88.599998 23.25 0.2472
88.599998 23.299999 0.24879999
88.599998 23.35 0.24879999
88.599998 23.4 0.248
88.599998 23.450001 0.2448
88.599998 23.5 0.24879999
88.599998 23.549999 0.2464
88.599998 23.6 0.24079999
88.599998 23.65 0.2376
88.599998 23.700001 0.23199999
88.599998 23.75 0.2392
88.599998 23.799999 0.25040001
88.599998 23.85 0.2456
88.599998 23.9 0.2368
88.599998 23.950001 0.2384
88.599998 24 0.23999999
88.599998 24.049999 0.22480001
88.599998 24.1 0.2288
88.599998 24.15 0.2352
88.599998 24.200001 0.23119999
88.599998 24.25 0.228
88.599998 24.299999 0.2176
88.599998 24.35 0.2184
88.599998 24.4 0.2208
88.599998 24.450001 0.21520001
88.599998 24.5 0.21359999
88.599998 24.549999 0.21439999
88.599998 24.6 0.22
88.599998 24.65 0.2168
88.599998 24.700001 0.21439999
88.599998 24.75 0.2128
88.599998 24.799999 0.21520001
88.599998 24.85 0.212
88.599998 24.9 0.212
88.599998 24.950001 0.20640001
88.599998 25 0.2128
88.599998 25.049999 0.212
88.599998 25.1 0.212
88.599998 25.15 0.208
88.599998 25.200001 0.20640001
88.599998 25.25 0.212
88.599998 25.299999 0.208
88.599998 25.35 0.2088
88.599998 25.4 0.204
88.599998 25.450001 0.20479999
88.599998 25.5 0.20640001
88.599998 25.549999 0.208
88.599998 25.6 0.2088
88.599998 25.65 0.2032
88.599998 25.700001 0.20479999
88.599998 25.75 0.2024
88.599998 25.799999 0.20479999
88.599998 25.85 0.2016
88.599998 25.9 0.2008
88.599998 25.950001 0.2032
88.599998 26 0.2016
88.599998 26.049999 0.1952
88.599998 26.1 0.2
88.599998 26.15 0.19840001
88.599998 26.200001 0.19760001
88.599998 26.25 0.19679999
88.599998 26.299999 0.1944
88.599998 26.35 0.1944
88.599998 26.4 0.1912
88.599998 26.450001 0.18960001
88.599998 26.5 0.1936
88.599998 26.549999 0.1904
88.599998 26.6 0.1912
88.599998 26.65 0.18960001
88.599998 26.700001 0.18719999
88.599998 26.75 0.18960001
88.599998 26.799999 0.18880001
88.599998 26.85 0.1824
88.599998 26.9 0.1832
88.599998 26.950001 0.1848
88.599998 27 0.1816
88.599998 27.049999 0.18000001
88.599998 27.1 0.1824
88.599998 27.15 0.1848
88.599998 27.200001 0.18000001
88.599998 27.25 0.184
88.599998 27.299999 0.1816
88.599998 27.35 0.1776
88.599998 27.4 0.17839999
88.599998 27.450001 0.184
88.599998 27.5 0.184
88.599998 27.549999 0.156
88.599998 27.6 0.15360001
88.599998 27.65 0.16240001
88.599998 27.700001 0.1688
88.599998 27.75 0.164
88.599998 27.799999 0.17039999
88.599998 27.85 0.1688
88.599998 27.9 0.168
88.599998 27.950001 0.1664
88.599998 28 0.16320001
88.599998 28.049999 0.1608
88.599998 28.1 0.16159999
88.599998 28.15 0.168
88.599998 28.200001 0.16159999
88.599998 28.25 0.1584
88.599998 28.299999 0.164
88.599998 28.35 0.1592
88.599998 28.4 0.1576
88.599998 28.450001 0.164
88.599998 28.5 0.1656
88.599998 28.549999 0.1656
88.599998 28.6 0.1576
88.599998 28.65 0.1584
88.599998 28.700001 0.16240001
88.599998 28.75 0.1664
88.599998 28.799999 0.1656
88.599998 28.85 0.1608
88.599998 28.9 0.16320001
88.599998 28.950001 0.17200001
88.599998 29 0.1664
88.599998 29.049999 0.164
88.599998 29.1 0.1552
88.599998 29.15 0.15360001
88.599998 29.200001 0.1496
88.599998 29.25 0.15279999
88.599998 29.299999 0.1592
88.599998 29.35 0.17039999
88.599998 29.4 0.1608
88.599998 29.450001 0.1608
88.599998 29.5 0.1656
88.599998 29.549999 0.1568
88.599998 29.6 0.1568
88.599998 29.65 0.164
88.599998 29.700001 0.156
88.599998 29.75 0.14480001
88.599998 29.799999 0.2696
88.599998 29.85 0.74479997
88.599998 29.9 0.74080002
88.599998 29.950001 0.76160002
88.599998 30 0.87599999
88.599998 30.049999 0.8696
88.599998 30.1 0.87040001
88.599998 30.15 0.85839999
88.599998 30.200001 0.8344
88.599998 30.25 0.80879998
88.599998 30.299999 0.77999997
88.599998 30.35 0.73360002
88.599998 30.4 0.7008
88.599998 30.450001 0.64560002
88.599998 30.5 0.60879999
88.599998 30.549999 0.56160003
88.599998 30.6 0.51440001
88.599998 30.65 0.47279999
88.599998 30.700001 0.42559999
88.599998 30.75 0.3712
88.599998 30.799999 0.30320001
88.599998 30.85 0.2536
88.800003 20 0.264
88.800003 20.049999 0.26719999
88.800003 20.1 0.26640001
88.800003 20.15 0.2568
88.800003 20.200001 0.26480001
88.800003 20.25 0.26800001
88.800003 20.299999 0.2624
88.800003 20.35 0.27039999
88.800003 20.4 0.264
88.800003 20.450001 0.27919999
88.800003 20.5 0.2744
88.800003 20.549999 0.2816
88.800003 20.6 0.27520001
88.800003 20.65 0.27680001
88.800003 20.700001 0.2696
88.800003 20.75 0.2696
88.800003 20.799999 0.2696
88.800003 20.85 0.2696
88.800003 20.9 0.2696
88.800003 20.950001 0.2656
88.800003 21 0.26640001
88.800003 21.049999 0.26640001
88.800003 21.1 0.2656
88.800003 21.15 0.2624
88.800003 21.200001 0.26159999
88.800003 21.25 0.2608
88.800003 21.299999 0.2608
88.800003 21.35 0.25999999
88.800003 21.4 0.25920001
88.800003 21.450001 0.2608
88.800003 21.5 0.25920001
88.800003 21.549999 0.2624
88.800003 21.6 0.2608
88.800003 21.65 0.25760001
88.800003 21.700001 0.2568
88.800003 21.75 0.25440001
88.800003 21.799999 0.25440001
88.800003 21.85 0.25760001
88.800003 21.9 0.2536
88.800003 21.950001 0.2536
88.800003 22 0.25119999
88.800003 22.049999 0.252
88.800003 22.1 0.252
88.800003 22.15 0.25040001
88.800003 22.200001 0.25040001
88.800003 22.25 0.25440001
88.800003 22.299999 0.25040001
88.800003 22.35 0.24879999
88.800003 22.4 0.24959999
88.800003 22.450001 0.25119999
88.800003 22.5 0.25040001
88.800003 22.549999 0.25119999
88.800003 22.6 0.25119999
88.800003 22.65 0.248
88.800003 22.700001 0.25040001
88.800003 22.75 0.252
88.800003 22.799999 0.24959999
88.800003 22.85 0.25040001
88.800003 22.9 0.24959999
88.800003 22.950001 0.24959999
88.800003 23 0.248
88.800003 23.049999 0.24879999
88.800003 23.1 0.248
88.800003 23.15 0.24879999
88.800003 23.200001 0.248
88.800003 23.25 0.24879999
88.800003 23.299999 0.25920001
88.800003 23.35 0.25279999
88.800003 23.4 0.25600001
88.800003 23.450001 0.25920001
88.800003 23.5 0.25040001
88.800003 23.549999 0.2456
88.800003 23.6 0.2456
88.800003 23.65 0.2464
88.800003 23.700001 0.24959999
88.800003 23.75 0.248
88.800003 23.799999 0.252
88.800003 23.85 0.24879999
88.800003 23.9 0.2464
88.800003 23.950001 0.2448
88.800003 24 0.24240001
88.800003 24.049999 0.24079999
88.800003 24.1 0.24079999
88.800003 24.15 0.2448
88.800003 24.200001 0.24079999
88.800003 24.25 0.2368
88.800003 24.299999 0.2304
88.800003 24.35 0.23280001
88.800003 24.4 0.2184
88.800003 24.450001 0.22239999
88.800003 24.5 0.2168
88.800003 24.549999 0.22
88.800003 24.6 0.2192
88.800003 24.65 0.2168
88.800003 24.700001 0.21359999
88.800003 24.75 0.21600001
88.800003 24.799999 0.21359999
88.800003 24.85 0.212
88.800003 24.9 0.2112
88.800003 24.950001 0.2168
88.800003 25 0.21520001
88.800003 25.049999 0.2096
88.800003 25.1 0.2104
88.800003 25.15 0.208
88.800003 25.200001 0.2088
88.800003 25.25 0.2184
88.800003 25.299999 0.212
88.800003 25.35 0.20640001
88.800003 25.4 0.2032
88.800003 25.450001 0.2104
88.800003 25.5 0.20640001
88.800003 25.549999 0.20479999
88.800003 25.6 0.20479999
88.800003 25.65 0.2008
88.800003 25.700001 0.204
88.800003 25.75 0.19840001
88.800003 25.799999 0.2032
88.800003 25.85 0.204
88.800003 25.9 0.19840001
88.800003 25.950001 0.19679999
88.800003 26 0.19599999
88.800003 26.049999 0.1928
88.800003 26.1 0.1992
88.800003 26.15 0.19840001
88.800003 26.200001 0.19679999
88.800003 26.25 0.19599999
88.800003 26.299999 0.1904
88.800003 26.35 0.19679999
88.800003 26.4 0.18960001
88.800003 26.450001 0.1912
88.800003 26.5 0.19679999
88.800003 26.549999 0.1904
88.800003 26.6 0.19760001
88.800003 26.65 0.2
88.800003 26.700001 0.1936
88.800003 26.75 0.192
88.800003 26.799999 0.18799999
88.800003 26.85 0.1912
88.800003 26.9 0.1904
88.800003 26.950001 0.18799999
88.800003 27 0.1816
88.800003 27.049999 0.18000001
88.800003 27.1 0.192
88.800003 27.15 0.184
88.800003 27.200001 0.1832
88.800003 27.25 0.18080001
88.800003 27.299999 0.1816
88.800003 27.35 0.1768
88.800003 27.4 0.17919999
88.800003 27.450001 0.18080001
88.800003 27.5 0.18080001
88.800003 27.549999 0.1568
88.800003 27.6 0.16320001
88.800003 27.65 0.16
88.800003 27.700001 0.16159999
88.800003 27.75 0.1648
88.800003 27.799999 0.1672
88.800003 27.85 0.1648
88.800003 27.9 0.16240001
88.800003 27.950001 0.164
88.800003 28 0.1576
88.800003 28.049999 0.16320001
88.800003 28.1 0.1608
88.800003 28.15 0.16159999
88.800003 28.200001 0.16159999
88.800003 28.25 0.164
88.800003 28.299999 0.1576
88.800003 28.35 0.1648
88.800003 28.4 0.1648
88.800003 28.450001 0.16
88.800003 28.5 0.16320001
88.800003 28.549999 0.16
88.800003 28.6 0.16159999
88.800003 28.65 0.16
88.800003 28.700001 0.17039999
88.800003 28.75 0.1592
88.800003 28.799999 0.15360001
88.800003 28.85 0.1584
88.800003 28.9 0.1664
88.800003 28.950001 0.1688
88.800003 29 0.16320001
88.800003 29.049999 0.16
88.800003 29.1 0.1568
88.800003 29.15 0.164
88.800003 29.200001 0.1696
88.800003 29.25 0.1664
88.800003 29.299999 0.1672
88.800003 29.35 0.16320001
88.800003 29.4 0.16240001
88.800003 29.450001 0.1664
88.800003 29.5 0.1584
88.800003 29.549999 0.1248
88.800003 29.6 0.056000002
88.800003 29.65 0.72479999
88.800003 29.700001 0.73760003
88.800003 29.75 0.8168
88.800003 29.799999 0.87199998
88.800003 29.85 0.87279999
88.800003 29.9 0.87199998
88.800003 29.950001 0.87279999
88.800003 30 0.84719998
88.800003 30.049999 0.82239997
88.800003 30.1 0.79680002
88.800003 30.15 0.764
88.800003 30.200001 0.72399998
88.800003 30.25 0.68000001
88.800003 30.299999 0.63200003
88.800003 30.35 0.60399997
88.800003 30.4 0.55519998
89 20 0.2656
89 20.049999 0.26480001
89 20.1 0.264
89 20.15 0.26480001
89 20.200001 0.2608
89 20.25 0.26480001
89 20.299999 0.26640001
89 20.35 0.26879999
89 20.4 0.2696
89 20.450001 0.26879999
89 20.5 0.2728
89 20.549999 0.27680001
89 20.6 0.27680001
89 20.65 0.27200001
89 20.700001 0.2728
89 20.75 0.2712
89 20.799999 0.26800001
89 20.85 0.26879999
89 20.9 0.26719999
89 20.950001 0.26879999
89 21 0.26719999
89 21.049999 0.26480001
89 21.1 0.26480001
89 21.15 0.26159999
89 21.200001 0.2608
89 21.25 0.25999999
89 21.299999 0.25839999
89 21.35 0.25999999
89 21.4 0.25999999
89 21.450001 0.2608
89 21.5 0.25839999
89 21.549999 0.25920001
89 21.6 0.25920001
89 21.65 0.2568
89 21.700001 0.25600001
89 21.75 0.25440001
89 21.799999 0.25440001
89 21.85 0.25279999
89 21.9 0.2536
89 21.950001 0.25279999
89 22 0.25279999
89 22.049999 0.252
89 22.1 0.2464
89 22.15 0.25440001
89 22.200001 0.2552
89 22.25 0.24959999
89 22.299999 0.25119999
89 22.35 0.25040001
89 22.4 0.252
89 22.450001 0.25119999
89 22.5 0.25040001
89 22.549999 0.252
89 22.6 0.25279999
89 22.65 0.25040001
89 22.700001 0.2536
89 22.75 0.25040001
89 22.799999 0.24879999
89 22.85 0.2448
89 22.9 0.2448
89 22.950001 0.24959999
89 23 0.24959999
89 23.049999 0.248
89 23.1 0.24879999
89 23.15 0.2464
89 23.200001 0.2472
89 23.25 0.2472
89 23.299999 0.2464
89 23.35 0.2448
89 23.4 0.2448
89 23.450001 0.24240001
89 23.5 0.2552
89 23.549999 0.27520001
89 23.6 0.25040001
89 23.65 0.244
89 23.700001 0.2376
89 23.75 0.25040001
89 23.799999 0.248
89 23.85 0.2456
89 23.9 0.2432
89 23.950001 0.23280001
89 24 0.2464
89 24.049999 0.244
89 24.1 0.2464
89 24.15 0.24879999
89 24.200001 0.2448
89 24.25 0.24879999
89 24.299999 0.2744
89 24.35 0.2376
89 24.4 0.23199999
89 24.450001 0.2264
89 24.5 0.2192
89 24.549999 0.23119999
89 24.6 0.2288
89 24.65 0.23360001
89 24.700001 0.21439999
89 24.75 0.228
89 24.799999 0.2216
89 24.85 0.22400001
89 24.9 0.2208
89 24.950001 0.21359999
89 25 0.21520001
89 25.049999 0.21520001
89 25.1 0.21359999
89 25.15 0.2128
89 25.200001 0.2104
89 25.25 0.2096
89 25.299999 0.208
89 25.35 0.2104
89 25.4 0.2104
89 25.450001 0.20559999
89 25.5 0.204
89 25.549999 0.20479999
89 25.6 0.2032
89 25.65 0.2024
89 25.700001 0.2
89 25.75 0.20640001
89 25.799999 0.208
89 25.85 0.2016
89 25.9 0.2016
89 25.950001 0.2016
89 26 0.19760001
89 26.049999 0.1992
89 26.1 0.2024
89 26.15 0.2032
89 26.200001 0.1944
89 26.25 0.1912
89 26.299999 0.20479999
89 26.35 0.1928
89 26.4 0.1928
89 26.450001 0.1936
89 26.5 0.1936
89 26.549999 0.19679999
89 26.6 0.19679999
89 26.65 0.20479999
89 26.700001 0.2024
89 26.75 0.19760001
89 26.799999 0.1936
89 26.85 0.1904
89 26.9 0.1864
89 26.950001 0.1824
89 27 0.18880001
89 27.049999 0.18080001
89 27.1 0.184
89 27.15 0.1864
89 27.200001 0.1832
89 27.25 0.17839999
89 27.299999 0.184
89 27.35 0.176
89 27.4 0.184
89 27.450001 0.1768
89 27.5 0.1824
89 27.549999 0.15279999
89 27.6 0.16240001
89 27.65 0.1664
89 27.700001 0.16
89 27.75 0.168
89 27.799999 0.164
89 27.85 0.16320001
89 27.9 0.168
89 27.950001 0.16240001
89 28 0.16240001
89 28.049999 0.164
89 28.1 0.1608
89 28.15 0.16240001
89 28.200001 0.1672
89 28.25 0.168
89 28.299999 0.16240001
89 28.35 0.1664
89 28.4 0.1584
89 28.450001 0.16
89 28.5 0.1768
89 28.549999 0.17200001
89 28.6 0.176
89 28.65 0.168
89 28.700001 0.1664
89 28.75 0.16240001
89 28.799999 0.1568
89 28.85 0.1656
89 28.9 0.1664
89 28.950001 0.1672
89 29 0.1664
89 29.049999 0.1688
89 29.1 0.1584
89 29.15 0.1672
89 29.200001 0.17120001
89 29.25 0.1664
89 29.299999 0.1664
89 29.35 0.14560001
89 29.4 0.099200003
89 29.450001 0.70719999
89 29.5 0.74000001
89 29.549999 0.79519999
89 29.6 0.87599999
89 29.65 0.87840003
89 29.700001 0.87120003
89 29.75 0.87279999
89 29.799999 0.85600001
89 29.85 0.82880002
89 29.9 0.80400002
89 29.950001 0.77280003
89 30 0.73839998
89 30.049999 0.70480001
89 30.1 0.65280002
89 30.15 0.60879999
89 30.200001 0.56879997
89 30.25 0.52960002
89 30.299999 0.47999999
89 30.35 0.44639999
89.199997 20 0.26480001
89.199997 20.049999 0.2656
89.199997 20.1 0.25999999
89.199997 20.15 0.264
89.199997 20.200001 0.25760001
89.199997 20.25 0.26879999
89.199997 20.299999 0.2608
89.199997 20.35 0.26320001
89.199997 20.4 0.26640001
89.199997 20.450001 0.27039999
89.199997 20.5 0.27039999
89.199997 20.549999 0.27039999
89.199997 20.6 0.2696
89.199997 20.65 0.26879999
89.199997 20.700001 0.26800001
89.199997 20.75 0.26879999
89.199997 20.799999 0.26800001
89.199997 20.85 0.26719999
89.199997 20.9 0.26719999
89.199997 20.950001 0.26480001
89.199997 21 0.26480001
89.199997 21.049999 0.26480001
89.199997 21.1 0.2624
89.199997 21.15 0.2624
89.199997 21.200001 0.2608
89.199997 21.25 0.2608
89.199997 21.299999 0.25920001
89.199997 21.35 0.25999999
89.199997 21.4 0.25600001
89.199997 21.450001 0.2568
89.199997 21.5 0.25839999
89.199997 21.549999 0.25600001
89.199997 21.6 0.25440001
89.199997 21.65 0.25119999
89.199997 21.700001 0.25279999
89.199997 21.75 0.252
89.199997 21.799999 0.24879999
89.199997 21.85 0.2384
89.199997 21.9 0.2368
89.199997 21.950001 0.24160001
89.199997 22 0.25040001
89.199997 22.049999 0.25279999
89.199997 22.1 0.252
89.199997 22.15 0.248
89.199997 22.200001 0.24959999
89.199997 22.25 0.2472
89.199997 22.299999 0.24160001
89.199997 22.35 0.244
89.199997 22.4 0.25040001
89.199997 22.450001 0.25040001
89.199997 22.5 0.25040001
89.199997 22.549999 0.252
89.199997 22.6 0.25040001
89.199997 22.65 0.24879999
89.199997 22.700001 0.24879999
89.199997 22.75 0.248
89.199997 22.799999 0.25040001
89.199997 22.85 0.248
89.199997 22.9 0.2464
89.199997 22.950001 0.24879999
89.199997 23 0.244
89.199997 23.049999 0.2472
89.199997 23.1 0.2464
89.199997 23.15 0.2464
89.199997 23.200001 0.248
89.199997 23.25 0.248
89.199997 23.299999 0.24879999
89.199997 23.35 0.2472
89.199997 23.4 0.2448
89.199997 23.450001 0.244
89.199997 23.5 0.248
89.199997 23.549999 0.25600001
89.199997 23.6 0.24959999
89.199997 23.65 0.25279999
89.199997 23.700001 0.24879999
89.199997 23.75 0.24879999
89.199997 23.799999 0.24879999
89.199997 23.85 0.2392
89.199997 23.9 0.2432
89.199997 23.950001 0.24879999
89.199997 24 0.25040001
89.199997 24.049999 0.2472
89.199997 24.1 0.2464
89.199997 24.15 0.23999999
89.199997 24.200001 0.2208
89.199997 24.25 0.244
89.199997 24.299999 0.2296
89.199997 24.35 0.2208
89.199997 24.4 0.248
89.199997 24.450001 0.2344
89.199997 24.5 0.2288
89.199997 24.549999 0.2352
89.199997 24.6 0.2392
89.199997 24.65 0.2384
89.199997 24.700001 0.23999999
89.199997 24.75 0.2384
89.199997 24.799999 0.24240001
89.199997 24.85 0.2304
89.199997 24.9 0.2208
89.199997 24.950001 0.23360001
89.199997 25 0.236
89.199997 25.049999 0.23360001
89.199997 25.1 0.2264
89.199997 25.15 0.2112
89.199997 25.200001 0.2128
89.199997 25.25 0.21600001
89.199997 25.299999 0.2384
89.199997 25.35 0.2288
89.199997 25.4 0.2344
89.199997 25.450001 0.204
89.199997 25.5 0.2208
89.199997 25.549999 0.20720001
89.199997 25.6 0.20479999
89.199997 25.65 0.2088
89.199997 25.700001 0.2088
89.199997 25.75 0.2032
89.199997 25.799999 0.204
89.199997 25.85 0.204
89.199997 25.9 0.19599999
89.199997 25.950001 0.20479999
89.199997 26 0.2
89.199997 26.049999 0.2024
89.199997 26.1 0.2016
89.199997 26.15 0.2
89.199997 26.200001 0.2008
89.199997 26.25 0.1952
89.199997 26.299999 0.19760001
89.199997 26.35 0.2008
89.199997 26.4 0.2032
89.199997 26.450001 0.19679999
89.199997 26.5 0.19840001
89.199997 26.549999 0.1992
89.199997 26.6 0.20479999
89.199997 26.65 0.204
89.199997 26.700001 0.19840001
89.199997 26.75 0.2032
89.199997 26.799999 0.2008
89.199997 26.85 0.208
89.199997 26.9 0.1912
89.199997 26.950001 0.20479999
89.199997 27 0.18960001
89.199997 27.049999 0.18880001
89.199997 27.1 0.18960001
89.199997 27.15 0.1904
89.199997 27.200001 0.184
89.199997 27.25 0.1904
89.199997 27.299999 0.1928
89.199997 27.35 0.1904
89.199997 27.4 0.1848
89.199997 27.450001 0.1848
89.199997 27.5 0.18000001
89.199997 27.549999 0.164
89.199997 27.6 0.16320001
89.199997 27.65 0.17039999
89.199997 27.700001 0.1656
89.199997 27.75 0.164
89.199997 27.799999 0.164
89.199997 27.85 0.17120001
89.199997 27.9 0.1752
89.199997 27.950001 0.1688
89.199997 28 0.1752
89.199997 28.049999 0.1664
89.199997 28.1 0.17039999
89.199997 28.15 0.1656
89.199997 28.200001 0.168
89.199997 28.25 0.1656
89.199997 28.299999 0.1752
89.199997 28.35 0.1696
89.199997 28.4 0.17039999
89.199997 28.450001 0.17200001
89.199997 28.5 0.1648
89.199997 28.549999 0.164
89.199997 28.6 0.1648
89.199997 28.65 0.1688
89.199997 28.700001 0.1672
89.199997 28.75 0.1664
89.199997 28.799999 0.1688
89.199997 28.85 0.16159999
89.199997 28.9 0.16240001
89.199997 28.950001 0.1664
89.199997 29 0.1664
89.199997 29.049999 0.17039999
89.199997 29.1 0.1656
89.199997 29.15 0.1224
89.199997 29.200001 0.035999998
89.199997 29.25 0.75040001
89.199997 29.299999 0.75040001
89.199997 29.35 0.74159998
89.199997 29.4 0.88
89.199997 29.450001 0.88239998
89.199997 29.5 0.88080001
89.199997 29.549999 0.87279999
89.199997 29.6 0.86080003
89.199997 29.65 0.81919998
89.199997 29.700001 0.80080003
89.199997 29.75 0.77600002
89.199997 29.799999 0.74800003
89.199997 29.85 0.69999999
89.199997 29.9 0.65920001
89.199997 29.950001 0.63520002
89.199997 30 0.588
89.199997 30.049999 0.53359997
89.400002 20 0.2656
89.400002 20.049999 0.26320001
89.400002 20.1 0.2608
89.400002 20.15 0.264
89.400002 20.200001 0.26159999
89.400002 20.25 0.264
89.400002 20.299999 0.26320001
89.400002 20.35 0.27360001
89.400002 20.4 0.27039999
89.400002 20.450001 0.2696
89.400002 20.5 0.2712
89.400002 20.549999 0.2712
89.400002 20.6 0.2728
89.400002 20.65 0.27200001
89.400002 20.700001 0.26640001
89.400002 20.75 0.26879999
89.400002 20.799999 0.26800001
89.400002 20.85 0.26879999
89.400002 20.9 0.26640001
89.400002 20.950001 0.2656
89.400002 21 0.264
89.400002 21.049999 0.26320001
89.400002 21.1 0.2608
89.400002 21.15 0.25920001
89.400002 21.200001 0.26159999
89.400002 21.25 0.25999999
89.400002 21.299999 0.25600001
89.400002 21.35 0.2552
89.400002 21.4 0.2536
89.400002 21.450001 0.25760001
89.400002 21.5 0.2568
89.400002 21.549999 0.25440001
89.400002 21.6 0.25040001
89.400002 21.65 0.25440001
89.400002 21.700001 0.23199999
89.400002 21.75 0.2304
89.400002 21.799999 0.2288
89.400002 21.85 0.2304
89.400002 21.9 0.2304
89.400002 21.950001 0.2352
89.400002 22 0.244
89.400002 22.049999 0.2464
89.400002 22.1 0.24079999
89.400002 22.15 0.24240001
89.400002 22.200001 0.23999999
89.400002 22.25 0.22400001
89.400002 22.299999 0.2272
89.400002 22.35 0.2216
89.400002 22.4 0.2296
89.400002 22.450001 0.2432
89.400002 22.5 0.2472
89.400002 22.549999 0.24879999
89.400002 22.6 0.25040001
89.400002 22.65 0.2448
89.400002 22.700001 0.2432
89.400002 22.75 0.2448
89.400002 22.799999 0.2448
89.400002 22.85 0.2456
89.400002 22.9 0.2448
89.400002 22.950001 0.2472
89.400002 23 0.2472
89.400002 23.049999 0.244
89.400002 23.1 0.248
89.400002 23.15 0.2536
89.400002 23.200001 0.2448
89.400002 23.25 0.2448
89.400002 23.299999 0.2472
89.400002 23.35 0.2448
89.400002 23.4 0.248
89.400002 23.450001 0.2456
89.400002 23.5 0.24240001
89.400002 23.549999 0.248
89.400002 23.6 0.2432
89.400002 23.65 0.2448
89.400002 23.700001 0.2448
89.400002 23.75 0.236
89.400002 23.799999 0.2296
89.400002 23.85 0.2368
89.400002 23.9 0.228
89.400002 23.950001 0.228
89.400002 24 0.2344
89.400002 24.049999 0.2368
89.400002 24.1 0.2304
89.400002 24.15 0.236
89.400002 24.200001 0.2368
89.400002 24.25 0.2392
89.400002 24.299999 0.2256
89.400002 24.35 0.23280001
89.400002 24.4 0.22400001
89.400002 24.450001 0.21600001
89.400002 24.5 0.2352
89.400002 24.549999 0.23199999
89.400002 24.6 0.2256
89.400002 24.65 0.228
89.400002 24.700001 0.2376
89.400002 24.75 0.2376
89.400002 24.799999 0.2184
89.400002 24.85 0.23280001
89.400002 24.9 0.2352
89.400002 24.950001 0.2392
89.400002 25 0.2392
89.400002 25.049999 0.2304
89.400002 25.1 0.2128
89.400002 25.15 0.2208
89.400002 25.200001 0.2288
89.400002 25.25 0.2432
89.400002 25.299999 0.2112
89.400002 25.35 0.21600001
89.400002 25.4 0.208
89.400002 25.450001 0.212
89.400002 25.5 0.204
89.400002 25.549999 0.20640001
89.400002 25.6 0.20720001
89.400002 25.65 0.2088
89.400002 25.700001 0.2016
89.400002 25.75 0.2024
89.400002 25.799999 0.20559999
89.400002 25.85 0.2016
89.400002 25.9 0.2024
89.400002 25.950001 0.2008
89.400002 26 0.19760001
89.400002 26.049999 0.19840001
89.400002 26.1 0.19599999
89.400002 26.15 0.1952
89.400002 26.200001 0.2008
89.400002 26.25 0.2
89.400002 26.299999 0.19760001
89.400002 26.35 0.2032
89.400002 26.4 0.19840001
89.400002 26.450001 0.1952
89.400002 26.5 0.1928
89.400002 26.549999 0.19599999
89.400002 26.6 0.1952
89.400002 26.65 0.192
89.400002 26.700001 0.1864
89.400002 26.75 0.1952
89.400002 26.799999 0.204
89.400002 26.85 0.19840001
89.400002 26.9 0.23999999
89.400002 26.950001 0.21439999
89.400002 27 0.22239999
89.400002 27.049999 0.2024
89.400002 27.1 0.1992
89.400002 27.15 0.19679999
89.400002 27.200001 0.1936
89.400002 27.25 0.1952
89.400002 27.299999 0.19679999
89.400002 27.35 0.1928
89.400002 27.4 0.18719999
89.400002 27.450001 0.1832
89.400002 27.5 0.17839999
89.400002 27.549999 0.164
89.400002 27.6 0.1688
89.400002 27.65 0.1752
89.400002 27.700001 0.1728
89.400002 27.75 0.1696
89.400002 27.799999 0.17200001
89.400002 27.85 0.1672
89.400002 27.9 0.1656
89.400002 27.950001 0.164
89.400002 28 0.164
89.400002 28.049999 0.1752
89.400002 28.1 0.1672
89.400002 28.15 0.176
89.400002 28.200001 0.1648
89.400002 28.25 0.17120001
89.400002 28.299999 0.16240001
89.400002 28.35 0.1696
89.400002 28.4 0.17200001
89.400002 28.450001 0.1664
89.400002 28.5 0.1736
89.400002 28.549999 0.176
89.400002 28.6 0.17200001
89.400002 28.65 0.1728
89.400002 28.700001 0.1728
89.400002 28.75 0.1696
89.400002 28.799999 0.168
89.400002 28.85 0.1568
89.400002 28.9 0.14560001
89.400002 28.950001 0.0528
89.400002 29 0.63440001
89.400002 29.049999 0.75279999
89.400002 29.1 0.75599998
89.400002 29.15 0.87919998
89.400002 29.200001 0.87919998
89.400002 29.25 0.884
89.400002 29.299999 0.88319999
89.400002 29.35 0.88
89.400002 29.4 0.84560001
89.400002 29.450001 0.82160002
89.400002 29.5 0.79119998
89.400002 29.549999 0.76800001
89.400002 29.6 0.73040003
89.400002 29.65 0.68720001
89.400002 29.700001 0.6688
89.400002 29.75 0.62
89.400002 29.799999 0.59439999
89.400002 29.85 0.52880001
89.400002 29.9 0.49759999
89.599998 20 0.26480001
89.599998 20.049999 0.26480001
89.599998 20.1 0.26480001
89.599998 20.15 0.2656
89.599998 20.200001 0.26480001
89.599998 20.25 0.26159999
89.599998 20.299999 0.2568
89.599998 20.35 0.26879999
89.599998 20.4 0.27039999
89.599998 20.450001 0.27039999
89.599998 20.5 0.2696
89.599998 20.549999 0.2728
89.599998 20.6 0.27520001
89.599998 20.65 0.2712
89.599998 20.700001 0.2696
89.599998 20.75 0.26879999
89.599998 20.799999 0.26800001
89.599998 20.85 0.26719999
89.599998 20.9 0.26640001
89.599998 20.950001 0.264
89.599998 21 0.2624
89.599998 21.049999 0.26159999
89.599998 21.1 0.264
89.599998 21.15 0.2608
89.599998 21.200001 0.25760001
89.599998 21.25 0.25999999
89.599998 21.299999 0.264
89.599998 21.35 0.2624
89.599998 21.4 0.2608
89.599998 21.450001 0.25760001
89.599998 21.5 0.2568
89.599998 21.549999 0.25839999
89.599998 21.6 0.2568
89.599998 21.65 0.25040001
89.599998 21.700001 0.22480001
89.599998 21.75 0.236
89.599998 21.799999 0.23199999
89.599998 21.85 0.23360001
89.599998 21.9 0.2264
89.599998 21.950001 0.2264
89.599998 22 0.2288
89.599998 22.049999 0.2344
89.599998 22.1 0.23280001
89.599998 22.15 0.23280001
89.599998 22.200001 0.23280001
89.599998 22.25 0.2256
89.599998 22.299999 0.22480001
89.599998 22.35 0.2368
89.599998 22.4 0.24959999
89.599998 22.450001 0.24959999
89.599998 22.5 0.248
89.599998 22.549999 0.24959999
89.599998 22.6 0.24879999
89.599998 22.65 0.2464
89.599998 22.700001 0.24879999
89.599998 22.75 0.248
89.599998 22.799999 0.248
89.599998 22.85 0.2472
89.599998 22.9 0.24879999
89.599998 22.950001 0.2464
89.599998 23 0.2464
89.599998 23.049999 0.2472
89.599998 23.1 0.2464
89.599998 23.15 0.2464
89.599998 23.200001 0.2464
89.599998 23.25 0.2472
89.599998 23.299999 0.2464
89.599998 23.35 0.23999999
89.599998 23.4 0.244
89.599998 23.450001 0.2464
89.599998 23.5 0.244
89.599998 23.549999 0.2456
89.599998 23.6 0.2456
89.599998 23.65 0.2448
89.599998 23.700001 0.2432
89.599998 23.75 0.24240001
89.599998 23.799999 0.2464
89.599998 23.85 0.2392
89.599998 23.9 0.2384
89.599998 23.950001 0.24079999
89.599998 24 0.23280001
89.599998 24.049999 0.2192
89.599998 24.1 0.2304
89.599998 24.15 0.21359999
89.599998 24.200001 0.22239999
89.599998 24.25 0.2296
89.599998 24.299999 0.23280001
89.599998 24.35 0.2352
89.599998 24.4 0.22319999
89.599998 24.450001 0.228
89.599998 24.5 0.2128
89.599998 24.549999 0.2272
89.599998 24.6 0.2256
89.599998 24.65 0.21600001
89.599998 24.700001 0.2096
89.599998 24.75 0.2168
89.599998 24.799999 0.21520001
89.599998 24.85 0.2184
89.599998 24.9 0.2192
89.599998 24.950001 0.2288
89.599998 25 0.23360001
89.599998 25.049999 0.2184
89.599998 25.1 0.21600001
89.599998 25.15 0.21520001
89.599998 25.200001 0.23280001
89.599998 25.25 0.21439999
89.599998 25.299999 0.2088
89.599998 25.35 0.2184
89.599998 25.4 0.2168
89.599998 25.450001 0.208
89.599998 25.5 0.2128
89.599998 25.549999 0.2088
89.599998 25.6 0.20559999
89.599998 25.65 0.2032
89.599998 25.700001 0.20640001
89.599998 25.75 0.20720001
89.599998 25.799999 0.20559999
89.599998 25.85 0.2032
89.599998 25.9 0.204
89.599998 25.950001 0.2032
89.599998 26 0.2024
89.599998 26.049999 0.2104
89.599998 26.1 0.2
89.599998 26.15 0.2024
89.599998 26.200001 0.20640001
89.599998 26.25 0.19840001
89.599998 26.299999 0.20479999
89.599998 26.35 0.20479999
89.599998 26.4 0.2008
89.599998 26.450001 0.2008
89.599998 26.5 0.2024
89.599998 26.549999 0.19760001
89.599998 26.6 0.19840001
89.599998 26.65 0.1944
89.599998 26.700001 0.19679999
89.599998 26.75 0.2192
89.599998 26.799999 0.22400001
89.599998 26.85 0.23360001
89.599998 26.9 0.2184
89.599998 26.950001 0.20720001
89.599998 27 0.2088
89.599998 27.049999 0.2088
89.599998 27.1 0.23280001
89.599998 27.15 0.2344
89.599998 27.200001 0.2184
89.599998 27.25 0.192
89.599998 27.299999 0.204
89.599998 27.35 0.1848
89.599998 27.4 0.18880001
89.599998 27.450001 0.1864
89.599998 27.5 0.1648
89.599998 27.549999 0.1648
89.599998 27.6 0.1752
89.599998 27.65 0.1752
89.599998 27.700001 0.1768
89.599998 27.75 0.1752
89.599998 27.799999 0.17120001
89.599998 27.85 0.1728
89.599998 27.9 0.1696
89.599998 27.950001 0.1752
89.599998 28 0.1696
89.599998 28.049999 0.1768
89.599998 28.1 0.176
89.599998 28.15 0.1928
89.599998 28.200001 0.1672
89.599998 28.25 0.1728
89.599998 28.299999 0.1752
89.599998 28.35 0.1672
89.599998 28.4 0.17200001
89.599998 28.450001 0.1768
89.599998 28.5 0.17919999
89.599998 28.549999 0.17919999
89.599998 28.6 0.17200001
89.599998 28.65 0.14560001
89.599998 28.700001 0.040800001
89.599998 28.75 0.034400001
89.599998 28.799999 0.75040001
89.599998 28.85 0.75279999
89.599998 28.9 0.88800001
89.599998 28.950001 0.8872
89.599998 29 0.88319999
89.599998 29.049999 0.88
89.599998 29.1 0.88319999
89.599998 29.15 0.85839999
89.599998 29.200001 0.81919998
89.599998 29.25 0.79439998
89.599998 29.299999 0.79439998
89.599998 29.35 0.75919998
89.599998 29.4 0.72240001
89.599998 29.450001 0.69679999
89.599998 29.5 0.64480001
89.599998 29.549999 0.60479999
89.599998 29.6 0.56480002
89.599998 29.65 0.53439999
89.599998 29.700001 0.47999999
89.800003 20 0.264
89.800003 20.049999 0.2608
89.800003 20.1 0.26640001
89.800003 20.15 0.2712
89.800003 20.200001 0.2728
89.800003 20.25 0.26800001
89.800003 20.299999 0.2656
89.800003 20.35 0.27599999
89.800003 20.4 0.27360001
89.800003 20.450001 0.27039999
89.800003 20.5 0.27360001
89.800003 20.549999 0.27360001
89.800003 20.6 0.27200001
89.800003 20.65 0.27039999
89.800003 20.700001 0.2696
