# .PCD v0.7 - Point Cloud Data file format
VERSION 0.7
FIELDS x y z
SIZE 4 4 4
TYPE F F F
COUNT 1 1 1
WIDTH 1568
HEIGHT 1
VIEWPOINT 0 0 0 1 0 0 0
POINTS 1568
DATA ascii
11.112818 -54.193077 -0.78079998
11.062972 -54.189156 -0.80879998
11.013126 -54.18523 -0.83600003
10.963281 -54.181305 -0.8944
10.913435 -54.17738 -0.8312
10.863588 -54.173458 -0.78960001
10.813744 -54.169533 -0.7992
10.763897 -54.165607 -0.88
10.714052 -54.161682 -0.79439998
10.664206 -54.157761 -0.83359998
10.61436 -54.153835 -0.83759999
10.564514 -54.14991 -0.87040001
10.514668 -54.145985 -0.87760001
10.464823 -54.142059 -0.87519997
10.414977 -54.138138 -0.8136
10.365131 -54.134212 -0.81840003
10.315286 -54.130287 -0.87760001
10.26544 -54.126366 -0.87840003
10.215594 -54.12244 -0.94639999
10.165749 -54.118515 -0.91119999
10.115903 -54.11459 -0.93440002
10.066057 -54.110664 -0.94
10.016212 -54.106743 -0.94239998
9.9663658 -54.102818 -0.94880003
9.9165201 -54.098892 -0.98479998
9.8666744 -54.094967 -1.0208
12.773425 -54.123199 -0.1696
12.723579 -54.119278 -0.16240001
12.673734 -54.115353 -0.16159999
12.623888 -54.111427 -0.16
12.574042 -54.107502 -0.15279999
12.524197 -54.10358 -0.15360001
12.474351 -54.099655 -0.1488
12.424505 -54.09573 -0.1496
12.37466 -54.091805 -0.1424
12.324814 -54.087883 -0.1408
12.274967 -54.083958 -0.1416
12.225121 -54.080032 -0.1392
12.175276 -54.076107 -0.1384
12.12543 -54.072186 -0.132
12.075584 -54.06826 -0.1328
12.025739 -54.064335 -0.1296
11.975893 -54.06041 -0.1304
11.926047 -54.056488 -0.1312
11.876202 -54.052563 -0.12720001
11.826356 -54.048637 -0.1248
11.77651 -54.044712 -0.1224
11.726665 -54.040787 -0.1192
11.676819 -54.036865 -0.1224
11.626973 -54.03294 -0.1232
11.577127 -54.029015 -0.124
11.527281 -54.025093 -0.12
11.477436 -54.021168 -0.1168
11.427589 -54.017242 -0.1136
11.377745 -54.013317 -0.12
11.327898 -54.009392 -0.116
11.278052 -54.00547 -0.1168
11.228207 -54.001545 -0.1168
11.178361 -53.99762 -0.12
11.128515 -53.993694 -0.1224
11.07867 -53.989773 -0.1384
11.028824 -53.985847 -0.17200001
10.978978 -53.981922 -0.1592
10.929132 -53.977997 -0.1576
10.879286 -53.974075 -0.16
10.829441 -53.97015 -0.1416
10.779594 -53.966225 -0.14560001
10.72975 -53.962299 -0.18880001
10.679903 -53.958378 -0.19679999
10.630057 -53.954453 -0.208
10.580212 -53.950527 -0.17200001
10.530366 -53.946602 -0.2128
10.48052 -53.94268 -0.2256
10.430675 -53.938755 -0.2208
10.380829 -53.93483 -0.23199999
10.330983 -53.930904 -0.27919999
10.281137 -53.926979 -0.2304
10.231292 -53.923058 -0.21439999
10.181446 -53.919132 -0.26879999
10.1316 -53.915207 -0.30239999
10.081755 -53.911285 -0.26480001
10.031909 -53.90736 -0.27520001
9.9820633 -53.903435 -0.252
9.9322176 -53.899509 -0.28639999
9.8823719 -53.895584 -0.28799999
9.8325253 -53.891663 -0.28479999
9.7826805 -53.887737 -0.336
9.7328339 -53.883812 -0.3696
9.6829882 -53.879887 -0.34079999
9.6331425 -53.875965 -0.34720001
9.5832968 -53.87204 -0.3448
9.5334511 -53.868114 -0.34079999
9.4836054 -53.864189 -0.35519999
9.4337597 -53.860268 -0.384
9.383914 -53.856342 -0.38960001
9.3340683 -53.852417 -0.4488
9.2842226 -53.848492 -0.4224
9.2343769 -53.84457 -0.46239999
9.1845312 -53.840645 -0.47920001
9.1346855 -53.83672 -0.49200001
9.0848389 -53.832794 -0.49759999
9.0349941 -53.828873 -0.57359999
8.9851475 -53.824947 -0.54079998
8.9353018 -53.821022 -0.55839998
8.8854561 -53.817097 -0.54000002
8.8356104 -53.813171 -0.58560002
8.7857647 -53.80925 -0.58880001
8.735919 -53.805325 -0.6408
8.6860733 -53.801399 -0.764
8.6362276 -53.797478 -0.7288
8.5863819 -53.793552 -0.7568
8.5365362 -53.789627 -0.80080003
8.4866905 -53.785702 -0.71679997
8.4368448 -53.781776 -0.81040001
8.3869991 -53.777855 -0.89679998
8.3371534 -53.77393 -1.0424
8.2873077 -53.770004 -0.99040002
8.2374611 -53.766079 -0.97600001
12.739277 -53.919895 0.26879999
12.689431 -53.91597 0.27039999
12.639585 -53.912045 0.27039999
12.58974 -53.908119 0.27360001
12.539894 -53.904198 0.27599999
12.490048 -53.900272 0.28080001
12.440203 -53.896347 0.27919999
12.390357 -53.892422 0.2832
12.340511 -53.8885 0.28240001
12.290666 -53.884575 0.28639999
12.24082 -53.88065 0.2816
12.190973 -53.876724 0.28639999
12.141128 -53.872803 0.28639999
12.091282 -53.868877 0.2872
12.041436 -53.864952 0.28960001
11.99159 -53.861027 0.28799999
11.941745 -53.857101 0.28960001
11.891899 -53.85318 0.29120001
11.842053 -53.849255 0.29359999
11.792208 -53.845329 0.292
11.742362 -53.841408 0.29280001
11.692516 -53.837482 0.29679999
11.642671 -53.833557 0.296
11.592825 -53.829632 0.29519999
11.542979 -53.825706 0.29519999
11.493134 -53.821785 0.3008
11.443287 -53.81786 0.296
11.393442 -53.813934 0.2992
11.343596 -53.810013 0.29519999
11.29375 -53.806087 0.29359999
11.243904 -53.802162 0.29359999
11.194058 -53.798237 0.29359999
11.144213 -53.794312 0.29359999
11.094367 -53.79039 0.2832
11.044521 -53.786465 0.26879999
10.994676 -53.782539 0.25119999
10.94483 -53.778614 0.25279999
10.894984 -53.774693 0.27759999
10.845139 -53.770767 0.2384
10.795293 -53.766842 0.25999999
10.745447 -53.762917 0.24879999
10.695601 -53.758995 0.2288
10.645756 -53.75507 0.2288
10.595909 -53.751144 0.2208
10.546064 -53.747219 0.2352
10.496218 -53.743294 0.2368
10.446373 -53.739372 0.2456
10.396526 -53.735447 0.2104
10.346681 -53.731522 0.2008
10.296835 -53.7276 0.244
10.246989 -53.723675 0.2024
10.197144 -53.719749 0.1768
10.147298 -53.715824 0.1864
10.097452 -53.711899 0.18799999
10.047606 -53.707977 0.19679999
9.9977608 -53.704052 0.1416
9.9479151 -53.700127 0.18080001
9.8980694 -53.696201 0.17200001
9.8482237 -53.69228 0.1592
9.798378 -53.688354 0.1496
9.7485323 -53.684429 0.15360001
9.6986866 -53.680504 0.14560001
9.64884 -53.676582 0.13680001
9.5989943 -53.672657 0.1296
9.5491486 -53.668732 0.1248
9.4993029 -53.664806 0.1016
9.4494572 -53.660885 0.075999998
9.3996115 -53.65696 0.093599997
9.3497658 -53.653034 0.1
9.2999201 -53.649109 0.0656
9.2500744 -53.645187 0.049600001
9.2002287 -53.641262 0.0744
9.150383 -53.637337 0.0352
9.1005373 -53.633411 0.030400001
9.0506916 -53.629486 0.0104
9.000845 -53.625565 -0.022399999
8.9510002 -53.621639 -0.024800001
8.9011536 -53.617714 -0.0208
8.8513088 -53.613792 -0.0136
8.8014622 -53.609867 -0.051199999
8.7516165 -53.605942 -0.096799999
8.7017708 -53.602016 -0.1216
8.6519251 -53.598091 -0.1256
8.6020794 -53.59417 -0.1248
8.5522337 -53.590244 -0.13680001
8.502388 -53.586319 -0.1736
8.4525423 -53.582394 -0.22480001
8.4026966 -53.578472 -0.2208
8.3528509 -53.574547 -0.2208
8.3030052 -53.570621 -0.23119999
8.2531586 -53.566696 -0.2264
8.2033138 -53.562775 -0.3048
8.1534672 -53.558849 -0.3064
8.1036224 -53.554924 -0.3272
8.0537758 -53.550999 -0.3872
8.003931 -53.547077 -0.40400001
7.9540849 -53.543152 -0.472
7.9042392 -53.539227 -0.44319999
7.8543935 -53.535301 -0.51279998
7.8045478 -53.53138 -0.52719998
7.7547016 -53.527454 -0.57999998
7.7048559 -53.523529 -0.61839998
7.6550102 -53.519604 -0.68400002
7.6051645 -53.515678 -0.71600002
7.5553188 -53.511757 -0.736
7.5054727 -53.507832 -0.69919997
7.4556274 -53.503906 -0.78560001
7.4057813 -53.499985 -0.8488
7.3559361 -53.496059 -0.99599999
7.3060899 -53.492134 -1.1440001
7.2562442 -53.488209 -1.0712
12.705129 -53.716587 0.58880001
12.655283 -53.712662 0.5848
12.605437 -53.708736 0.59200001
12.555592 -53.704811 0.59119999
12.505746 -53.70089 0.59359998
12.4559 -53.696964 0.59439999
12.406054 -53.693039 0.5952
12.356209 -53.689117 0.59600002
12.306363 -53.685192 0.59680003
12.256517 -53.681267 0.59600002
12.206672 -53.677341 0.5984
12.156826 -53.673416 0.5984
12.106979 -53.669495 0.59680003
12.057134 -53.665569 0.60079998
12.007288 -53.661644 0.60159999
11.957442 -53.657719 0.60079998
11.907597 -53.653797 0.6024
11.857751 -53.649872 0.60079998
11.807905 -53.645947 0.60399997
11.75806 -53.642021 0.60399997
11.708214 -53.6381 0.60320002
11.658368 -53.634174 0.60079998
11.608522 -53.630249 0.60399997
11.558677 -53.626324 0.6024
11.508831 -53.622402 0.60399997
11.458985 -53.618477 0.60399997
11.40914 -53.614552 0.60320002
11.359293 -53.610626 0.60479999
11.309448 -53.606705 0.60399997
11.259602 -53.602779 0.60479999
11.209756 -53.598854 0.59759998
11.15991 -53.594929 0.60079998
11.110065 -53.591003 0.59280002
11.060219 -53.587082 0.58240002
11.010373 -53.583157 0.56080002
10.960527 -53.579231 0.55040002
10.910682 -53.57531 0.56800002
10.860836 -53.571384 0.54879999
10.81099 -53.567459 0.56080002
10.761145 -53.563534 0.55360001
10.711299 -53.559608 0.56
10.661453 -53.555687 0.54400003
10.611608 -53.551762 0.54079998
10.561762 -53.547836 0.56
10.511915 -53.543911 0.56639999
10.46207 -53.539989 0.53439999
10.412224 -53.536064 0.54000002
10.362379 -53.532139 0.53200001
10.312532 -53.528214 0.51679999
10.262688 -53.524292 0.54159999
10.212841 -53.520367 0.51999998
10.162995 -53.516441 0.5176
10.11315 -53.512516 0.5
10.063304 -53.508595 0.54000002
10.013458 -53.504669 0.50800002
9.9636126 -53.500744 0.49919999
9.9137669 -53.496819 0.4984
9.8639212 -53.492897 0.49599999
9.8140755 -53.488972 0.49520001
9.7642298 -53.485046 0.4824
9.7143841 -53.481121 0.4752
9.6645374 -53.477196 0.45199999
9.6146927 -53.473274 0.4472
9.564846 -53.469349 0.45120001
9.5150013 -53.465424 0.4368
9.4651546 -53.461502 0.43759999
9.415309 -53.457577 0.43920001
9.3654633 -53.453651 0.45840001
9.3156176 -53.449726 0.4312
9.2657719 -53.445801 0.41760001
9.2159262 -53.441879 0.40560001
9.1660805 -53.437954 0.4104
9.1162348 -53.434029 0.412
9.0663891 -53.430103 0.36399999
9.0165424 -53.426182 0.3504
8.9666977 -53.422256 0.34959999
8.916851 -53.418331 0.3488
8.8670063 -53.414406 0.33919999
8.8171597 -53.410484 0.31999999
8.767314 -53.406559 0.31119999
8.7174683 -53.402634 0.28639999
8.6676226 -53.398708 0.28479999
8.6177769 -53.394787 0.29120001
8.5679312 -53.390862 0.27919999
8.5180855 -53.386936 0.2744
8.4682398 -53.383011 0.23119999
8.4183941 -53.379089 0.21359999
8.3685484 -53.375164 0.1848
8.3187027 -53.371239 0.1776
8.268856 -53.367313 0.1688
8.2190113 -53.363388 0.14399999
8.1691647 -53.359467 0.1256
8.1193199 -53.355541 0.1104
8.0694733 -53.351616 0.077600002
8.0196285 -53.347694 0.071199998
7.9697824 -53.343769 0.063199997
7.9199367 -53.339844 0.0176
7.870091 -53.335918 0.0296
7.8202453 -53.331993 -0.0040000002
7.7703991 -53.328072 -0.0232
7.7205534 -53.324146 -0.054400001
7.6707077 -53.320221 -0.12800001
7.620862 -53.316296 -0.092799999
7.5710163 -53.312374 -0.15440001
7.5211701 -53.308449 -0.2
7.4713249 -53.304523 -0.1992
7.4214787 -53.300598 -0.2008
7.3716335 -53.296677 -0.27200001
7.3217874 -53.292751 -0.27039999
7.2719417 -53.288826 -0.35440001
7.222096 -53.284901 -0.41679999
7.1722503 -53.280975 -0.42480001
7.1224046 -53.277054 -0.43360001
7.0725589 -53.273129 -0.4928
7.0227127 -53.269203 -0.58319998
6.9728675 -53.265282 -0.58960003
6.9230213 -53.261356 -0.65359998
6.8731761 -53.257431 -0.68800002
6.8233299 -53.253506 -0.79839998
6.7734842 -53.24958 -0.87840003
6.7236385 -53.245659 -0.88
6.6737928 -53.241734 -1.008
6.6239471 -53.237808 -1.0624
12.67098 -53.513279 0.83920002
12.621135 -53.509354 0.83999997
12.571289 -53.505432 0.84079999
12.521443 -53.501507 0.84240001
12.471598 -53.497581 0.83840001
12.421752 -53.493656 0.84399998
12.371906 -53.489731 0.8416
12.322061 -53.485809 0.84320003
12.272215 -53.481884 0.84640002
12.222369 -53.477959 0.84560001
12.172523 -53.474037 0.84640002
12.122678 -53.470112 0.84799999
12.072832 -53.466187 0.84640002
12.022985 -53.462261 0.84640002
11.97314 -53.458336 0.84799999
11.923294 -53.454414 0.85039997
11.873448 -53.450489 0.84719998
11.823603 -53.446564 0.85039997
11.773757 -53.442638 0.8488
11.723911 -53.438717 0.85039997
11.674066 -53.434792 0.852
11.62422 -53.430866 0.84960002
11.574374 -53.426941 0.8488
11.524529 -53.423019 0.85280001
11.474683 -53.419094 0.84960002
11.424837 -53.415169 0.84960002
11.374991 -53.411243 0.85119998
11.325146 -53.407318 0.85119998
11.2753 -53.403397 0.85039997
11.225454 -53.399471 0.8488
11.175608 -53.395546 0.84719998
11.125762 -53.391624 0.83999997
11.075916 -53.387699 0.82639998
11.026071 -53.383774 0.80320001
10.976225 -53.379848 0.79680002
10.926379 -53.375923 0.79759997
10.876534 -53.372002 0.78960001
10.826688 -53.368076 0.8136
10.776842 -53.364151 0.8064
10.726996 -53.360229 0.80080003
10.677151 -53.356304 0.80239999
10.627305 -53.352379 0.79280001
10.577459 -53.348454 0.80400002
10.527614 -53.344528 0.81199998
10.477768 -53.340607 0.7816
10.427921 -53.336681 0.80159998
10.378077 -53.332756 0.7744
10.32823 -53.328831 0.7888
10.278385 -53.324909 0.77679998
10.228539 -53.320984 0.7992
10.178693 -53.317059 0.78079998
10.128847 -53.313133 0.76880002
10.079001 -53.309212 0.78479999
10.029156 -53.305286 0.77600002
9.97931 -53.301361 0.7784
9.9294643 -53.297436 0.75279999
9.8796186 -53.29351 0.7536
9.8297729 -53.289589 0.75999999
9.7799273 -53.285664 0.74879998
9.7300816 -53.281738 0.73839998
9.6802349 -53.277817 0.7288
9.6303902 -53.273891 0.73439997
9.5805435 -53.269966 0.73119998
9.5306988 -53.266041 0.72240001
9.4808521 -53.262115 0.73199999
9.4310064 -53.258194 0.70160002
9.3811607 -53.254269 0.69279999
9.331315 -53.250343 0.704
9.2814693 -53.246422 0.69599998
9.2316236 -53.242496 0.68080002
9.181778 -53.238571 0.64880002
9.1319323 -53.234646 0.65600002
9.0820866 -53.230721 0.65759999
9.0322409 -53.226799 0.62559998
8.9823952 -53.222874 0.6336
8.9325495 -53.218948 0.63679999
8.8827038 -53.215023 0.62639999
8.8328581 -53.211102 0.62239999
8.7830114 -53.207176 0.59280002
8.7331667 -53.203251 0.61440003
8.68332 -53.199326 0.58240002
8.6334753 -53.195404 0.58880001
8.5836287 -53.191479 0.56480002
8.533783 -53.187553 0.55440003
8.4839373 -53.183628 0.5248
8.4340916 -53.179703 0.53119999
8.3842459 -53.175781 0.52719998
8.3344002 -53.171856 0.48800001
8.2845545 -53.167931 0.4984
8.2347088 -53.164009 0.47040001
8.1848631 -53.160084 0.4384
8.1350174 -53.156158 0.43360001
8.0851717 -53.152233 0.42879999
8.035326 -53.148308 0.42480001
7.9854803 -53.144386 0.4016
7.9356346 -53.140461 0.38080001
7.8857889 -53.136536 0.3576
7.8359432 -53.13261 0.3536
7.7860966 -53.128689 0.35600001
7.7362509 -53.124763 0.32960001
7.6864052 -53.120838 0.2744
7.6365595 -53.116913 0.26640001
7.5867138 -53.112991 0.25999999
7.5368681 -53.109066 0.2384
7.4870224 -53.105141 0.204
7.4371767 -53.101215 0.19679999
7.387331 -53.097294 0.1552
7.3374853 -53.093369 0.1656
7.2876396 -53.089443 0.12
7.2377939 -53.085518 0.1048
7.1879482 -53.081596 0.0704
7.1381025 -53.077671 0.053599998
7.0882568 -53.073746 0.030400001
7.0384102 -53.06982 -0.0184
6.9885654 -53.065895 -0.053599998
6.9387188 -53.061974 -0.058400001
6.8888741 -53.058048 -0.1472
6.8390274 -53.054123 -0.14560001
6.7891817 -53.050201 -0.2304
6.739336 -53.046276 -0.25999999
6.6894903 -53.042351 -0.27680001
6.6396446 -53.038425 -0.38800001
6.5897989 -53.0345 -0.396
6.5399532 -53.030579 -0.43520001
6.4901075 -53.026653 -0.47999999
6.4402618 -53.022728 -0.49439999
6.3904161 -53.018803 -0.56080002
6.3405704 -53.014881 -0.64319998
6.2907238 -53.010956 -0.79280001
6.2408791 -53.00703 -0.7432
6.1910324 -53.003105 -0.90079999
6.1411877 -52.999184 -1.0743999
6.091341 -52.995258 -1.2616
12.686678 -53.313896 1.0344
12.636832 -53.309971 1.0336
12.586987 -53.306046 1.0336
12.537141 -53.302124 1.0336
12.487295 -53.298199 1.0328
12.437449 -53.294273 1.0328
12.387604 -53.290348 1.0336
12.337758 -53.286423 1.0368
12.287912 -53.282501 1.0352
12.238067 -53.278576 1.0319999
12.188221 -53.274651 1.0319999
12.138375 -53.270729 1.0328
12.08853 -53.266804 1.0304
12.038684 -53.262878 1.0304
11.988838 -53.258953 1.0296
11.938992 -53.255028 1.0288
11.889146 -53.251106 1.0296
11.8393 -53.247181 1.0264
11.789454 -53.243256 1.0247999
11.739609 -53.23933 1.0247999
11.689763 -53.235409 1.0256
11.639917 -53.231483 1.0272
11.590072 -53.227558 1.0256
11.540226 -53.223633 1.0264
11.49038 -53.219711 1.0247999
11.440535 -53.215786 1.024
11.390689 -53.211861 1.0247999
11.340843 -53.207935 1.0247999
11.290998 -53.20401 1.0224
11.241152 -53.200089 1.024
11.191306 -53.196163 1.0224
11.14146 -53.192238 1.0208
11.091614 -53.188316 1.0136
11.041768 -53.184391 0.99919999
10.991922 -53.180466 1.0096
10.942077 -53.17654 1.0088
10.892231 -53.172615 1.0039999
10.842385 -53.168694 1.0064
10.79254 -53.164768 1.0064
10.742694 -53.160843 1.008
10.692848 -53.156921 1.0032001
10.643003 -53.152996 1.0064
10.593157 -53.149071 0.98879999
10.543311 -53.145145 1.0056
10.493465 -53.14122 1.0039999
10.443619 -53.137299 1.0032001
10.393774 -53.133373 0.99519998
10.343927 -53.129448 0.99599999
10.294083 -53.125523 0.99839997
10.244236 -53.121601 0.98879999
10.194391 -53.117676 0.99199998
10.144545 -53.11375 1.0048
10.0947 -53.109825 1.0072
10.044853 -53.105904 0.99839997
9.9950085 -53.101978 0.98159999
9.9451618 -53.098053 0.97920001
9.8953161 -53.094128 0.97600001
9.8454704 -53.090202 0.96880001
9.7956247 -53.086281 0.96240002
9.745779 -53.082355 0.97680002
9.6959324 -53.07843 0.96719998
9.6460876 -53.074509 0.93360001
9.596241 -53.070583 0.93919998
9.5463963 -53.066658 0.94400001
9.4965496 -53.062733 0.93440002
9.4467049 -53.058807 0.91360003
9.3968582 -53.054886 0.92400002
9.3470135 -53.050961 0.90640002
9.2971668 -53.047035 0.90560001
9.2473221 -53.043114 0.90880001
9.1974754 -53.039188 0.88800001
9.1476297 -53.035263 0.87519997
9.097784 -53.031338 0.88160002
9.0479383 -53.027412 0.8664
8.9980927 -53.023491 0.8624
8.948247 -53.019566 0.8624
8.8984013 -53.01564 0.84719998
8.8485556 -53.011715 0.8488
8.7987099 -53.007793 0.8344
8.7488642 -53.003868 0.824
8.6990185 -52.999943 0.80720001
8.6491728 -52.996017 0.8064
8.5993271 -52.992096 0.78799999
8.5494804 -52.988171 0.79040003
8.4996357 -52.984245 0.78079998
8.449789 -52.98032 0.76560003
8.3999443 -52.976395 0.764
8.3500977 -52.972473 0.75999999
8.300252 -52.968548 0.76480001
8.2504063 -52.964622 0.72320002
8.2005606 -52.960701 0.70880002
8.1507149 -52.956776 0.70480001
8.1008692 -52.95285 0.68159997
8.0510235 -52.948925 0.68080002
8.0011778 -52.945 0.676
7.9513321 -52.941078 0.66799998
7.9014864 -52.937153 0.64880002
7.8516407 -52.933228 0.62159997
7.8017945 -52.929302 0.61680001
7.7519488 -52.925381 0.60000002
7.7021031 -52.921455 0.59039998
7.6522574 -52.91753 0.56879997
7.6024117 -52.913605 0.56080002
7.5525656 -52.909683 0.52880001
7.5027204 -52.905758 0.52719998
7.4528742 -52.901833 0.4912
7.403029 -52.897907 0.4824
7.3531828 -52.893986 0.44800001
7.3033371 -52.89006 0.4136
7.2534914 -52.886135 0.41600001
7.2036457 -52.88221 0.4016
7.1538 -52.878288 0.3696
7.1039543 -52.874363 0.35519999
7.0541081 -52.870438 0.3224
7.0042629 -52.866512 0.30239999
6.9544168 -52.862587 0.2536
6.9045715 -52.858665 0.2472
6.8547254 -52.85474 0.2464
6.8048797 -52.850815 0.2088
6.755034 -52.846893 0.1552
6.7051883 -52.842968 0.1464
6.6553426 -52.839043 0.092
6.6054969 -52.835117 0.069600001
6.5556507 -52.831192 0.028000001
6.5058055 -52.827271 0.0071999999
6.4559593 -52.823345 -0.0328
6.4061136 -52.81942 -0.072800003
6.3562679 -52.815495 -0.1336
6.3064218 -52.811573 -0.176
6.2565765 -52.807648 -0.22400001
6.2067304 -52.803722 -0.2656
6.1568851 -52.799797 -0.30559999
6.107039 -52.795876 -0.3856
6.0571933 -52.79195 -0.4208
6.0073476 -52.788025 -0.47920001
5.9575019 -52.7841 -0.58560002
5.9076562 -52.780178 -0.588
5.8578105 -52.776253 -0.71200001
5.8079643 -52.772327 -0.75840002
5.7581191 -52.768402 -0.884
5.7082729 -52.764481 -0.94559997
12.702376 -53.114513 0.97600001
12.65253 -53.110588 0.9752
12.602684 -53.106663 0.96319997
12.552838 -53.102737 0.96719998
12.502993 -53.098816 0.95039999
12.453147 -53.094891 0.95200002
12.403301 -53.090965 0.95120001
12.353456 -53.087044 0.96160001
12.30361 -53.083118 0.95120001
12.253764 -53.079193 0.94959998
12.203918 -53.075268 0.94639999
12.154073 -53.071342 0.93919998
12.104227 -53.067421 0.95200002
12.054381 -53.063496 0.95120001
12.004536 -53.05957 0.95279998
11.95469 -53.055645 0.95039999
11.904844 -53.051723 0.94400001
11.854998 -53.047798 0.94319999
11.805153 -53.043873 0.94400001
11.755306 -53.039948 0.94480002
11.705461 -53.036026 0.94080001
11.655615 -53.032101 0.95520002
11.605769 -53.028175 0.95520002
11.555923 -53.02425 0.95679998
11.506078 -53.020329 0.94639999
11.456232 -53.016403 0.93839997
11.406386 -53.012478 0.94
11.356541 -53.008553 0.93599999
11.306695 -53.004631 0.94639999
11.256849 -53.000706 0.94959998
11.207004 -52.99678 0.96079999
11.157158 -52.992855 0.95039999
11.107312 -52.98893 0.94239998
11.057467 -52.985008 0.88800001
11.00762 -52.981083 0.89840001
10.957774 -52.977158 0.83359998
10.907928 -52.973236 0.87199998
10.858083 -52.969311 0.83039999
10.808237 -52.965385 0.86320001
10.758391 -52.96146 0.9224
10.708546 -52.957535 0.91680002
10.6587 -52.953613 0.89600003
10.608854 -52.949688 0.9016
10.559009 -52.945763 0.94319999
10.509163 -52.941837 0.87279999
10.459317 -52.937916 0.88480002
10.409472 -52.93399 0.88480002
10.359626 -52.930065 0.95200002
10.30978 -52.92614 0.91680002
10.259934 -52.922218 0.90719998
10.210089 -52.918293 0.91039997
10.160242 -52.914368 0.96640003
10.110397 -52.910442 0.92159998
10.060551 -52.906521 0.93040001
10.010706 -52.902596 0.90319997
9.9608593 -52.89867 0.92559999
9.9110136 -52.894745 0.93360001
9.8611679 -52.890823 0.95200002
9.8113222 -52.886898 0.92479998
9.7614765 -52.882973 0.94400001
9.7116308 -52.879047 0.9296
9.6617851 -52.875122 0.96560001
9.6119394 -52.871201 0.97039998
9.5620937 -52.867275 0.97280002
9.512248 -52.86335 0.972
9.4624023 -52.859428 0.97920001
9.4125557 -52.855503 0.97680002
9.362711 -52.851578 0.97280002
9.3128643 -52.847652 0.97439998
9.2630196 -52.843727 0.96880001
9.2131729 -52.839806 0.9824
9.1633272 -52.83588 0.97759998
9.1134815 -52.831955 0.98079997
9.0636358 -52.82803 0.98400003
9.0137901 -52.824108 0.98799998
8.9639444 -52.820183 0.97680002
8.9140987 -52.816257 0.97680002
8.864253 -52.812332 0.98079997
8.8144073 -52.808411 0.9824
8.7645617 -52.804485 0.97839999
8.714716 -52.80056 0.97280002
8.6648703 -52.796635 0.97680002
8.6150246 -52.792709 0.97680002
8.5651779 -52.788788 0.97439998
8.5153332 -52.784863 0.97039998
8.4654865 -52.780937 0.97439998
8.4156418 -52.777016 0.9752
8.3657951 -52.77309 0.972
8.3159494 -52.769165 0.97280002
8.2661037 -52.76524 0.96640003
8.216258 -52.761314 0.9368
8.1664124 -52.757393 0.91680002
8.1165667 -52.753468 0.91680002
8.066721 -52.749542 0.91680002
8.0168753 -52.745621 0.88959998
7.9670296 -52.741695 0.88800001
7.9171839 -52.73777 0.85680002
7.8673382 -52.733845 0.86400002
7.817492 -52.729919 0.8272
7.7676463 -52.725998 0.82639998
7.7178006 -52.722073 0.81599998
7.6679549 -52.718147 0.83600003
7.6181092 -52.714222 0.79040003
7.5682631 -52.7103 0.76959997
7.5184178 -52.706375 0.764
7.4685717 -52.70245 0.74959999
7.4187264 -52.698524 0.73519999
7.3688803 -52.694603 0.71679997
7.3190346 -52.690678 0.69120002
7.2691889 -52.686752 0.676
7.2193432 -52.682827 0.648
7.1694975 -52.678902 0.65039998
7.1196518 -52.67498 0.61199999
7.0698056 -52.671055 0.6232
7.0199604 -52.66713 0.59280002
6.9701142 -52.663208 0.55599999
6.920269 -52.659283 0.53839999
6.8704228 -52.655357 0.49759999
6.8205771 -52.651432 0.50319999
6.7707314 -52.647507 0.45519999
6.7208858 -52.643585 0.45280001
6.6710401 -52.63966 0.44240001
6.6211944 -52.635735 0.4032
6.5713482 -52.631813 0.35679999
6.521503 -52.627888 0.3256
6.4716568 -52.623962 0.3064
6.4218111 -52.620037 0.2904
6.3719654 -52.616112 0.24879999
6.3221192 -52.61219 0.20559999
6.272274 -52.608265 0.17919999
6.2224278 -52.60434 0.15440001
6.1725826 -52.600414 0.1144
6.1227365 -52.596493 0.077600002
6.0728908 -52.592567 0.0063999998
6.0230451 -52.588642 -0.0071999999
5.9731994 -52.584717 -0.068000004
5.9233537 -52.580795 -0.075199999
5.873508 -52.57687 -0.1376
5.8236618 -52.572945 -0.2016
5.7738166 -52.569019 -0.2568
5.7239704 -52.565094 -0.34400001
5.6741252 -52.561172 -0.35280001
5.624279 -52.557247 -0.3976
5.5744333 -52.553322 -0.50800002
5.5245876 -52.5494 -0.5528
5.4747419 -52.545475 -0.64240003
5.4248962 -52.54155 -0.7184
5.3750505 -52.537624 -0.7888
8.7802591 -52.605103 0.85680002
8.7304134 -52.601177 0.84079999
8.6805677 -52.597252 0.83039999
8.630722 -52.59333 0.82800001
8.5808764 -52.589405 1.2736
8.5310307 -52.58548 0.88639998
8.481184 -52.581554 0.9016
8.4313393 -52.577629 0.88959998
8.3814926 -52.573708 0.9048
8.3316469 -52.569782 0.90960002
8.2818012 -52.565857 0.93199998
8.2319555 -52.561935 0.94400001
8.1821098 -52.55801 0.94480002
8.1322641 -52.554085 0.96319997
8.0824184 -52.550159 0.97119999
8.0325727 -52.546234 0.96960002
7.9827271 -52.542313 0.97039998
7.9328814 -52.538387 0.96799999
7.8830357 -52.534462 0.98159999
7.8331895 -52.530537 0.9752
7.7833438 -52.526615 0.96399999
7.7334981 -52.52269 0.96799999
7.6836524 -52.518764 0.96719998
7.6338067 -52.514839 0.96960002
7.5839605 -52.510918 0.9648
7.5341153 -52.506992 0.96880001
7.4842691 -52.503067 0.95200002
7.4344239 -52.499142 0.94
7.3845778 -52.49522 0.91439998
7.3347321 -52.491295 0.90560001
7.2848864 -52.48737 0.89840001
7.2350407 -52.483444 0.87519997
7.185195 -52.479523 0.84719998
7.1353493 -52.475597 0.84719998
7.0855031 -52.471672 0.83520001
7.0356579 -52.467747 0.81199998
6.9858117 -52.463821 0.78799999
6.9359665 -52.4599 0.7744
6.8861203 -52.455975 0.75440001
6.8362746 -52.452049 0.73439997
6.7864289 -52.448128 0.70880002
6.7365832 -52.444202 0.68480003
6.6867375 -52.440277 0.6728
6.6368918 -52.436352 0.64960003
6.5870457 -52.432426 0.61839998
6.5372005 -52.428505 0.63279998
6.4873543 -52.42458 0.58160001
6.4375086 -52.420654 0.56720001
6.3876629 -52.416729 0.52960002
6.3378167 -52.412807 0.5072
6.2879715 -52.408882 0.5
6.2381253 -52.404957 0.44479999
6.1882801 -52.401031 0.41679999
6.1384339 -52.39711 0.38640001
6.0885882 -52.393185 0.37040001
6.0387425 -52.389259 0.336
5.9888968 -52.385334 0.2872
5.9390512 -52.381413 0.26640001
5.8892055 -52.377487 0.19679999
5.8393593 -52.373562 0.1952
5.7895141 -52.369637 0.1296
5.7396679 -52.365715 0.1032
5.6898227 -52.36179 0.0504
5.6399765 -52.357864 0.0208
5.5901308 -52.353939 -0.051199999
5.5402851 -52.350014 -0.1056
5.4904394 -52.346092 -0.156
5.4405937 -52.342167 -0.18880001
5.390748 -52.338242 -0.2456
5.3409019 -52.33432 -0.32800001
5.2910566 -52.330395 -0.38240001
5.2412105 -52.326469 -0.44240001
5.1913652 -52.322544 -0.5248
5.1415191 -52.318619 -0.6408
5.0916729 -52.314697 -0.72479999
5.0418272 -52.310772 -0.8344
4.9919825 -52.306847 -0.96160001
4.9421358 -52.302921 -1.1016001
4.8922901 -52.299 -1.1048
12.833463 -52.723595 0.3752
12.783617 -52.719669 0.37760001
12.733771 -52.715748 0.38
12.683926 -52.711823 0.3768
12.63408 -52.707897 0.3752
12.584234 -52.703972 0.3712
12.534389 -52.70005 0.37599999
12.484543 -52.696125 0.37279999
12.434696 -52.6922 0.37360001
12.384851 -52.688274 0.3696
12.335005 -52.684353 0.368
12.285159 -52.680428 0.3664
12.235313 -52.676502 0.36559999
12.185468 -52.672577 0.3664
12.135622 -52.668655 0.36880001
12.085776 -52.66473 0.3664
12.035931 -52.660805 0.36559999
11.986085 -52.656879 0.36880001
11.936239 -52.652954 0.3664
11.886394 -52.649033 0.36160001
11.836548 -52.645107 0.3624
11.786702 -52.641182 0.36399999
11.736856 -52.63726 0.3768
11.687011 -52.633335 0.3712
11.637165 -52.62941 0.37040001
11.587319 -52.625484 0.3608
11.537474 -52.621559 0.35679999
11.487627 -52.617638 0.3696
11.437781 -52.613712 0.35519999
11.387936 -52.609787 0.3608
11.33809 -52.605862 0.35839999
11.288244 -52.60194 0.368
11.238399 -52.598015 0.36160001
11.188553 -52.59409 0.34560001
11.138707 -52.590164 0.34079999
11.088861 -52.586243 0.34
11.039016 -52.582317 0.3416
10.98917 -52.578392 0.32960001
10.939323 -52.574467 0.33199999
10.889479 -52.570545 0.33199999
10.839632 -52.56662 0.3328
10.789787 -52.562695 0.33199999
10.739941 -52.558769 0.32480001
10.690095 -52.554848 0.3224
10.640249 -52.550922 0.32159999
10.590404 -52.546997 0.31999999
10.540558 -52.543072 0.31920001
10.490712 -52.539146 0.31760001
10.440866 -52.535225 0.31999999
10.391021 -52.5313 0.324
10.341175 -52.527374 0.3328
10.291329 -52.523453 0.32159999
10.241484 -52.519527 0.32879999
10.191638 -52.515602 0.33039999
10.141792 -52.511677 0.32879999
10.091947 -52.507751 0.336
10.042101 -52.50383 0.336
9.9922543 -52.499905 0.34799999
9.9424095 -52.495979 0.3504
9.8925629 -52.492054 0.3536
9.8427181 -52.488132 0.35679999
9.7928715 -52.484207 0.36399999
9.7430258 -52.480282 0.3696
9.6931801 -52.476357 0.368
8.7959566 -52.40572 1.1192
8.7461109 -52.401794 1.1184
8.6962652 -52.397869 1.1128
8.6464195 -52.393944 1.1088001
8.5965738 -52.390022 1.1136
8.5467281 -52.386097 1.1416
8.4968824 -52.382172 0.96719998
8.4470367 -52.378246 0.94559997
8.397191 -52.374325 0.91439998
8.3473454 -52.370399 0.852
8.2974997 -52.366474 1.4016
8.247654 -52.362549 1.4248
8.1978083 -52.358627 1.4048001
8.1479626 -52.354702 1.4687999
8.0981159 -52.350777 1.5072
8.0482712 -52.346851 1.568
7.998425 -52.34293 1.5368
7.9485793 -52.339005 1.5608
7.8987336 -52.335079 1.5584
7.8488874 -52.331154 1.6424
7.7990417 -52.327232 1.62
7.7491961 -52.323307 1.604
7.6993504 -52.319382 1.5864
7.6495047 -52.315456 1.4552
7.5996585 -52.311531 0.87919998
7.5498133 -52.30761 0.884
7.4999671 -52.303684 0.92079997
7.4501219 -52.299759 0.91680002
7.4002757 -52.295837 0.94639999
7.35043 -52.291912 0.94959998
7.3005843 -52.287987 0.9544
7.2507386 -52.284061 0.95840001
7.2008929 -52.280136 0.95999998
7.1510472 -52.276215 0.9648
7.1012011 -52.272289 0.95920002
7.0513558 -52.268364 0.96640003
7.0015097 -52.264439 0.9576
6.9516644 -52.260517 0.96240002
6.9018183 -52.256592 0.95840001
6.8519726 -52.252666 0.95520002
6.8021269 -52.248741 0.92879999
6.7522812 -52.24482 0.90640002
6.7024355 -52.240894 0.88559997
6.6525898 -52.236969 0.87279999
6.6027436 -52.233044 0.83600003
6.5528984 -52.229118 0.8168
6.5030522 -52.225197 0.79360002
6.4532065 -52.221272 0.77679998
6.4033608 -52.217346 0.75440001
6.3535147 -52.213425 0.7392
6.3036695 -52.209499 0.73199999
6.2538233 -52.205574 0.70560002
6.2039781 -52.201649 0.66000003
6.1541319 -52.197723 0.648
6.1042862 -52.193802 0.61519998
6.0544405 -52.189877 0.5776
6.0045948 -52.185951 0.56559998
5.9547491 -52.18203 0.5352
5.9049034 -52.178104 0.50800002
5.8550572 -52.174179 0.47040001
5.805212 -52.170254 0.4224
5.7553658 -52.166328 0.40720001
5.7055206 -52.162407 0.3888
5.6556745 -52.158482 0.33840001
5.6058288 -52.154556 0.29120001
5.5559831 -52.150631 0.25119999
5.5061374 -52.146709 0.2088
5.4562917 -52.142784 0.1936
5.406446 -52.138859 0.1504
5.3565998 -52.134933 0.075199999
5.3067546 -52.131012 0.038400002
5.2569084 -52.127087 -0.0232
5.2070632 -52.123161 -0.046399999
5.157217 -52.119236 -0.1664
5.1073709 -52.115311 -0.184
5.0575252 -52.111389 -0.2624
5.0076804 -52.107464 -0.3488
4.9578338 -52.103539 -0.3768
4.9079881 -52.099617 -0.47679999
4.8581424 -52.095692 -0.50559998
4.8082967 -52.091766 -0.67839998
4.758451 -52.087841 -0.64399999
12.899006 -52.528137 0.32159999
12.84916 -52.524212 0.34799999
12.799314 -52.520287 0.33680001
12.749469 -52.516365 0.32080001
12.699623 -52.51244 0.32080001
12.649777 -52.508514 0.32480001
12.599932 -52.504589 0.32319999
12.550086 -52.500668 0.3256
12.50024 -52.496742 0.3256
12.450395 -52.492817 0.32800001
12.400549 -52.488892 0.32080001
12.350702 -52.48497 0.31439999
12.300857 -52.481045 0.324
12.251011 -52.477119 0.32080001
12.201165 -52.473194 0.3168
12.15132 -52.469273 0.31999999
12.101474 -52.465347 0.3168
12.051628 -52.461422 0.3168
12.001782 -52.457497 0.3168
11.951937 -52.453575 0.324
11.902091 -52.44965 0.3272
11.852245 -52.445724 0.32640001
11.8024 -52.441799 0.3224
11.752554 -52.437874 0.3168
11.702708 -52.433952 0.32800001
11.652863 -52.430027 0.30880001
11.603017 -52.426102 0.3048
11.553171 -52.42218 0.31119999
11.503325 -52.418255 0.31119999
11.453479 -52.41433 0.3064
11.403633 -52.410404 0.29840001
11.353787 -52.406479 0.30559999
11.303942 -52.402557 0.32480001
11.254096 -52.398632 0.32159999
11.20425 -52.394707 0.30559999
11.154405 -52.390781 0.2976
11.104559 -52.38686 0.30000001
11.054713 -52.382935 0.42399999
11.004868 -52.379009 0.4488
10.955022 -52.375084 0.44319999
10.905176 -52.371162 0.31439999
10.85533 -52.367237 0.3328
10.805485 -52.363312 0.41760001
10.755638 -52.359386 0.40400001
10.705793 -52.355461 0.40799999
10.655947 -52.35154 0.40959999
10.606102 -52.347614 0.40799999
10.556255 -52.343689 0.39199999
10.50641 -52.339767 0.38080001
10.456564 -52.335842 0.38080001
10.406718 -52.331917 0.43439999
10.356873 -52.327991 0.484
10.307027 -52.324066 0.4824
10.257181 -52.320145 0.5248
10.207335 -52.316219 0.30000001
10.15749 -52.312294 0.2832
10.107644 -52.308372 0.28400001
10.057798 -52.304447 0.28479999
10.007953 -52.300522 0.28479999
9.958107 -52.296597 0.2904
9.9082613 -52.292671 0.27919999
9.8584156 -52.28875 0.2784
9.808569 -52.284824 0.28560001
9.7587233 -52.280899 0.28479999
9.7088776 -52.276974 0.28639999
9.6590319 -52.273052 0.2904
9.6091862 -52.269127 0.28560001
9.5593405 -52.265202 0.3048
9.5094948 -52.261276 0.29679999
9.4596491 -52.257355 0.2888
9.4098034 -52.253429 0.28400001
9.3599577 -52.249504 0.28560001
9.310112 -52.245579 0.2816
9.2602663 -52.241653 0.2816
9.2104206 -52.237732 0.28560001
9.1605749 -52.233807 0.2832
9.1107292 -52.229881 0.28479999
9.0608826 -52.22596 0.28639999
9.0110378 -52.222034 0.28479999
8.9611912 -52.218109 0.28240001
8.9113464 -52.214184 0.27360001
8.8614998 -52.210258 0.2888
8.811655 -52.206337 0.28799999
8.7618084 -52.202412 0.28560001
8.7119637 -52.198486 0.28479999
8.662117 -52.194565 0.29280001
8.6122713 -52.190639 0.29679999
8.5624256 -52.186714 0.3096
8.5125799 -52.182789 0.3096
8.4627342 -52.178864 0.30399999
8.4128885 -52.174942 0.31760001
8.3630428 -52.171017 0.428
8.3131971 -52.167091 0.48640001
8.2633514 -52.163166 1.1544
8.2135057 -52.159245 1.1464
8.16366 -52.155319 1.1720001
8.1138134 -52.151394 1.252
8.0639687 -52.147469 1.244
8.014122 -52.143547 1.308
7.9642768 -52.139622 1.3352
7.9144311 -52.135696 1.3664
7.8645849 -52.131771 1.3592
7.8147392 -52.127846 1.2136
7.7648935 -52.123924 1.1848
7.7150478 -52.119999 1.2144001
7.6652021 -52.116074 1.2048
7.615356 -52.112152 1.216
7.5655107 -52.108227 1.2592
7.5156646 -52.104301 1.2808
7.4658194 -52.100376 1.288
7.4159732 -52.096451 1.3152
7.3661275 -52.092529 1.3272001
7.3162818 -52.088604 1.3088
7.2664361 -52.084679 1.2632
7.2165904 -52.080757 1.1704
7.1667447 -52.076832 1.1504
7.1168985 -52.072906 1.1368001
7.0670533 -52.068981 1.1104
7.0172071 -52.065056 0.85759997
6.9673619 -52.061134 0.89359999
6.9175158 -52.057209 0.92720002
6.8676701 -52.053284 0.92559999
6.8178244 -52.049358 0.95039999
6.7679787 -52.045433 0.95200002
6.718133 -52.041512 0.95520002
6.6682873 -52.037586 0.95039999
6.6184411 -52.033661 0.95679998
6.5685959 -52.029739 0.95039999
6.5187497 -52.025814 0.95520002
6.468904 -52.021889 0.94880003
6.4190583 -52.017963 0.94880003
6.3692122 -52.014038 0.94239998
6.3193669 -52.010117 0.92079997
6.2695208 -52.006191 0.88880002
6.2196755 -52.002266 0.86559999
6.1698294 -51.998344 0.8416
6.1199837 -51.994419 0.82080001
6.070138 -51.990494 0.78399998
6.0202923 -51.986568 0.77280003
5.9704466 -51.982643 0.7464
5.9206009 -51.978722 0.72960001
5.8707547 -51.974796 0.70160002
5.8209095 -51.970871 0.67760003
5.7710633 -51.966949 0.66159999
5.7212181 -51.963024 0.60399997
5.6713719 -51.959099 0.5808
5.6215262 -51.955173 0.54799998
5.5716805 -51.951248 0.5248
5.5218349 -51.947327 0.49759999
5.4719892 -51.943401 0.46160001
5.4221435 -51.939476 0.4312
5.3722973 -51.935551 0.38240001
5.3224521 -51.931625 0.3432
5.2726059 -51.927704 0.3064
5.2227607 -51.923779 0.25999999
5.1729145 -51.919853 0.1832
5.1230683 -51.915932 0.1936
5.0732226 -51.912006 0.112
5.0233779 -51.908081 0.083999999
4.9735312 -51.904156 0.040800001
4.9236856 -51.90023 -0.052000001
4.8738399 -51.896309 -0.086400002
4.8239942 -51.892384 -0.1496
4.7741485 -51.888458 -0.2184
4.7243028 -51.884537 -0.248
4.6744571 -51.880611 -0.36480001
4.6246114 -51.876686 -0.4824
4.5747647 -51.872761 -0.55040002
4.5249195 -51.868835 -0.65600002
4.4750738 -51.864914 -0.75919998
4.4252281 -51.860989 -0.74879998
12.864858 -52.324829 0.50959998
12.815012 -52.320904 0.46160001
12.765166 -52.316978 0.52240002
12.715321 -52.313057 0.53200001
12.665475 -52.309132 0.52079999
12.615629 -52.305206 0.4928
12.565784 -52.301285 0.16159999
12.515938 -52.297359 0.1336
12.466092 -52.293434 0.0016
12.416246 -52.289509 0.4224
12.366401 -52.285583 0.45680001
12.316555 -52.281662 0.46079999
12.266709 -52.277737 0.4648
12.216864 -52.273811 0.49200001
12.167017 -52.26989 0.48640001
12.117171 -52.265965 0.47679999
12.067326 -52.262039 0.45680001
12.01748 -52.258114 0.6688
11.967634 -52.254189 0.54879999
11.917789 -52.250267 0.52079999
11.867943 -52.246342 0.52640003
11.818097 -52.242416 0.528
11.768251 -52.238491 0.4928
11.718406 -52.23457 0.50080001
11.66856 -52.230644 0.50400001
11.618714 -52.226719 0.52079999
11.568869 -52.222794 0.5072
11.519023 -52.218872 0.4896
11.469177 -52.214947 0.48879999
11.419331 -52.211021 0.4752
11.369486 -52.207096 0.47440001
11.319639 -52.203171 0.4752
11.269794 -52.199249 0.48559999
11.219948 -52.195324 0.47679999
11.170102 -52.191399 0.4664
11.120256 -52.187477 0.45680001
11.070411 -52.183552 0.46239999
11.020565 -52.179626 0.4576
10.970719 -52.175701 0.45680001
10.920874 -52.171776 0.44639999
10.871028 -52.167854 0.46079999
10.821182 -52.163929 0.46000001
10.771337 -52.160004 0.47600001
10.721491 -52.156078 0.47440001
10.671645 -52.152157 0.46079999
10.621799 -52.148232 0.45519999
10.571954 -52.144306 0.45919999
10.522108 -52.140381 0.45919999
10.472261 -52.136459 0.472
10.422417 -52.132534 0.46959999
10.37257 -52.128609 0.45120001
10.322725 -52.124683 0.45120001
10.272879 -52.120758 0.45519999
10.223033 -52.116837 0.46079999
10.173187 -52.112911 0.44400001
10.123342 -52.108986 0.44080001
10.073496 -52.105064 0.43200001
10.02365 -52.101139 0.4384
9.9738045 -52.097214 0.42320001
9.9239588 -52.093288 0.41760001
9.8741131 -52.089363 0.39359999
9.8242664 -52.085442 0.42640001
9.7744217 -52.081516 0.49680001
9.724575 -52.077591 0.52240002
9.6747303 -52.073669 0.5352
9.6248837 -52.069744 0.54879999
9.5750389 -52.065819 0.4736
9.5251923 -52.061893 0.46079999
9.4753466 -52.057968 0.296
9.4255009 -52.054047 0.3136
9.3756552 -52.050121 0.28799999
9.3258095 -52.046196 0.30399999
9.2759638 -52.042274 0.29120001
9.2261181 -52.038349 0.30239999
9.1762724 -52.034424 0.31600001
9.1264267 -52.030499 0.32800001
9.07658 -52.026573 0.3488
9.0267353 -52.022652 0.3272
8.9768887 -52.018726 0.2728
8.9270439 -52.014801 0.48320001
8.8771973 -52.010876 0.5984
8.8273525 -52.00695 0.59439999
8.7775059 -52.003029 0.28639999
8.7276611 -51.999104 0.27599999
8.6778145 -51.995178 0.27919999
8.6279688 -51.991257 0.28080001
8.5781231 -51.987331 0.28080001
8.5282774 -51.983406 0.27599999
8.4784317 -51.979481 0.2992
8.428586 -51.975555 0.8272
8.3787403 -51.971634 0.66240001
8.3288946 -51.967709 0.2816
8.2790489 -51.963783 0.28
8.2292032 -51.959862 0.28240001
8.1793575 -51.955936 0.27680001
8.1295109 -51.952011 0.28080001
8.0796661 -51.948086 0.2832
8.0298195 -51.94416 0.28799999
7.9799743 -51.940239 0.28799999
7.9301286 -51.936314 0.28799999
7.8802824 -51.932388 0.28
7.8304367 -51.928467 0.2816
7.780591 -51.924541 0.28560001
7.7307453 -51.920616 0.29280001
7.6808996 -51.916691 0.29120001
7.6310534 -51.912766 0.28240001
7.5812082 -51.908844 1.0016
7.5313621 -51.904919 1.0264
7.4815168 -51.900993 1.0368
7.4316707 -51.897068 1.0432
7.381825 -51.893143 1.0384001
7.3319793 -51.889221 1.0264
7.2821336 -51.885296 0.99519998
7.2322879 -51.881371 0.95999998
7.1824422 -51.877449 0.86080003
7.132596 -51.873524 0.83200002
7.0827508 -51.869598 0.80800003
7.0329046 -51.865673 0.83600003
6.9830594 -51.861748 0.83200002
6.9332132 -51.857826 0.82160002
6.8833675 -51.853901 0.82800001
6.8335218 -51.849976 0.81599998
6.7836761 -51.846054 0.76800001
6.7338305 -51.842129 0.78640002
6.6839848 -51.838203 0.76719999
6.6341386 -51.834278 0.74879998
6.5842934 -51.830353 0.75760001
6.5344472 -51.826431 0.75279999
6.4846015 -51.822506 0.76480001
6.4347558 -51.818581 0.90560001
6.3849096 -51.814659 0.91680002
6.3350644 -51.810734 0.93919998
6.2852182 -51.806808 0.94480002
6.235373 -51.802883 0.94880003
6.1855268 -51.798958 0.95200002
6.1356812 -51.795036 0.95120001
6.0858355 -51.791111 0.9544
6.0359898 -51.787186 0.94880003
5.9861441 -51.78326 0.94800001
5.9362984 -51.779335 0.93360001
5.8864522 -51.775414 0.90719998
5.836607 -51.771488 0.86879998
5.7867608 -51.767563 0.8416
5.7369156 -51.763641 0.80400002
5.6870694 -51.759716 0.792
5.6372237 -51.755791 0.76719999
5.587378 -51.751865 0.7464
5.5375323 -51.74794 0.72079998
5.4876866 -51.744019 0.68400002
5.4378409 -51.740093 0.63520002
5.3879948 -51.736168 0.62480003
5.3381495 -51.732246 0.57599998
5.2883034 -51.728321 0.5424
5.2384582 -51.724396 0.51200002
5.188612 -51.72047 0.48480001
5.1387658 -51.716545 0.44400001
5.0889201 -51.712624 0.43439999
5.0390754 -51.708698 0.37920001
4.9892287 -51.704773 0.31040001
4.939383 -51.700851 0.2888
4.8895373 -51.696922 0.2376
4.8396916 -51.693001 0.1848
4.7898459 -51.689075 0.1376
4.7400002 -51.68515 0.098399997
4.6901546 -51.681229 0.056000002
4.6403089 -51.677303 -0.0296
4.5904622 -51.673378 -0.1144
4.5406179 -51.669453 -0.16
4.4907722 -51.665527 -0.24879999
4.4409266 -51.661606 -0.32879999
4.3910799 -51.657681 -0.34639999
4.3412342 -51.653755 -0.46160001
4.2913895 -51.649834 -0.57279998
4.2415438 -51.645908 -0.69120002
4.1916971 -51.641983 -0.79040003
4.1418514 -51.638058 -0.95679998
12.880555 -52.125446 0.68080002
12.830709 -52.121521 0.6832
12.780864 -52.117599 0.6728
12.731018 -52.113674 0.6728
12.681172 -52.109749 0.704
12.631327 -52.105824 0.6832
12.581481 -52.101898 0.65679997
12.531635 -52.097977 0.69199997
12.48179 -52.094051 0.6832
12.431944 -52.090126 0.65280002
12.382098 -52.086205 0.62879997
12.332253 -52.082279 0.62
12.282407 -52.078354 0.64960003
12.232561 -52.074429 0.70160002
12.182715 -52.070503 0.51440001
12.13287 -52.066582 0.4824
12.083023 -52.062656 0.4912
12.033177 -52.058731 0.4648
11.983332 -52.05481 0.46079999
11.933486 -52.050884 0.44960001
11.88364 -52.046959 0.43759999
11.833795 -52.043034 0.4384
11.783949 -52.039108 0.44159999
11.734103 -52.035187 0.44639999
11.684258 -52.031261 0.45039999
11.634412 -52.027336 0.46160001
11.584566 -52.023411 0.46079999
11.53472 -52.019485 0.4736
11.484875 -52.015564 0.46720001
11.435029 -52.011639 0.47279999
11.385183 -52.007713 0.47119999
11.335337 -52.003792 0.47440001
11.285492 -51.999866 0.4664
11.235645 -51.995941 0.4632
11.1858 -51.992016 0.46160001
11.135954 -51.988091 0.45840001
11.086108 -51.984169 0.45680001
11.036263 -51.980244 0.45359999
10.986417 -51.976318 0.4544
10.936571 -51.972397 0.46560001
10.886725 -51.968472 0.46239999
10.83688 -51.964546 0.46160001
10.787034 -51.960621 0.46160001
10.737188 -51.956696 0.45919999
10.687343 -51.952774 0.46079999
10.637497 -51.948849 0.456
10.587651 -51.944923 0.46000001
10.537806 -51.941002 0.456
10.487959 -51.937077 0.44479999
10.438114 -51.933151 0.44080001
10.388268 -51.929226 0.44479999
10.338423 -51.925301 0.4456
10.288576 -51.921379 0.45280001
10.23873 -51.917454 0.4472
10.188885 -51.913528 0.44400001
10.139039 -51.909603 0.4488
10.089193 -51.905678 0.4488
10.039348 -51.901756 0.45359999
9.989502 -51.897831 0.45280001
9.9396563 -51.893906 0.45680001
9.8898106 -51.889984 0.46399999
9.8399649 -51.886059 0.47999999
9.7901192 -51.882133 0.50800002
9.7402725 -51.878208 0.51520002
9.6904278 -51.874283 0.52719998
9.6405811 -51.870361 0.53439999
9.5907364 -51.866436 0.5528
9.5408897 -51.862511 0.56720001
9.491044 -51.858589 0.45680001
9.4411983 -51.854664 0.45680001
9.3913527 -51.850739 0.60399997
9.341507 -51.846813 0.59119999
9.2916613 -51.842888 0.45120001
9.2418156 -51.838966 0.52880001
9.1919699 -51.835041 0.62239999
9.1421242 -51.831116 0.62480003
9.0922785 -51.827194 0.62639999
9.0424328 -51.823265 0.62879997
8.9925871 -51.819344 0.62800002
8.9427414 -51.815418 0.64719999
8.8928947 -51.811493 0.62239999
8.84305 -51.807571 0.59759998
8.7932034 -51.803646 0.66079998
8.7433586 -51.799721 0.704
8.693512 -51.795795 0.57279998
8.6436663 -51.79187 0.2784
8.5938206 -51.787949 0.2728
8.5439749 -51.784023 0.2816
8.4941292 -51.780098 0.27039999
8.4442835 -51.776176 0.27520001
8.3944378 -51.772251 0.26320001
8.3445921 -51.768326 0.27759999
8.2947464 -51.7644 0.27599999
8.2449007 -51.760475 0.2696
8.195055 -51.756554 0.2696
8.1452093 -51.752628 0.2568
8.0953636 -51.748703 0.2568
8.0455179 -51.744781 0.25119999
7.9956722 -51.740856 0.26480001
7.9458265 -51.736931 0.264
7.8959799 -51.733006 0.27360001
7.8461342 -51.72908 0.27200001
7.7962885 -51.725159 0.2728
7.7464428 -51.721233 0.2744
7.6965971 -51.717308 0.27200001
7.6467514 -51.713387 0.2784
7.5969057 -51.709457 0.2888
7.54706 -51.705536 0.296
7.4972143 -51.701611 0.32080001
7.4473686 -51.697685 0.28960001
7.3975229 -51.693764 0.2744
7.3476772 -51.689838 0.27200001
7.2978315 -51.685913 0.95920002
7.2479858 -51.681988 0.3608
7.1981401 -51.678062 0.2744
7.1482935 -51.674141 0.2816
7.0984488 -51.670216 0.27360001
7.0486021 -51.66629 0.2784
6.9987574 -51.662369 0.58160001
6.9489107 -51.658443 0.58880001
6.899065 -51.654518 0.53920001
6.8492193 -51.650593 0.53600001
6.7993736 -51.646667 0.53759998
6.7495279 -51.642746 0.52880001
6.6996822 -51.638821 0.56559998
6.6498365 -51.634895 0.60879999
6.5999908 -51.630974 0.59280002
6.5501451 -51.627048 0.61680001
6.5002995 -51.623123 0.6408
6.4504538 -51.619198 0.66479999
6.4006071 -51.615273 0.68879998
6.3507624 -51.611351 0.71359998
6.3009157 -51.607426 0.73760003
6.251071 -51.6035 0.76160002
6.2012243 -51.599579 0.78560001
6.1513786 -51.59565 0.8096
6.1015329 -51.591728 0.83920002
6.0516872 -51.587803 0.8448
6.0018415 -51.583878 0.89920002
5.9519958 -51.579956 0.92479998
5.9021502 -51.576031 0.92799997
5.8523045 -51.572105 0.93760002
5.8024588 -51.56818 0.94160002
5.7526131 -51.564255 0.94480002
5.7027674 -51.560333 0.94480002
5.6529217 -51.556408 0.93919998
5.603076 -51.552483 0.93599999
5.5532303 -51.548561 0.9224
5.5033846 -51.544636 0.87199998
5.4535389 -51.54071 0.86159998
5.4036922 -51.536785 0.82080001
5.3538475 -51.53286 0.78479999
5.3040009 -51.528938 0.76560003
5.2541561 -51.525013 0.72000003
5.2043095 -51.521088 0.7216
5.1544638 -51.517166 0.69199997
5.1046181 -51.513241 0.64160001
5.0547733 -51.509315 0.60399997
5.0049267 -51.50539 0.55919999
4.955081 -51.501465 0.53359997
4.9052353 -51.497543 0.4896
4.8553896 -51.493618 0.4472
4.8055439 -51.489693 0.3944
4.7556982 -51.485767 0.37439999
4.7058525 -51.481842 0.3184
4.6560068 -51.477921 0.26719999
4.6061602 -51.473995 0.2288
4.5563154 -51.47007 0.1912
4.5064697 -51.466148 0.14399999
4.456624 -51.462223 0.085600004
4.4067774 -51.458298 -0.016000001
4.3569317 -51.454372 -0.046399999
4.3070869 -51.450447 -0.1064
4.2572412 -51.446526 -0.1816
4.2073946 -51.4426 -0.30239999
4.1575489 -51.438675 -0.3664
4.1077032 -51.434753 -0.42480001
4.0578585 -51.430828 -0.52079999
4.0080118 -51.426903 -0.648
3.9581661 -51.422977 -0.77039999
12.896254 -51.926064 0.63679999
12.846407 -51.922138 0.61839998
12.796561 -51.918213 0.63599998
12.746716 -51.914291 0.64719999
12.69687 -51.910366 0.66000003
12.647024 -51.906441 0.65920001
12.597178 -51.902519 0.50880003
12.547333 -51.898594 0.49439999
12.497487 -51.894669 0.4808
12.447641 -51.890743 0.46399999
12.397796 -51.886818 0.4648
12.34795 -51.882896 0.46000001
12.298104 -51.878971 0.4648
12.248259 -51.875046 0.472
12.198413 -51.87112 0.4648
12.148567 -51.867195 0.45519999
12.098721 -51.863274 0.45199999
12.048876 -51.859348 0.4472
11.999029 -51.855423 0.4456
11.949183 -51.851501 0.44400001
11.899338 -51.847576 0.44159999
11.849492 -51.843651 0.4456
11.799646 -51.839725 0.4456
11.749801 -51.8358 0.44400001
11.699955 -51.831879 0.45120001
11.650109 -51.827953 0.45680001
11.600264 -51.824028 0.46079999
11.550418 -51.820107 0.46160001
11.500572 -51.816181 0.46160001
11.450727 -51.812256 0.4632
11.400881 -51.808331 0.46079999
11.351035 -51.804405 0.46560001
11.301189 -51.800484 0.4648
11.251343 -51.796558 0.46399999
11.201498 -51.792633 0.46000001
11.151651 -51.788712 0.45840001
11.101806 -51.784782 0.45039999
11.05196 -51.780861 0.44639999
11.002114 -51.776936 0.4544
10.952269 -51.77301 0.45359999
10.902423 -51.769089 0.45120001
10.852577 -51.765163 0.456
