# .PCD v0.7 - Point Cloud Data file format
VERSION 0.7
FIELDS x y z
SIZE 4 4 4
TYPE F F F
COUNT 1 1 1
WIDTH 1924
HEIGHT 1
VIEWPOINT 0 0 0 1 0 0 0
POINTS 1924
DATA ascii
7.8000002 0.1 1.1616
7.8000002 0.15000001 1.1648
7.8000002 0.2 1.1648
7.8000002 0.25 1.1576
7.8000002 0.30000001 1.1504
7.8000002 0.34999999 1.1576
7.8000002 0.40000001 1.1472
7.8000002 0.44999999 1.1328
7.8000002 0.5 1.14
7.8000002 0.55000001 1.1336
7.8000002 0.60000002 1.1392
7.8000002 0.64999998 1.1344
7.8000002 0.69999999 1.1464
7.8000002 0.75 1.1344
7.8000002 0.80000001 1.1368001
7.8000002 0.85000002 1.128
7.8000002 0.89999998 1.1392
7.8000002 0.94999999 1.1552
7.8000002 1 1.152
7.8000002 1.05 1.1488
7.8000002 1.1 1.132
7.8000002 1.15 1.1424
7.8000002 1.2 1.152
7.8000002 1.25 1.2688
7.8000002 1.3 1.2151999
7.8000002 1.35 1.1528
7.8000002 1.4 1.1528
7.8000002 1.45 1.1528
7.8000002 1.5 1.1303999
7.8000002 1.55 1.2151999
7.8000002 1.6 1.2456
7.8000002 1.65 1.1576
7.8000002 1.7 1.3328
7.8000002 1.75 1.3983999
7.8000002 1.8 1.4656
7.8000002 1.85 1.3696001
7.8000002 1.9 1.4263999
7.8000002 1.95 1.0936
7.8000002 2 1.1064
7.8000002 2.05 1.3528
7.8000002 2.0999999 1.1424
7.8000002 2.1500001 1.1216
7.8000002 2.2 1.2888
7.8000002 2.25 1.2632
7.8000002 2.3 1.2824
7.8000002 2.3499999 1.2488
7.8000002 2.4000001 1.2208
7.8000002 2.45 1.1768
7.8000002 2.5 1.1528
7.8000002 2.55 1.1208
7.8000002 2.5999999 1.132
7.8000002 2.6500001 1.1264
7.8000002 2.7 1.1160001
7.8000002 2.75 1.1176
7.8000002 2.8 1.1176
7.8000002 2.8499999 1.1023999
7.8000002 2.9000001 1.0928
7.8000002 2.95 0.98159999
7.8000002 3 0.97439998
7.8000002 3.05 0.96640003
7.8000002 3.0999999 0.95999998
7.8000002 3.1500001 0.96319997
7.8000002 3.2 0.9576
7.8000002 3.25 0.96560001
7.8000002 3.3 0.96240002
7.8000002 3.3499999 0.95999998
7.8000002 3.4000001 0.9576
7.8000002 3.45 0.96319997
7.8000002 3.5 0.96240002
7.8000002 3.55 0.96240002
7.8000002 3.5999999 0.9576
7.8000002 3.6500001 0.95599997
7.8000002 3.7 0.95840001
7.8000002 3.75 0.95999998
7.8000002 3.8 0.95920002
7.8000002 3.8499999 0.95999998
7.8000002 3.9000001 0.95840001
7.8000002 3.95 0.9648
7.8000002 4 0.96640003
7.8000002 4.0500002 0.95999998
7.8000002 4.0999999 0.96319997
7.8000002 4.1500001 0.96319997
7.8000002 4.1999998 0.96319997
7.8000002 4.25 0.96319997
7.8000002 4.3000002 0.95279998
7.8000002 4.3499999 0.93279999
7.8000002 4.4000001 0.93599999
7.8000002 4.4499998 0.94160002
7.8000002 4.5 0.94400001
7.8000002 4.5500002 0.94
7.8000002 4.5999999 0.93120003
7.8000002 4.6500001 0.94400001
7.8000002 4.6999998 0.95120001
7.8000002 4.75 0.95679998
7.8000002 4.8000002 0.95279998
7.8000002 4.8499999 0.9544
7.8000002 4.9000001 0.95679998
7.8000002 4.9499998 0.9648
7.8000002 5 0.98159999
7.8000002 5.0500002 0.99599999
7.8000002 5.0999999 1.0192
7.8000002 5.1500001 1.0743999
7.8000002 5.1999998 1.128
7.8000002 5.25 1.1824
7.8000002 5.3000002 1.2368
7.8000002 5.3499999 1.2912
7.8000002 5.4000001 1.3448
7.8000002 5.4499998 1.3992
7.8000002 5.5 1.4536
7.8000002 5.5500002 1.508
7.8000002 5.5999999 1.552
7.8000002 5.6500001 1.536
7.8000002 5.6999998 1.5888
7.8000002 5.75 1.6432
7.8000002 5.8000002 1.6592
7.8000002 5.8499999 1.668
7.8000002 5.9000001 1.668
7.8000002 5.9499998 1.6696
7.8000002 6 1.6712
7.8000002 6.0500002 1.6424
7.8000002 6.0999999 1.592
7.8000002 6.1500001 1.568
7.8000002 6.1999998 1.548
7.8000002 6.25 1.5016
7.8000002 6.3000002 1.4568
7.8000002 6.3499999 1.4304
7.8000002 6.4000001 1.3992
7.8000002 6.4499998 1.34
7.8000002 6.5 1.308
7.8000002 6.5500002 1.2855999
7.8000002 6.5999999 1.22
7.8000002 6.6500001 1.1872
7.8000002 6.6999998 1.1112
7.8000002 6.75 1.0888
7.8000002 6.8000002 1.0264
7.8000002 6.8499999 0.95200002
7.8000002 6.9000001 0.92000002
7.8000002 6.9499998 0.87919998
7.8000002 7 0.77039999
7.8000002 7.0500002 0.69679999
7.8000002 7.0999999 0.63999999
7.8000002 7.1500001 0.588
7.8000002 7.1999998 0.50080001
7.8000002 7.25 0.37599999
7.8000002 7.3000002 0.2992
7.8000002 7.3499999 0.1648
7.8000002 7.4000001 0.064800002
7.8000002 7.4499998 -0.112
7.8000002 7.5 -0.26719999
7.8000002 7.5500002 -0.44240001
8 0 0.99040002
8 0.050000001 1.096
8 0.1 1.1368001
8 0.15000001 1.1648
8 0.2 1.1712
8 0.25 1.1688
8 0.30000001 1.1536
8 0.34999999 1.1432
8 0.40000001 1.148
8 0.44999999 1.136
8 0.5 1.1184
8 0.55000001 1.1616
8 0.60000002 1.1888
8 0.64999998 1.1384
8 0.69999999 1.1568
8 0.75 1.1568
8 0.80000001 1.1496
8 0.85000002 1.148
8 0.89999998 1.1384
8 0.94999999 1.1344
8 1 1.1248
8 1.05 1.1168
8 1.1 1.1104
8 1.15 1.112
8 1.2 1.1248
8 1.25 1.1440001
8 1.3 1.1616
8 1.35 1.1616
8 1.4 1.2288001
8 1.45 1.2312
8 1.5 1.1824
8 1.55 1.2064
8 1.6 1.2264
8 1.65 1.2536
8 1.7 1.2768
8 1.75 1.3672
8 1.8 1.1456
8 1.85 1.1792001
8 1.9 1.16
8 1.95 1.1912
8 2 1.3008
8 2.05 1.2927999
8 2.0999999 1.3048
8 2.1500001 1.3248
8 2.2 1.3200001
8 2.25 1.3144
8 2.3 1.3063999
8 2.3499999 1.2808
8 2.4000001 1.2344
8 2.45 1.1648
8 2.5 1.1888
8 2.55 1.1512001
8 2.5999999 1.1432
8 2.6500001 1.12
8 2.7 1.1536
8 2.75 1.1408
8 2.8 1.1088001
8 2.8499999 1.1008
8 2.9000001 1.0728
8 2.95 0.97839999
8 3 0.97680002
8 3.05 0.96560001
8 3.0999999 0.96399999
8 3.1500001 0.96560001
8 3.2 0.96160001
8 3.25 0.95840001
8 3.3 0.96399999
8 3.3499999 0.9544
8 3.4000001 0.9576
8 3.45 0.95359999
8 3.5 0.95039999
8 3.55 0.95920002
8 3.5999999 0.96079999
8 3.6500001 0.96160001
8 3.7 0.95520002
8 3.75 0.95920002
8 3.8 0.95679998
8 3.8499999 0.95920002
8 3.9000001 0.96079999
8 3.95 0.95679998
8 4 0.95920002
8 4.0500002 0.95999998
8 4.0999999 0.95920002
8 4.1500001 0.96160001
8 4.1999998 0.96079999
8 4.25 0.9576
8 4.3000002 0.95840001
8 4.3499999 0.92159998
8 4.4000001 0.93279999
8 4.4499998 0.93919998
8 4.5 0.93519998
8 4.5500002 0.9368
8 4.5999999 0.93440002
8 4.6500001 0.9368
8 4.6999998 0.93919998
8 4.75 0.94080001
8 4.8000002 0.94559997
8 4.8499999 0.93599999
8 4.9000001 0.94319999
8 4.9499998 0.94480002
8 5 0.94400001
8 5.0500002 0.95120001
8 5.0999999 0.95599997
8 5.1500001 0.94800001
8 5.1999998 0.9544
8 5.25 0.96560001
8 5.3000002 0.96880001
8 5.3499999 0.97839999
8 5.4000001 1.012
8 5.4499998 1.0544
8 5.5 1.1160001
8 5.5500002 1.1768
8 5.5999999 1.2384
8 5.6500001 1.3
8 5.6999998 1.3608
8 5.75 1.4224
8 5.8000002 1.484
8 5.8499999 1.5376
8 5.9000001 1.5384001
8 5.9499998 1.6432
8 6 1.6488
8 6.0500002 1.66
8 6.0999999 1.668
8 6.1500001 1.668
8 6.1999998 1.668
8 6.25 1.6664
8 6.3000002 1.6456
8 6.3499999 1.596
8 6.4000001 1.5528001
8 6.4499998 1.5391999
8 6.5 1.4888
8 6.5500002 1.4504
8 6.5999999 1.428
8 6.6500001 1.3672
8 6.6999998 1.3392
8 6.75 1.2824
8 6.8000002 1.2304
8 6.8499999 1.1952
8 6.9000001 1.1456
8 6.9499998 1.1104
8 7 1.048
8 7.0500002 1.0048
8 7.0999999 0.93199998
8 7.1500001 0.85759997
8 7.1999998 0.8096
8 7.25 0.71439999
8 7.3000002 0.64399999
8 7.3499999 0.59039998
8 7.4000001 0.49039999
8 7.4499998 0.40560001
8 7.5 0.28799999
8 7.5500002 0.2032
8 7.5999999 0.078400001
8 7.6500001 -0.1256
8 7.6999998 -0.36160001
8 7.75 -0.67439997
8.1999998 0 0.91280001
8.1999998 0.050000001 0.97439998
8.1999998 0.1 1.1168
8.1999998 0.15000001 1.1447999
8.1999998 0.2 1.1528
8.1999998 0.25 1.1544
8.1999998 0.30000001 1.1552
8.1999998 0.34999999 1.1384
8.1999998 0.40000001 1.1408
8.1999998 0.44999999 1.1568
8.1999998 0.5 1.1208
8.1999998 0.55000001 1.132
8.1999998 0.60000002 1.1464
8.1999998 0.64999998 1.1488
8.1999998 0.69999999 1.1632
8.1999998 0.75 1.16
8.1999998 0.80000001 1.148
8.1999998 0.85000002 1.1447999
8.1999998 0.89999998 1.1416
8.1999998 0.94999999 1.1512001
8.1999998 1 1.1392
8.1999998 1.05 1.1232001
8.1999998 1.1 1.1064
8.1999998 1.15 1.1160001
8.1999998 1.2 1.1303999
8.1999998 1.25 1.1272
8.1999998 1.3 1.1408
8.1999998 1.35 1.1888
8.1999998 1.4 1.1888
8.1999998 1.45 1.168
8.1999998 1.5 1.1375999
8.1999998 1.55 1.132
8.1999998 1.6 1.1408
8.1999998 1.65 1.1408
8.1999998 1.7 1.1496
8.1999998 1.75 1.1424
8.1999998 1.8 1.1375999
8.1999998 1.85 1.1392
8.1999998 1.9 1.1248
8.1999998 1.95 1.1128
8.1999998 2 1.1112
8.1999998 2.05 1.1336
8.1999998 2.0999999 1.3152
8.1999998 2.1500001 1.3016
8.1999998 2.2 1.2711999
8.1999998 2.25 1.2079999
8.1999998 2.3 1.2368
8.1999998 2.3499999 1.2151999
8.1999998 2.4000001 1.2336
8.1999998 2.45 1.1856
8.1999998 2.5 1.176
8.1999998 2.55 1.1944
8.1999998 2.5999999 1.1824
8.1999998 2.6500001 1.152
8.1999998 2.7 1.1616
8.1999998 2.75 1.1576
8.1999998 2.8 1.1440001
8.1999998 2.8499999 1.124
8.1999998 2.9000001 1.072
8.1999998 2.95 0.98400003
8.1999998 3 0.99519998
8.1999998 3.05 1.0368
8.1999998 3.0999999 0.94880003
8.1999998 3.1500001 0.96319997
8.1999998 3.2 0.95279998
8.1999998 3.25 0.96160001
8.1999998 3.3 0.95920002
8.1999998 3.3499999 0.9576
8.1999998 3.4000001 0.95599997
8.1999998 3.45 0.95520002
8.1999998 3.5 0.95359999
8.1999998 3.55 0.95120001
8.1999998 3.5999999 0.96079999
8.1999998 3.6500001 0.96079999
8.1999998 3.7 0.9544
8.1999998 3.75 0.95679998
8.1999998 3.8 0.95359999
8.1999998 3.8499999 0.9576
8.1999998 3.9000001 0.9576
8.1999998 3.95 0.95840001
8.1999998 4 0.95200002
8.1999998 4.0500002 0.95359999
8.1999998 4.0999999 0.95279998
8.1999998 4.1500001 0.96240002
8.1999998 4.1999998 0.96079999
8.1999998 4.25 0.9544
8.1999998 4.3000002 0.95359999
8.1999998 4.3499999 0.93760002
8.1999998 4.4000001 0.92879999
8.1999998 4.4499998 0.93120003
8.1999998 4.5 0.93760002
8.1999998 4.5500002 0.9368
8.1999998 4.5999999 0.94080001
8.1999998 4.6500001 0.94239998
8.1999998 4.6999998 0.94080001
8.1999998 4.75 0.94160002
8.1999998 4.8000002 0.94160002
8.1999998 4.8499999 0.94239998
8.1999998 4.9000001 0.93839997
8.1999998 4.9499998 0.94639999
8.1999998 5 0.94400001
8.1999998 5.0500002 0.94480002
8.1999998 5.0999999 0.94639999
8.1999998 5.1500001 0.94559997
8.1999998 5.1999998 0.94880003
8.1999998 5.25 0.95200002
8.1999998 5.3000002 0.94880003
8.1999998 5.3499999 0.95120001
8.1999998 5.4000001 0.9472
8.1999998 5.4499998 0.95599997
8.1999998 5.5 0.96160001
8.1999998 5.5500002 0.96719998
8.1999998 5.5999999 0.97119999
8.1999998 5.6500001 0.99360001
8.1999998 5.6999998 1.0232
8.1999998 5.75 1.0784
8.1999998 5.8000002 1.1447999
8.1999998 5.8499999 1.2112
8.1999998 5.9000001 1.2776
8.1999998 5.9499998 1.344
8.1999998 6 1.4104
8.1999998 6.0500002 1.4768
8.1999998 6.0999999 1.5312001
8.1999998 6.1500001 1.5184
8.1999998 6.1999998 1.62
8.1999998 6.25 1.6447999
8.1999998 6.3000002 1.6616
8.1999998 6.3499999 1.6632
8.1999998 6.4000001 1.6688
8.1999998 6.4499998 1.6655999
8.1999998 6.5 1.6624
8.1999998 6.5500002 1.6128
8.1999998 6.5999999 1.5856
8.1999998 6.6500001 1.5344
8.1999998 6.6999998 1.5008
8.1999998 6.75 1.4672
8.1999998 6.8000002 1.4288
8.1999998 6.8499999 1.3952
8.1999998 6.9000001 1.3432
8.1999998 6.9499998 1.2976
8.1999998 7 1.2424001
8.1999998 7.0500002 1.2064
8.1999998 7.0999999 1.16
8.1999998 7.1500001 1.0936
8.1999998 7.1999998 1.0584
8.1999998 7.25 0.97759998
8.1999998 7.3000002 0.92079997
8.1999998 7.3499999 0.8664
8.1999998 7.4000001 0.78560001
8.1999998 7.4499998 0.70639998
8.1999998 7.5 0.61839998
8.1999998 7.5500002 0.55599999
8.1999998 7.5999999 0.46079999
8.1999998 7.6500001 0.3624
8.1999998 7.6999998 0.26480001
8.1999998 7.75 0.096799999
8.1999998 7.8000002 0.0208
8.1999998 7.8499999 -0.208
8.1999998 7.9000001 -0.46799999
8.1999998 7.9499998 -0.75520003
8.3999996 0 0.90799999
8.3999996 0.050000001 0.95999998
8.3999996 0.1 1.0224
8.3999996 0.15000001 1.1303999
8.3999996 0.2 1.1392
8.3999996 0.25 1.156
8.3999996 0.30000001 1.1672
8.3999996 0.34999999 1.1744
8.3999996 0.40000001 1.1416
8.3999996 0.44999999 1.1336
8.3999996 0.5 1.1592
8.3999996 0.55000001 1.152
8.3999996 0.60000002 1.1528
8.3999996 0.64999998 1.1496
8.3999996 0.69999999 1.1552
8.3999996 0.75 1.156
8.3999996 0.80000001 1.1544
8.3999996 0.85000002 1.1456
8.3999996 0.89999998 1.1336
8.3999996 0.94999999 1.1368001
8.3999996 1 1.1248
8.3999996 1.05 1.128
8.3999996 1.1 1.1408
8.3999996 1.15 1.1464
8.3999996 1.2 1.132
8.3999996 1.25 1.1504
8.3999996 1.3 1.1192
8.3999996 1.35 1.1303999
8.3999996 1.4 1.1248
8.3999996 1.45 1.1544
8.3999996 1.5 1.1808
8.3999996 1.55 1.1536
8.3999996 1.6 1.148
8.3999996 1.65 1.148
8.3999996 1.7 1.1472
8.3999996 1.75 1.1424
8.3999996 1.8 1.1303999
8.3999996 1.85 1.1248
8.3999996 1.9 1.1192
8.3999996 1.95 1.1144
8.3999996 2 1.1152
8.3999996 2.05 1.1128
8.3999996 2.0999999 1.1192
8.3999996 2.1500001 1.1224
8.3999996 2.2 1.132
8.3999996 2.25 1.1296
8.3999996 2.3 1.1776
8.3999996 2.3499999 1.1848
8.3999996 2.4000001 1.1704
8.3999996 2.45 1.1736
8.3999996 2.5 1.1447999
8.3999996 2.55 1.168
8.3999996 2.5999999 1.1799999
8.3999996 2.6500001 1.1736
8.3999996 2.7 1.1584001
8.3999996 2.75 1.1552
8.3999996 2.8 1.1344
8.3999996 2.8499999 1.1336
8.3999996 2.9000001 1.128
8.3999996 2.95 0.99040002
8.3999996 3 0.96799999
8.3999996 3.05 0.96960002
8.3999996 3.0999999 0.94880003
8.3999996 3.1500001 0.95039999
8.3999996 3.2 0.95840001
8.3999996 3.25 0.94959998
8.3999996 3.3 0.95039999
8.3999996 3.3499999 0.95520002
8.3999996 3.4000001 0.95279998
8.3999996 3.45 0.95039999
8.3999996 3.5 0.95359999
8.3999996 3.55 0.95520002
8.3999996 3.5999999 0.95679998
8.3999996 3.6500001 0.95039999
8.3999996 3.7 0.9576
8.3999996 3.75 0.95359999
8.3999996 3.8 0.95599997
8.3999996 3.8499999 0.95359999
8.3999996 3.9000001 0.95920002
8.3999996 3.95 0.95520002
8.3999996 4 0.94639999
8.3999996 4.0500002 0.94639999
8.3999996 4.0999999 0.95359999
8.3999996 4.1500001 0.95359999
8.3999996 4.1999998 0.95359999
8.3999996 4.25 0.95999998
8.3999996 4.3000002 0.95679998
8.3999996 4.3499999 0.94400001
8.3999996 4.4000001 0.92879999
8.3999996 4.4499998 0.93120003
8.3999996 4.5 0.93839997
8.3999996 4.5500002 0.94
8.3999996 4.5999999 0.93839997
8.3999996 4.6500001 0.93599999
8.3999996 4.6999998 0.94480002
8.3999996 4.75 0.94160002
8.3999996 4.8000002 0.94559997
8.3999996 4.8499999 0.93839997
8.3999996 4.9000001 0.93760002
8.3999996 4.9499998 0.95039999
8.3999996 5 0.94400001
8.3999996 5.0500002 0.94
8.3999996 5.0999999 0.93599999
8.3999996 5.1500001 0.94559997
8.3999996 5.1999998 0.93599999
8.3999996 5.25 0.93919998
8.3999996 5.3000002 0.9472
8.3999996 5.3499999 0.94239998
8.3999996 5.4000001 0.94480002
8.3999996 5.4499998 0.95200002
8.3999996 5.5 0.94880003
8.3999996 5.5500002 0.95679998
8.3999996 5.5999999 0.95279998
8.3999996 5.6500001 0.95520002
8.3999996 5.6999998 0.95599997
8.3999996 5.75 0.95840001
8.3999996 5.8000002 0.96399999
8.3999996 5.8499999 0.97759998
8.3999996 5.9000001 0.9896
8.3999996 5.9499998 1.0368
8.3999996 6 1.1160001
8.3999996 6.0500002 1.1799999
8.3999996 6.0999999 1.244
8.3999996 6.1500001 1.308
8.3999996 6.1999998 1.372
8.3999996 6.25 1.436
8.3999996 6.3000002 1.5
8.3999996 6.3499999 1.5312001
8.3999996 6.4000001 1.5088
8.3999996 6.4499998 1.6248
8.3999996 6.5 1.6568
8.3999996 6.5500002 1.6616
8.3999996 6.5999999 1.6727999
8.3999996 6.6500001 1.6632
8.3999996 6.6999998 1.656
8.3999996 6.75 1.6192
8.3999996 6.8000002 1.5888
8.3999996 6.8499999 1.5456001
8.3999996 6.9000001 1.4960001
8.3999996 6.9499998 1.4648
8.3999996 7 1.4232
8.3999996 7.0500002 1.3944
8.3999996 7.0999999 1.3344001
8.3999996 7.1500001 1.2896
8.3999996 7.1999998 1.2488
8.3999996 7.25 1.196
8.3999996 7.3000002 1.148
8.3999996 7.3499999 1.0776
8.3999996 7.4000001 1.0328
8.3999996 7.4499998 0.97280002
8.3999996 7.5 0.884
8.3999996 7.5500002 0.8312
8.3999996 7.5999999 0.74479997
8.3999996 7.6500001 0.68159997
8.3999996 7.6999998 0.58880001
8.3999996 7.75 0.51599997
8.3999996 7.8000002 0.4032
8.3999996 7.8499999 0.31760001
8.3999996 7.9000001 0.156
8.3999996 7.9499998 0.0416
8.3999996 8 -0.078400001
8.3999996 8.0500002 -0.252
8.3999996 8.1000004 -0.75199997
8.6000004 0 0.9368
8.6000004 0.050000001 0.96719998
8.6000004 0.1 0.98479998
8.6000004 0.15000001 1.1032
8.6000004 0.2 1.136
8.6000004 0.25 1.1696
8.6000004 0.30000001 1.192
8.6000004 0.34999999 1.1784
8.6000004 0.40000001 1.1608
8.6000004 0.44999999 1.1528
8.6000004 0.5 1.1447999
8.6000004 0.55000001 1.1512001
8.6000004 0.60000002 1.148
8.6000004 0.64999998 1.1544
8.6000004 0.69999999 1.1544
8.6000004 0.75 1.1488
8.6000004 0.80000001 1.1528
8.6000004 0.85000002 1.1576
8.6000004 0.89999998 1.1384
8.6000004 0.94999999 1.1472
8.6000004 1 1.1248
8.6000004 1.05 1.1528
8.6000004 1.1 1.1576
8.6000004 1.15 1.1544
8.6000004 1.2 1.1568
8.6000004 1.25 1.1496
8.6000004 1.3 1.156
8.6000004 1.35 1.1488
8.6000004 1.4 1.1504
8.6000004 1.45 1.1392
8.6000004 1.5 1.1512001
8.6000004 1.55 1.1296
8.6000004 1.6 1.1248
8.6000004 1.65 1.1632
8.6000004 1.7 1.1375999
8.6000004 1.75 1.1336
8.6000004 1.8 1.24
8.6000004 1.85 1.1504
8.6000004 1.9 1.156
8.6000004 1.95 1.1464
8.6000004 2 1.1408
8.6000004 2.05 1.14
8.6000004 2.0999999 1.1727999
8.6000004 2.1500001 1.1992
8.6000004 2.2 1.2224
8.6000004 2.25 1.2048
8.6000004 2.3 1.188
8.6000004 2.3499999 1.16
8.6000004 2.4000001 1.1504
8.6000004 2.45 1.1592
8.6000004 2.5 1.1384
8.6000004 2.55 1.1568
8.6000004 2.5999999 1.34
8.6000004 2.6500001 1.1375999
8.6000004 2.7 1.1192
8.6000004 2.75 1.1023999
8.6000004 2.8 1.0928
8.6000004 2.8499999 1.0864
8.6000004 2.9000001 1.068
8.6000004 2.95 0.9648
8.6000004 3 0.96799999
8.6000004 3.05 0.96079999
8.6000004 3.0999999 0.96319997
8.6000004 3.1500001 0.95359999
8.6000004 3.2 0.95200002
8.6000004 3.25 0.95039999
8.6000004 3.3 0.9576
8.6000004 3.3499999 0.95279998
8.6000004 3.4000001 0.96399999
8.6000004 3.45 0.95120001
8.6000004 3.5 0.95599997
8.6000004 3.55 0.95200002
8.6000004 3.5999999 0.96079999
8.6000004 3.6500001 0.95679998
8.6000004 3.7 0.95039999
8.6000004 3.75 0.95599997
8.6000004 3.8 0.95520002
8.6000004 3.8499999 0.95039999
8.6000004 3.9000001 0.94559997
8.6000004 3.95 0.95120001
8.6000004 4 0.95679998
8.6000004 4.0500002 0.95039999
8.6000004 4.0999999 0.95279998
8.6000004 4.1500001 0.95039999
8.6000004 4.1999998 0.95920002
8.6000004 4.25 0.95999998
8.6000004 4.3000002 0.95200002
8.6000004 4.3499999 0.93760002
8.6000004 4.4000001 0.93519998
8.6000004 4.4499998 0.93919998
8.6000004 4.5 0.94080001
8.6000004 4.5500002 0.94400001
8.6000004 4.5999999 0.94480002
8.6000004 4.6500001 0.92879999
8.6000004 4.6999998 0.94160002
8.6000004 4.75 0.94160002
8.6000004 4.8000002 0.93839997
8.6000004 4.8499999 0.94080001
8.6000004 4.9000001 0.93519998
8.6000004 4.9499998 0.9368
8.6000004 5 0.94480002
8.6000004 5.0500002 0.94480002
8.6000004 5.0999999 0.9368
8.6000004 5.1500001 0.94559997
8.6000004 5.1999998 0.94239998
8.6000004 5.25 0.94959998
8.6000004 5.3000002 0.94239998
8.6000004 5.3499999 0.93760002
8.6000004 5.4000001 0.94
8.6000004 5.4499998 0.94480002
8.6000004 5.5 0.94800001
8.6000004 5.5500002 0.94880003
8.6000004 5.5999999 0.94800001
8.6000004 5.6500001 0.94880003
8.6000004 5.6999998 0.94639999
8.6000004 5.75 0.94
8.6000004 5.8000002 0.94160002
8.6000004 5.8499999 0.95200002
8.6000004 5.9000001 0.95359999
8.6000004 5.9499998 0.95679998
8.6000004 6 0.9576
8.6000004 6.0500002 0.96240002
8.6000004 6.0999999 0.97280002
8.6000004 6.1500001 0.98400003
8.6000004 6.1999998 1.0352
8.6000004 6.25 1.184
8.6000004 6.3000002 1.2431999
8.6000004 6.3499999 1.3024
8.6000004 6.4000001 1.3616
8.6000004 6.4499998 1.4208
8.6000004 6.5 1.4808
8.6000004 6.5500002 1.5319999
8.6000004 6.5999999 1.5296
8.6000004 6.6500001 1.6408
8.6000004 6.6999998 1.6592
8.6000004 6.75 1.6616
8.6000004 6.8000002 1.6624
8.6000004 6.8499999 1.6704
8.6000004 6.9000001 1.6536
8.6000004 6.9499998 1.612
8.6000004 7 1.5888
8.6000004 7.0500002 1.536
8.6000004 7.0999999 1.4960001
8.6000004 7.1500001 1.4584
8.6000004 7.1999998 1.4104
8.6000004 7.25 1.3584
8.6000004 7.3000002 1.324
8.6000004 7.3499999 1.2768
8.6000004 7.4000001 1.2232
8.6000004 7.4499998 1.1672
8.6000004 7.5 1.0976
8.6000004 7.5500002 1.048
8.6000004 7.5999999 0.98159999
8.6000004 7.6500001 0.93760002
8.6000004 7.6999998 0.8448
8.6000004 7.75 0.79839998
8.6000004 7.8000002 0.73040003
8.6000004 7.8499999 0.61839998
8.6000004 7.9000001 0.50480002
8.6000004 7.9499998 0.41679999
8.6000004 8 0.3416
8.6000004 8.0500002 0.23280001
8.6000004 8.1000004 0.068000004
8.6000004 8.1499996 -0.1224
8.6000004 8.1999998 -0.27360001
8.8000002 0 0.95039999
8.8000002 0.050000001 0.97759998
8.8000002 0.1 0.98320001
8.8000002 0.15000001 1.1088001
8.8000002 0.2 1.1264
8.8000002 0.25 1.136
8.8000002 0.30000001 1.1632
8.8000002 0.34999999 1.1648
8.8000002 0.40000001 1.164
8.8000002 0.44999999 1.1799999
8.8000002 0.5 1.1744
8.8000002 0.55000001 1.1872
8.8000002 0.60000002 1.1776
8.8000002 0.64999998 1.1688
8.8000002 0.69999999 1.1720001
8.8000002 0.75 1.1672
8.8000002 0.80000001 1.1655999
8.8000002 0.85000002 1.1608
8.8000002 0.89999998 1.1552
8.8000002 0.94999999 1.1552
8.8000002 1 1.1632
8.8000002 1.05 1.1664
8.8000002 1.1 1.1536
8.8000002 1.15 1.16
8.8000002 1.2 1.1496
8.8000002 1.25 1.1432
8.8000002 1.3 1.14
8.8000002 1.35 1.1512001
8.8000002 1.4 1.1408
8.8000002 1.45 1.1608
8.8000002 1.5 1.2096
8.8000002 1.55 1.128
8.8000002 1.6 1.1432
8.8000002 1.65 1.14
8.8000002 1.7 1.1496
8.8000002 1.75 1.1416
8.8000002 1.8 1.1720001
8.8000002 1.85 1.1720001
8.8000002 1.9 1.152
8.8000002 1.95 1.1312
8.8000002 2 1.1384
8.8000002 2.05 1.1768
8.8000002 2.0999999 1.156
8.8000002 2.1500001 1.1616
8.8000002 2.2 1.1464
8.8000002 2.25 1.1375999
8.8000002 2.3 1.1368001
8.8000002 2.3499999 1.1408
8.8000002 2.4000001 1.1464
8.8000002 2.45 1.1816
8.8000002 2.5 1.1616
8.8000002 2.55 1.14
8.8000002 2.5999999 1.1160001
8.8000002 2.6500001 1.1216
8.8000002 2.7 1.1095999
8.8000002 2.75 1.104
8.8000002 2.8 1.108
8.8000002 2.8499999 1.104
8.8000002 2.9000001 1.104
8.8000002 2.95 1.0247999
8.8000002 3 0.95279998
8.8000002 3.05 0.95200002
8.8000002 3.0999999 0.95279998
8.8000002 3.1500001 0.95120001
8.8000002 3.2 0.95679998
8.8000002 3.25 0.95920002
8.8000002 3.3 0.95359999
8.8000002 3.3499999 0.95279998
8.8000002 3.4000001 0.95599997
8.8000002 3.45 0.95279998
8.8000002 3.5 0.9544
8.8000002 3.55 0.95999998
8.8000002 3.5999999 0.95679998
8.8000002 3.6500001 0.95120001
8.8000002 3.7 0.95920002
8.8000002 3.75 0.94880003
8.8000002 3.8 0.95599997
8.8000002 3.8499999 0.95520002
8.8000002 3.9000001 0.95200002
8.8000002 3.95 0.94880003
8.8000002 4 0.95200002
8.8000002 4.0500002 0.95520002
8.8000002 4.0999999 0.95279998
8.8000002 4.1500001 0.95679998
8.8000002 4.1999998 0.95599997
8.8000002 4.25 0.95039999
8.8000002 4.3000002 0.93760002
8.8000002 4.3499999 0.93279999
8.8000002 4.4000001 0.93279999
8.8000002 4.4499998 0.9368
8.8000002 4.5 0.94239998
8.8000002 4.5500002 0.9368
8.8000002 4.5999999 0.9368
8.8000002 4.6500001 0.94160002
8.8000002 4.6999998 0.93919998
8.8000002 4.75 0.9368
8.8000002 4.8000002 0.9368
8.8000002 4.8499999 0.94080001
8.8000002 4.9000001 0.93440002
8.8000002 4.9499998 0.93919998
8.8000002 5 0.93839997
8.8000002 5.0500002 0.94
8.8000002 5.0999999 0.94319999
8.8000002 5.1500001 0.94
8.8000002 5.1999998 0.93599999
8.8000002 5.25 0.94080001
8.8000002 5.3000002 0.94
8.8000002 5.3499999 0.93839997
8.8000002 5.4000001 0.94239998
8.8000002 5.4499998 0.94080001
8.8000002 5.5 0.94559997
8.8000002 5.5500002 0.94559997
8.8000002 5.5999999 0.93599999
8.8000002 5.6500001 0.94239998
8.8000002 5.6999998 0.94480002
8.8000002 5.75 0.94880003
8.8000002 5.8000002 0.94160002
8.8000002 5.8499999 0.94400001
8.8000002 5.9000001 0.94080001
8.8000002 5.9499998 0.94319999
8.8000002 6 0.94639999
8.8000002 6.0500002 0.9472
8.8000002 6.0999999 0.95039999
8.8000002 6.1500001 0.94800001
8.8000002 6.1999998 0.9472
8.8000002 6.25 0.95840001
8.8000002 6.3000002 0.9648
8.8000002 6.3499999 0.97759998
8.8000002 6.4000001 1.0056
8.8000002 6.4499998 1.0984
8.8000002 6.5 1.1784
8.8000002 6.5500002 1.2584
8.8000002 6.5999999 1.3392
8.8000002 6.6500001 1.4191999
8.8000002 6.6999998 1.4992
8.8000002 6.75 1.5319999
8.8000002 6.8000002 1.5312001
8.8000002 6.8499999 1.6384
8.8000002 6.9000001 1.6576
8.8000002 6.9499998 1.6624
8.8000002 7 1.6648
8.8000002 7.0500002 1.6696
8.8000002 7.0999999 1.6368001
8.8000002 7.1500001 1.5912
8.8000002 7.1999998 1.5616
8.8000002 7.25 1.5184
8.8000002 7.3000002 1.4776
8.8000002 7.3499999 1.4216
8.8000002 7.4000001 1.3872
8.8000002 7.4499998 1.3464
8.8000002 7.5 1.2912
8.8000002 7.5500002 1.2528
8.8000002 7.5999999 1.1848
8.8000002 7.6500001 1.1312
8.8000002 7.6999998 1.0576
8.8000002 7.75 1.0104001
8.8000002 7.8000002 0.96319997
8.8000002 7.8499999 0.87519997
8.8000002 7.9000001 0.7992
8.8000002 7.9499998 0.70719999
8.8000002 8 0.62239999
8.8000002 8.0500002 0.52160001
8.8000002 8.1000004 0.42399999
8.8000002 8.1499996 0.324
8.8000002 8.1999998 0.2352
8.8000002 8.25 0.083999999
8.8000002 8.3000002 -0.1096
8.8000002 8.3500004 -0.35519999
9 0 0.96560001
9 0.050000001 0.98159999
9 0.1 0.98320001
9 0.15000001 1.0664001
9 0.2 1.1208
9 0.25 1.124
9 0.30000001 1.1440001
9 0.34999999 1.16
9 0.40000001 1.1632
9 0.44999999 1.1544
9 0.5 1.1592
9 0.55000001 1.1664
9 0.60000002 1.1768
9 0.64999998 1.1768
9 0.69999999 1.1648
9 0.75 1.1688
9 0.80000001 1.168
9 0.85000002 1.184
9 0.89999998 1.1768
9 0.94999999 1.1736
9 1 1.1752
9 1.05 1.1544
9 1.1 1.164
9 1.15 1.1608
9 1.2 1.1536
9 1.25 1.1832
9 1.3 1.1808
9 1.35 1.1552
9 1.4 1.1592
9 1.45 1.1472
9 1.5 1.1608
9 1.55 1.1544
9 1.6 1.1440001
9 1.65 1.1496
9 1.7 1.1447999
9 1.75 1.1568
9 1.8 1.1576
9 1.85 1.1488
9 1.9 1.1312
9 1.95 1.1248
9 2 1.1368001
9 2.05 1.1384
9 2.0999999 1.1504
9 2.1500001 1.1544
9 2.2 1.1456
9 2.25 1.1303999
9 2.3 1.1288
9 2.3499999 1.1408
9 2.4000001 1.1392
9 2.45 1.2136
9 2.5 1.1720001
9 2.55 1.1504
9 2.5999999 1.136
9 2.6500001 1.14
9 2.7 1.1424
9 2.75 1.1303999
9 2.8 1.1208
9 2.8499999 1.1152
9 2.9000001 1.0872
9 2.95 1.064
9 3 0.96960002
9 3.05 0.96799999
9 3.0999999 0.96079999
9 3.1500001 0.95279998
9 3.2 0.95679998
9 3.25 0.95039999
9 3.3 0.95279998
9 3.3499999 0.95679998
9 3.4000001 0.95920002
9 3.45 0.95039999
9 3.5 0.95120001
9 3.55 0.94880003
9 3.5999999 0.94800001
9 3.6500001 0.95679998
9 3.7 0.95120001
9 3.75 0.95520002
9 3.8 0.95200002
9 3.8499999 0.94959998
9 3.9000001 0.95679998
9 3.95 0.95120001
9 4 0.95679998
9 4.0500002 0.95279998
9 4.0999999 0.95279998
9 4.1500001 0.94639999
9 4.1999998 0.93599999
9 4.25 0.93360001
9 4.3000002 0.94080001
9 4.3499999 0.9368
9 4.4000001 0.93760002
9 4.4499998 0.93839997
9 4.5 0.93360001
9 4.5500002 0.93360001
9 4.5999999 0.93279999
9 4.6500001 0.93120003
9 4.6999998 0.9368
9 4.75 0.94160002
9 4.8000002 0.93279999
9 4.8499999 0.93360001
9 4.9000001 0.93919998
9 4.9499998 0.93360001
9 5 0.93760002
9 5.0500002 0.94160002
9 5.0999999 0.93199998
9 5.1500001 0.93440002
9 5.1999998 0.93839997
9 5.25 0.93440002
9 5.3000002 0.94880003
9 5.3499999 0.93919998
9 5.4000001 0.93440002
9 5.4499998 0.94319999
9 5.5 0.93599999
9 5.5500002 0.94080001
9 5.5999999 0.94080001
9 5.6500001 0.93839997
9 5.6999998 0.93839997
9 5.75 0.93760002
9 5.8000002 0.94
9 5.8499999 0.93919998
9 5.9000001 0.94639999
9 5.9499998 0.94639999
9 6 0.94319999
9 6.0500002 0.94480002
9 6.0999999 0.93440002
9 6.1500001 0.94639999
9 6.1999998 0.94959998
9 6.25 0.94400001
9 6.3000002 0.94639999
9 6.3499999 0.94800001
9 6.4000001 0.95039999
9 6.4499998 0.95520002
9 6.5 0.96079999
9 6.5500002 0.9752
9 6.5999999 0.99919999
9 6.6500001 1.1144
9 6.6999998 1.1968
9 6.75 1.28
9 6.8000002 1.3624001
9 6.8499999 1.4448
9 6.9000001 1.5024
9 6.9499998 1.5328
9 7 1.6248
9 7.0500002 1.6464
9 7.0999999 1.664
9 7.1500001 1.6624
9 7.1999998 1.6688
9 7.25 1.6624
9 7.3000002 1.5976
9 7.3499999 1.5696
9 7.4000001 1.5408
9 7.4499998 1.4704
9 7.5 1.4368
9 7.5500002 1.4016
9 7.5999999 1.3415999
9 7.6500001 1.3008
9 7.6999998 1.2575999
9 7.75 1.1848
9 7.8000002 1.1272
9 7.8499999 1.0816
9 7.9000001 0.99599999
9 7.9499998 0.94800001
9 8 0.86080003
9 8.0500002 0.80800003
9 8.1000004 0.70880002
9 8.1499996 0.61680001
9 8.1999998 0.53600001
9 8.25 0.428
9 8.3000002 0.32319999
9 8.3500004 0.18719999
9 8.3999996 0.048
9 8.4499998 -0.094400004
9.1999998 0 0.89840001
9.1999998 0.050000001 0.9576
9.1999998 0.1 0.96240002
9.1999998 0.15000001 1.0152
9.1999998 0.2 1.0976
9.1999998 0.25 1.1
9.1999998 0.30000001 1.1272
9.1999998 0.34999999 1.132
9.1999998 0.40000001 1.1416
9.1999998 0.44999999 1.148
9.1999998 0.5 1.1496
9.1999998 0.55000001 1.1584001
9.1999998 0.60000002 1.168
9.1999998 0.64999998 1.1808
9.1999998 0.69999999 1.1928
9.1999998 0.75 1.2144001
9.1999998 0.80000001 1.2503999
9.1999998 0.85000002 1.2616
9.1999998 0.89999998 1.2688
9.1999998 0.94999999 1.2816
9.1999998 1 1.296
9.1999998 1.05 1.3048
9.1999998 1.1 1.3432
9.1999998 1.15 1.3368
9.1999998 1.2 1.3296
9.1999998 1.25 1.3464
9.1999998 1.3 1.3592
9.1999998 1.35 1.3552001
9.1999998 1.4 1.3767999
9.1999998 1.45 1.3848
9.1999998 1.5 1.2592
9.1999998 1.55 1.3063999
9.1999998 1.6 1.296
9.1999998 1.65 1.2264
9.1999998 1.7 1.216
9.1999998 1.75 1.2112
9.1999998 1.8 1.204
9.1999998 1.85 1.1968
9.1999998 1.9 1.1848
9.1999998 1.95 1.188
9.1999998 2 1.1528
9.1999998 2.05 1.1447999
9.1999998 2.0999999 1.1368001
9.1999998 2.1500001 1.5856
9.1999998 2.2 1.1256
9.1999998 2.25 1.1352
9.1999998 2.3 1.124
9.1999998 2.3499999 1.1168
9.1999998 2.4000001 1.132
9.1999998 2.45 1.136
9.1999998 2.5 1.1296
9.1999998 2.55 1.1208
9.1999998 2.5999999 1.1272
9.1999998 2.6500001 1.132
9.1999998 2.7 1.14
9.1999998 2.75 1.128
9.1999998 2.8 1.1264
9.1999998 2.8499999 1.12
9.1999998 2.9000001 1.104
9.1999998 2.95 1.028
9.1999998 3 0.99119997
9.1999998 3.05 0.95679998
9.1999998 3.0999999 0.95999998
9.1999998 3.1500001 0.96240002
9.1999998 3.2 0.95840001
9.1999998 3.25 0.95279998
9.1999998 3.3 0.95599997
9.1999998 3.3499999 0.96079999
9.1999998 3.4000001 0.95200002
9.1999998 3.45 0.95039999
9.1999998 3.5 0.95359999
9.1999998 3.55 0.95920002
9.1999998 3.5999999 0.95279998
9.1999998 3.6500001 0.95520002
9.1999998 3.7 0.95200002
9.1999998 3.75 0.95679998
9.1999998 3.8 0.95359999
9.1999998 3.8499999 0.94800001
9.1999998 3.9000001 0.95359999
9.1999998 3.95 0.95999998
9.1999998 4 0.93360001
9.1999998 4.0500002 0.94
9.1999998 4.0999999 0.94
9.1999998 4.1500001 0.9368
9.1999998 4.1999998 0.93919998
9.1999998 4.25 0.93839997
9.1999998 4.3000002 0.94080001
9.1999998 4.3499999 0.93760002
9.1999998 4.4000001 0.93839997
9.1999998 4.4499998 0.93199998
9.1999998 4.5 0.9368
9.1999998 4.5500002 0.94160002
9.1999998 4.5999999 0.94080001
9.1999998 4.6500001 0.93839997
9.1999998 4.6999998 0.93599999
9.1999998 4.75 0.93760002
9.1999998 4.8000002 0.9368
9.1999998 4.8499999 0.93199998
9.1999998 4.9000001 0.93519998
9.1999998 4.9499998 0.9368
9.1999998 5 0.93599999
9.1999998 5.0500002 0.93599999
9.1999998 5.0999999 0.93279999
9.1999998 5.1500001 0.93760002
9.1999998 5.1999998 0.94239998
9.1999998 5.25 0.94080001
9.1999998 5.3000002 0.94400001
9.1999998 5.3499999 0.93839997
9.1999998 5.4000001 0.94239998
9.1999998 5.4499998 0.94160002
9.1999998 5.5 0.93839997
9.1999998 5.5500002 0.93360001
9.1999998 5.5999999 0.93519998
9.1999998 5.6500001 0.94800001
9.1999998 5.6999998 0.94239998
9.1999998 5.75 0.93120003
9.1999998 5.8000002 0.94160002
9.1999998 5.8499999 0.93599999
9.1999998 5.9000001 0.94160002
9.1999998 5.9499998 0.94
9.1999998 6 0.9472
9.1999998 6.0500002 0.94239998
9.1999998 6.0999999 0.94800001
9.1999998 6.1500001 0.93839997
9.1999998 6.1999998 0.94400001
9.1999998 6.25 0.94080001
9.1999998 6.3000002 0.94639999
9.1999998 6.3499999 0.9472
9.1999998 6.4000001 0.95039999
9.1999998 6.4499998 0.95039999
9.1999998 6.5 0.95039999
9.1999998 6.5500002 0.95120001
9.1999998 6.5999999 0.95120001
9.1999998 6.6500001 0.95520002
9.1999998 6.6999998 0.96160001
9.1999998 6.75 0.9752
9.1999998 6.8000002 1.0096
9.1999998 6.8499999 1.0872
9.1999998 6.9000001 1.1904
9.1999998 6.9499998 1.2936
9.1999998 7 1.3968
9.1999998 7.0500002 1.5008
9.1999998 7.0999999 1.5368
9.1999998 7.1500001 1.5632
9.1999998 7.1999998 1.6504
9.1999998 7.25 1.6648
9.1999998 7.3000002 1.6608
9.1999998 7.3499999 1.6664
9.1999998 7.4000001 1.6632
9.1999998 7.4499998 1.604
9.1999998 7.5 1.5736001
9.1999998 7.5500002 1.5312001
9.1999998 7.5999999 1.4895999
9.1999998 7.6500001 1.4512
9.1999998 7.6999998 1.3944
9.1999998 7.75 1.3648
9.1999998 7.8000002 1.2848001
9.1999998 7.8499999 1.2464
9.1999998 7.9000001 1.1752
9.1999998 7.9499998 1.1272
9.1999998 8 1.0608
9.1999998 8.0500002 0.99599999
9.1999998 8.1000004 0.93120003
9.1999998 8.1499996 0.85439998
9.1999998 8.1999998 0.7536
9.1999998 8.25 0.67439997
9.1999998 8.3000002 0.60720003
9.1999998 8.3500004 0.50239998
9.1999998 8.3999996 0.3872
9.1999998 8.4499998 0.2728
9.1999998 8.5 0.12720001
9.1999998 8.5500002 -0.034400001
9.1999998 8.6000004 -0.1568
9.3999996 0 0.90960002
9.3999996 0.050000001 0.95279998
9.3999996 0.1 0.96079999
9.3999996 0.15000001 0.96160001
9.3999996 0.2 0.97439998
9.3999996 0.25 1.0632
9.3999996 0.30000001 1.0951999
9.3999996 0.34999999 1.1048
9.3999996 0.40000001 1.1095999
9.3999996 0.44999999 1.1288
9.3999996 0.5 1.1375999
9.3999996 0.55000001 1.1352
9.3999996 0.60000002 1.1288
9.3999996 0.64999998 1.1208
9.3999996 0.69999999 1.128
9.3999996 0.75 1.1552
9.3999996 0.80000001 1.1896
9.3999996 0.85000002 1.2352
9.3999996 0.89999998 1.2536
9.3999996 0.94999999 1.2776
9.3999996 1 1.3088
9.3999996 1.05 1.3344001
9.3999996 1.1 1.3568
9.3999996 1.15 1.3688
9.3999996 1.2 1.3839999
9.3999996 1.25 1.396
9.3999996 1.3 1.3936
9.3999996 1.35 1.404
9.3999996 1.4 1.4056
9.3999996 1.45 1.3992
9.3999996 1.5 1.3968
9.3999996 1.55 1.4216
9.3999996 1.6 1.3839999
9.3999996 1.65 1.3664
9.3999996 1.7 1.3544
9.3999996 1.75 1.2927999
9.3999996 1.8 1.2768
9.3999996 1.85 1.232
9.3999996 1.9 1.1712
9.3999996 1.95 1.1704
9.3999996 2 1.1584001
9.3999996 2.05 1.1568
9.3999996 2.0999999 1.1568
9.3999996 2.1500001 1.1272
9.3999996 2.2 1.1224
9.3999996 2.25 1.1208
9.3999996 2.3 1.1176
9.3999996 2.3499999 1.1064
9.3999996 2.4000001 1.1224
9.3999996 2.45 1.1168
9.3999996 2.5 1.1112
9.3999996 2.55 1.1160001
9.3999996 2.5999999 1.1095999
9.3999996 2.6500001 1.12
9.3999996 2.7 1.128
9.3999996 2.75 1.1264
9.3999996 2.8 1.1288
9.3999996 2.8499999 1.1216
9.3999996 2.9000001 1.1032
9.3999996 2.95 1.0712
9.3999996 3 0.95599997
9.3999996 3.05 0.96560001
9.3999996 3.0999999 0.9576
9.3999996 3.1500001 0.95599997
9.3999996 3.2 0.95520002
9.3999996 3.25 0.95999998
9.3999996 3.3 0.9576
9.3999996 3.3499999 0.96719998
9.3999996 3.4000001 0.95840001
9.3999996 3.45 0.95999998
9.3999996 3.5 0.95999998
9.3999996 3.55 0.95999998
9.3999996 3.5999999 0.95039999
9.3999996 3.6500001 0.94480002
9.3999996 3.7 0.94239998
9.3999996 3.75 0.94080001
9.3999996 3.8 0.93839997
9.3999996 3.8499999 0.94239998
9.3999996 3.9000001 0.94
9.3999996 3.95 0.93599999
9.3999996 4 0.9368
9.3999996 4.0500002 0.93919998
9.3999996 4.0999999 0.93919998
9.3999996 4.1500001 0.93839997
9.3999996 4.1999998 0.94239998
9.3999996 4.25 0.93839997
9.3999996 4.3000002 0.94
9.3999996 4.3499999 0.93919998
9.3999996 4.4000001 0.92720002
9.3999996 4.4499998 0.9368
9.3999996 4.5 0.94
9.3999996 4.5500002 0.94239998
9.3999996 4.5999999 0.9296
9.3999996 4.6500001 0.93360001
9.3999996 4.6999998 0.93599999
9.3999996 4.75 0.93440002
9.3999996 4.8000002 0.93599999
9.3999996 4.8499999 0.93519998
9.3999996 4.9000001 0.93599999
9.3999996 4.9499998 0.93519998
9.3999996 5 0.93919998
9.3999996 5.0500002 0.93599999
9.3999996 5.0999999 0.94
9.3999996 5.1500001 0.93839997
9.3999996 5.1999998 0.9368
9.3999996 5.25 0.94
9.3999996 5.3000002 0.93919998
9.3999996 5.3499999 0.93760002
9.3999996 5.4000001 0.9368
9.3999996 5.4499998 0.94480002
9.3999996 5.5 0.93519998
9.3999996 5.5500002 0.94080001
9.3999996 5.5999999 0.94160002
9.3999996 5.6500001 0.93760002
9.3999996 5.6999998 0.9368
9.3999996 5.75 0.93440002
9.3999996 5.8000002 0.9296
9.3999996 5.8499999 0.93599999
9.3999996 5.9000001 0.93440002
9.3999996 5.9499998 0.93279999
9.3999996 6 0.93519998
9.3999996 6.0500002 0.94080001
9.3999996 6.0999999 0.93839997
9.3999996 6.1500001 0.93919998
9.3999996 6.1999998 0.93839997
9.3999996 6.25 0.94080001
9.3999996 6.3000002 0.94080001
9.3999996 6.3499999 0.94080001
9.3999996 6.4000001 0.94880003
9.3999996 6.4499998 0.95039999
9.3999996 6.5 0.94400001
9.3999996 6.5500002 0.94639999
9.3999996 6.5999999 0.94959998
9.3999996 6.6500001 0.94959998
9.3999996 6.6999998 0.94959998
9.3999996 6.75 0.95359999
9.3999996 6.8000002 0.95920002
9.3999996 6.8499999 0.95279998
9.3999996 6.9000001 0.96399999
9.3999996 6.9499998 0.98720002
9.3999996 7 1.1408
9.3999996 7.0500002 1.2184
9.3999996 7.0999999 1.3072
9.3999996 7.1500001 1.3968
9.3999996 7.1999998 1.4856
9.3999996 7.25 1.5136
9.3999996 7.3000002 1.564
9.3999996 7.3499999 1.6392
9.3999996 7.4000001 1.66
9.3999996 7.4499998 1.6648
9.3999996 7.5 1.6632
9.3999996 7.5500002 1.6528
9.3999996 7.5999999 1.5968
9.3999996 7.6500001 1.5688
9.3999996 7.6999998 1.5216
9.3999996 7.75 1.4823999
9.3999996 7.8000002 1.436
9.3999996 7.8499999 1.3872
9.3999996 7.9000001 1.336
9.3999996 7.9499998 1.2888
9.3999996 8 1.2192
9.3999996 8.0500002 1.1824
9.3999996 8.1000004 1.096
9.3999996 8.1499996 1.0408
9.3999996 8.1999998 0.95279998
9.3999996 8.25 0.88639998
9.3999996 8.3000002 0.82160002
9.3999996 8.3500004 0.75199997
9.3999996 8.3999996 0.6512
9.3999996 8.4499998 0.59359998
9.3999996 8.5 0.45120001
9.3999996 8.5500002 0.3048
9.3999996 8.6000004 0.21439999
9.3999996 8.6499996 0.048799999
9.3999996 8.6999998 -0.087200001
9.6000004 0 0.92079997
9.6000004 0.050000001 0.95920002
9.6000004 0.1 0.96079999
9.6000004 0.15000001 0.96319997
9.6000004 0.2 0.96880001
9.6000004 0.25 0.96560001
9.6000004 0.30000001 0.96880001
9.6000004 0.34999999 1
9.6000004 0.40000001 1.0624
9.6000004 0.44999999 1.0648
9.6000004 0.5 1.1216
9.6000004 0.55000001 1.1248
9.6000004 0.60000002 1.1447999
9.6000004 0.64999998 1.1440001
9.6000004 0.69999999 1.156
9.6000004 0.75 1.156
9.6000004 0.80000001 1.1368001
9.6000004 0.85000002 1.128
9.6000004 0.89999998 1.1296
9.6000004 0.94999999 1.1392
9.6000004 1 1.1488
9.6000004 1.05 1.1655999
9.6000004 1.1 1.1848
9.6000004 1.15 1.1968
9.6000004 1.2 1.2336
9.6000004 1.25 1.2568001
9.6000004 1.3 1.2768
9.6000004 1.35 1.296
9.6000004 1.4 1.3048
9.6000004 1.45 1.3072
9.6000004 1.5 1.2312
9.6000004 1.55 1.2079999
9.6000004 1.6 1.2208
9.6000004 1.65 1.2312
9.6000004 1.7 1.2568001
9.6000004 1.75 1.2952
9.6000004 1.8 1.3063999
9.6000004 1.85 1.3368
9.6000004 1.9 1.3216
9.6000004 1.95 1.256
9.6000004 2 1.2151999
9.6000004 2.05 1.1928
9.6000004 2.0999999 1.1648
9.6000004 2.1500001 1.1392
9.6000004 2.2 1.128
9.6000004 2.25 1.1152
9.6000004 2.3 1.1144
9.6000004 2.3499999 1.1168
9.6000004 2.4000001 1.1208
9.6000004 2.45 1.1256
9.6000004 2.5 1.1152
9.6000004 2.55 1.112
9.6000004 2.5999999 1.1048
9.6000004 2.6500001 1.1056
9.6000004 2.7 1.1088001
9.6000004 2.75 1.1056
9.6000004 2.8 1.1023999
9.6000004 2.8499999 1.0968
9.6000004 2.9000001 1.1095999
9.6000004 2.95 1.0592
9.6000004 3 0.94080001
9.6000004 3.05 0.94400001
9.6000004 3.0999999 0.94880003
9.6000004 3.1500001 0.94639999
9.6000004 3.2 0.9472
9.6000004 3.25 0.9472
9.6000004 3.3 0.94400001
9.6000004 3.3499999 0.94160002
9.6000004 3.4000001 0.94080001
9.6000004 3.45 0.9472
9.6000004 3.5 0.94559997
9.6000004 3.55 0.94639999
9.6000004 3.5999999 0.94480002
9.6000004 3.6500001 0.94800001
9.6000004 3.7 0.94319999
9.6000004 3.75 0.94880003
9.6000004 3.8 0.94480002
9.6000004 3.8499999 0.94639999
9.6000004 3.9000001 0.94239998
9.6000004 3.95 0.94480002
9.6000004 4 0.94559997
9.6000004 4.0500002 0.94239998
9.6000004 4.0999999 0.93440002
9.6000004 4.1500001 0.93440002
9.6000004 4.1999998 0.93599999
9.6000004 4.25 0.94080001
9.6000004 4.3000002 0.9368
9.6000004 4.3499999 0.94
9.6000004 4.4000001 0.94639999
9.6000004 4.4499998 0.93839997
9.6000004 4.5 0.94
9.6000004 4.5500002 0.93760002
9.6000004 4.5999999 0.94
9.6000004 4.6500001 0.94080001
9.6000004 4.6999998 0.94400001
9.6000004 4.75 0.94239998
9.6000004 4.8000002 0.94239998
9.6000004 4.8499999 0.93839997
9.6000004 4.9000001 0.93360001
9.6000004 4.9499998 0.93519998
9.6000004 5 0.93839997
9.6000004 5.0500002 0.93919998
9.6000004 5.0999999 0.9368
9.6000004 5.1500001 0.94080001
9.6000004 5.1999998 0.93919998
9.6000004 5.25 0.9368
9.6000004 5.3000002 0.93279999
9.6000004 5.3499999 0.93839997
9.6000004 5.4000001 0.93760002
9.6000004 5.4499998 0.93839997
9.6000004 5.5 0.93120003
9.6000004 5.5500002 0.93839997
9.6000004 5.5999999 0.93839997
9.6000004 5.6500001 0.94080001
9.6000004 5.6999998 0.94319999
9.6000004 5.75 0.93919998
9.6000004 5.8000002 0.93519998
9.6000004 5.8499999 0.93919998
9.6000004 5.9000001 0.93040001
9.6000004 5.9499998 0.94400001
9.6000004 6 0.94080001
9.6000004 6.0500002 0.94080001
9.6000004 6.0999999 0.94
9.6000004 6.1500001 0.94080001
9.6000004 6.1999998 0.93360001
9.6000004 6.25 0.93839997
9.6000004 6.3000002 0.94559997
9.6000004 6.3499999 0.94239998
9.6000004 6.4000001 0.94959998
9.6000004 6.4499998 0.94880003
9.6000004 6.5 0.95200002
9.6000004 6.5500002 0.9544
9.6000004 6.5999999 0.94800001
9.6000004 6.6500001 0.94959998
9.6000004 6.6999998 0.95200002
9.6000004 6.75 0.9472
9.6000004 6.8000002 0.94639999
9.6000004 6.8499999 0.95120001
9.6000004 6.9000001 0.94559997
9.6000004 6.9499998 0.9544
9.6000004 7 0.95359999
9.6000004 7.0500002 0.95999998
9.6000004 7.0999999 0.97759998
9.6000004 7.1500001 1.036
9.6000004 7.1999998 1.204
9.6000004 7.25 1.2936
9.6000004 7.3000002 1.3832
9.6000004 7.3499999 1.472
9.6000004 7.4000001 1.5352
9.6000004 7.4499998 1.6144
9.6000004 7.5 1.6528
9.6000004 7.5500002 1.66
9.6000004 7.5999999 1.6576
9.6000004 7.6500001 1.6632
9.6000004 7.6999998 1.668
9.6000004 7.75 1.5951999
9.6000004 7.8000002 1.5512
9.6000004 7.8499999 1.5048
9.6000004 7.9000001 1.4632
9.6000004 7.9499998 1.4152
9.6000004 8 1.3568
9.6000004 8.0500002 1.3
9.6000004 8.1000004 1.2608
9.6000004 8.1499996 1.1904
9.6000004 8.1999998 1.1368001
9.6000004 8.25 1.0896
9.6000004 8.3000002 0.98799998
9.6000004 8.3500004 0.93440002
9.6000004 8.3999996 0.8768
9.6000004 8.4499998 0.7784
9.6000004 8.5 0.69440001
9.6000004 8.5500002 0.60479999
9.6000004 8.6000004 0.46720001
9.6000004 8.6499996 0.3944
9.6000004 8.6999998 0.2272
9.6000004 8.75 0.1024
9.6000004 8.8000002 -0.052000001
9.6000004 8.8500004 -0.2728
9.8000002 0 0.93199998
9.8000002 0.050000001 0.96240002
9.8000002 0.1 0.96399999
9.8000002 0.15000001 0.96319997
9.8000002 0.2 0.96319997
9.8000002 0.25 0.96560001
9.8000002 0.30000001 0.9648
9.8000002 0.34999999 0.96399999
9.8000002 0.40000001 0.9648
9.8000002 0.44999999 0.97359997
9.8000002 0.5 0.96560001
9.8000002 0.55000001 0.98000002
9.8000002 0.60000002 1.0216
9.8000002 0.64999998 1.0832
9.8000002 0.69999999 1.1112
9.8000002 0.75 1.132
9.8000002 0.80000001 1.1384
9.8000002 0.85000002 1.1447999
9.8000002 0.89999998 1.148
9.8000002 0.94999999 1.152
9.8000002 1 1.1447999
9.8000002 1.05 1.1296
9.8000002 1.1 1.112
9.8000002 1.15 1.1184
9.8000002 1.2 1.1208
9.8000002 1.25 1.2472
9.8000002 1.3 1.24
9.8000002 1.35 1.028
9.8000002 1.4 0.99760002
9.8000002 1.45 0.98879999
9.8000002 1.5 1.0168
9.8000002 1.55 1.104
9.8000002 1.6 1.1272
9.8000002 1.65 1.1375999
9.8000002 1.7 1.1928
9.8000002 1.75 1.2256
9.8000002 1.8 1.2888
9.8000002 1.85 1.3408
9.8000002 1.9 1.3512
9.8000002 1.95 1.3424
9.8000002 2 1.2352
9.8000002 2.05 1.1752
9.8000002 2.0999999 1.1375999
9.8000002 2.1500001 1.1224
9.8000002 2.2 1.1336
9.8000002 2.25 1.1168
9.8000002 2.3 1.112
9.8000002 2.3499999 1.1208
9.8000002 2.4000001 1.1248
9.8000002 2.45 1.1328
9.8000002 2.5 1.1312
9.8000002 2.55 1.1160001
9.8000002 2.5999999 1.1224
9.8000002 2.6500001 1.1104
9.8000002 2.7 1.1136
9.8000002 2.75 1.1112
9.8000002 2.8 1.1008
9.8000002 2.8499999 1.0984
9.8000002 2.9000001 1.084
9.8000002 2.95 0.98159999
9.8000002 3 0.94
9.8000002 3.05 0.94080001
9.8000002 3.0999999 0.94400001
9.8000002 3.1500001 0.94880003
9.8000002 3.2 0.94639999
9.8000002 3.25 0.94639999
9.8000002 3.3 0.94400001
9.8000002 3.3499999 0.94800001
9.8000002 3.4000001 0.94080001
9.8000002 3.45 0.93519998
9.8000002 3.5 0.94319999
9.8000002 3.55 0.93360001
9.8000002 3.5999999 0.93839997
9.8000002 3.6500001 0.94480002
9.8000002 3.7 0.94639999
9.8000002 3.75 0.94400001
9.8000002 3.8 0.94400001
9.8000002 3.8499999 0.94480002
9.8000002 3.9000001 0.94239998
9.8000002 3.95 0.94639999
9.8000002 4 0.93839997
9.8000002 4.0500002 0.94080001
9.8000002 4.0999999 0.93360001
9.8000002 4.1500001 0.93839997
9.8000002 4.1999998 0.94
9.8000002 4.25 0.9368
9.8000002 4.3000002 0.94
9.8000002 4.3499999 0.93919998
9.8000002 4.4000001 0.93839997
9.8000002 4.4499998 0.93919998
9.8000002 4.5 0.94
9.8000002 4.5500002 0.94
9.8000002 4.5999999 0.9472
9.8000002 4.6500001 0.93760002
9.8000002 4.6999998 0.94080001
9.8000002 4.75 0.9368
9.8000002 4.8000002 0.94
9.8000002 4.8499999 0.93360001
9.8000002 4.9000001 0.93599999
9.8000002 4.9499998 0.93760002
9.8000002 5 0.93040001
9.8000002 5.0500002 0.93760002
9.8000002 5.0999999 0.93120003
9.8000002 5.1500001 0.94
9.8000002 5.1999998 0.92879999
9.8000002 5.25 0.93120003
9.8000002 5.3000002 0.93440002
9.8000002 5.3499999 0.93199998
9.8000002 5.4000001 0.94
9.8000002 5.4499998 0.94160002
9.8000002 5.5 0.93199998
9.8000002 5.5500002 0.93360001
9.8000002 5.5999999 0.93360001
9.8000002 5.6500001 0.93279999
9.8000002 5.6999998 0.94
9.8000002 5.75 0.93279999
9.8000002 5.8000002 0.93199998
9.8000002 5.8499999 0.93360001
9.8000002 5.9000001 0.94239998
9.8000002 5.9499998 0.9368
9.8000002 6 0.93279999
9.8000002 6.0500002 0.93040001
9.8000002 6.0999999 0.9368
9.8000002 6.1500001 0.94239998
9.8000002 6.1999998 0.93919998
9.8000002 6.25 0.94480002
9.8000002 6.3000002 0.94480002
9.8000002 6.3499999 0.94319999
9.8000002 6.4000001 0.94559997
9.8000002 6.4499998 0.95039999
9.8000002 6.5 0.94959998
9.8000002 6.5500002 0.9472
9.8000002 6.5999999 0.95279998
9.8000002 6.6500001 0.95120001
9.8000002 6.6999998 0.95200002
9.8000002 6.75 0.94639999
9.8000002 6.8000002 0.94480002
9.8000002 6.8499999 0.94880003
9.8000002 6.9000001 0.94880003
9.8000002 6.9499998 0.94559997
9.8000002 7 0.95279998
9.8000002 7.0500002 0.94559997
9.8000002 7.0999999 0.95120001
9.8000002 7.1500001 0.94880003
9.8000002 7.1999998 0.95840001
9.8000002 7.25 0.97280002
9.8000002 7.3000002 0.99919999
9.8000002 7.3499999 1.1912
9.8000002 7.4000001 1.3008
9.8000002 7.4499998 1.4096
9.8000002 7.5 1.4960001
9.8000002 7.5500002 1.5376
9.8000002 7.5999999 1.6232001
9.8000002 7.6500001 1.6536
9.8000002 7.6999998 1.6624
9.8000002 7.75 1.6664
9.8000002 7.8000002 1.664
9.8000002 7.8499999 1.608
9.8000002 7.9000001 1.5832
9.8000002 7.9499998 1.5296
9.8000002 8 1.4904
9.8000002 8.0500002 1.4256001
9.8000002 8.1000004 1.3896
9.8000002 8.1499996 1.3288
9.8000002 8.1999998 1.2816
9.8000002 8.25 1.2079999
9.8000002 8.3000002 1.1616
9.8000002 8.3500004 1.0984
9.8000002 8.3999996 1.0264
9.8000002 8.4499998 0.94319999
9.8000002 8.5 0.88639998
9.8000002 8.5500002 0.79280001
9.8000002 8.6000004 0.74400002
9.8000002 8.6499996 0.64160001
9.8000002 8.6999998 0.5352
9.8000002 8.75 0.39039999
9.8000002 8.8000002 0.2744
9.8000002 8.8500004 0.18880001
9.8000002 8.8999996 0.012
9.8000002 8.9499998 -0.1608
10 0.050000001 0.95120001
10 0.1 0.9648
10 0.15000001 0.96560001
10 0.2 0.96240002
10 0.25 0.9648
10 0.30000001 0.96719998
10 0.34999999 0.96719998
10 0.40000001 0.96399999
10 0.44999999 0.96399999
10 0.5 0.96240002
10 0.55000001 0.96560001
10 0.60000002 0.96719998
10 0.64999998 0.97759998
10 0.69999999 0.97280002
10 0.75 0.972
10 0.80000001 0.98720002
10 0.85000002 0.98799998
10 0.89999998 1.016
10 0.94999999 1.0648
10 1 1.048
10 1.05 1.0112
10 1.1 0.98479998
10 1.15 0.97680002
10 1.2 0.97680002
10 1.25 0.98079997
10 1.3 0.96240002
10 1.35 0.96560001
10 1.4 0.96880001
10 1.45 0.95359999
10 1.5 0.94639999
10 1.55 0.9472
10 1.6 0.94639999
10 1.65 0.94880003
10 1.7 0.95039999
10 1.75 0.97759998
10 1.8 1.0584
10 1.85 1.1664
10 1.9 1.2624
10 1.95 1.2528
10 2 1.2512
10 2.05 1.2176
10 2.0999999 1.1928
10 2.1500001 1.1544
10 2.2 1.1408
10 2.25 1.1328
10 2.3 1.1184
10 2.3499999 1.1176
10 2.4000001 1.1136
10 2.45 1.1144
10 2.5 1.1128
10 2.55 1.1104
10 2.5999999 1.0951999
10 2.6500001 1.0976
10 2.7 1.1048
10 2.75 1.0968
10 2.8 1.1112
10 2.8499999 1.1095999
10 2.9000001 1.0904
10 2.95 0.9752
10 3 0.94239998
10 3.05 0.94959998
10 3.0999999 0.94239998
10 3.1500001 0.95200002
10 3.2 0.94639999
10 3.25 0.94639999
10 3.3 0.94319999
10 3.3499999 0.95120001
10 3.4000001 0.94800001
10 3.45 0.94880003
10 3.5 0.94160002
10 3.55 0.94639999
10 3.5999999 0.9472
10 3.6500001 0.94239998
10 3.7 0.94639999
10 3.75 0.94160002
10 3.8 0.94400001
10 3.8499999 0.9472
10 3.9000001 0.93839997
10 3.95 0.93440002
10 4 0.94080001
10 4.0500002 0.94
10 4.0999999 0.93760002
10 4.1500001 0.94
10 4.1999998 0.93839997
10 4.25 0.93839997
10 4.3000002 0.9368
