# .PCD v0.7 - Point Cloud Data file format
VERSION 0.7
FIELDS x y z
SIZE 4 4 4
TYPE F F F
COUNT 1 1 1
WIDTH 1990
HEIGHT 1
VIEWPOINT 0 0 0 1 0 0 0
POINTS 1990
DATA ascii
149.2 28.1 0.33680001
149.2 28.15 0.34079999
149.2 28.200001 0.49680001
149.2 28.25 0.5
149.2 28.299999 0.51279998
149.2 28.35 0.50080001
149.2 28.4 0.46720001
149.2 28.450001 0.32480001
149.2 28.5 0.1464
149.2 28.549999 0.236
149.2 28.6 0.18080001
149.2 28.65 0.1928
149.2 28.700001 0.18080001
149.2 28.75 0.184
149.2 28.799999 0.1832
149.2 28.85 0.1832
149.2 28.9 0.1832
149.2 28.950001 0.1864
149.2 29 0.1864
149.2 29.049999 0.1848
149.2 29.1 0.184
149.2 29.15 0.18880001
149.2 29.200001 0.2
149.2 29.25 0.74080002
149.2 29.299999 0.77679998
149.2 29.35 0.88880002
149.2 29.4 0.8976
149.2 29.450001 0.89679998
149.2 29.5 0.88880002
149.2 29.549999 0.85280001
149.2 29.6 0.80159998
149.2 29.65 0.74800003
149.2 29.700001 0.6936
149.2 29.75 0.63599998
149.2 29.799999 0.57279998
149.2 29.85 0.5104
149.2 29.9 0.44
149.2 29.950001 0.368
149.2 30 0.2904
149.2 30.049999 0.2128
149.2 30.1 0.1208
149.2 30.15 0.030400001
149.2 30.200001 -0.0704
149.2 30.25 -0.1824
149.2 30.299999 -0.30720001
149.2 30.35 -0.44639999
149.2 30.4 -0.6024
149.2 30.450001 -0.79360002
149.2 30.5 -1.0224
149.39999 24.700001 -1.2832
149.39999 24.75 -1.2352
149.39999 24.799999 -1.1799999
149.39999 24.85 -1.1720001
149.39999 24.9 -1.1608
149.39999 24.950001 -1.1696
149.39999 25 -1.1704
149.39999 25.049999 -1.1672
149.39999 25.1 -1.168
149.39999 25.15 -1.1664
149.39999 25.200001 -1.1624
149.39999 25.25 -1.1664
149.39999 25.299999 -1.1496
149.39999 25.35 0.17200001
149.39999 25.4 0.18960001
149.39999 25.450001 0.19840001
149.39999 25.5 0.1992
149.39999 25.549999 0.248
149.39999 25.6 0.33759999
149.39999 25.65 0.3448
149.39999 25.700001 0.3448
149.39999 25.75 0.336
149.39999 25.799999 0.33840001
149.39999 25.85 0.34720001
149.39999 25.9 0.3536
149.39999 25.950001 0.3696
149.39999 26 0.36000001
149.39999 26.049999 0.3448
149.39999 26.1 0.35120001
149.39999 26.15 0.3608
149.39999 26.200001 0.3856
149.39999 26.25 0.37599999
149.39999 26.299999 0.3416
149.39999 26.35 0.3344
149.39999 26.4 0.3448
149.39999 26.450001 0.35600001
149.39999 26.5 0.35519999
149.39999 26.549999 0.36000001
149.39999 26.6 0.3536
149.39999 26.65 0.3488
149.39999 26.700001 0.35440001
149.39999 26.75 0.34240001
149.39999 26.799999 0.33199999
149.39999 26.85 0.31279999
149.39999 26.9 0.3048
149.39999 26.950001 0.30239999
149.39999 27 0.29519999
149.39999 27.049999 0.3008
149.39999 27.1 0.3168
149.39999 27.15 0.31279999
149.39999 27.200001 0.2992
149.39999 27.25 0.30160001
149.39999 27.299999 0.3136
149.39999 27.35 0.2872
149.39999 27.4 0.40720001
149.39999 27.450001 0.33919999
149.39999 27.5 0.33199999
149.39999 27.549999 0.32879999
149.39999 27.6 0.3328
149.39999 27.65 0.3488
149.39999 27.700001 0.3448
149.39999 27.75 0.35679999
149.39999 27.799999 0.36480001
149.39999 27.85 0.36320001
149.39999 27.9 0.34400001
149.39999 27.950001 0.3448
149.39999 28 0.33199999
149.39999 28.049999 0.3312
149.39999 28.1 0.3256
149.39999 28.15 0.32800001
149.39999 28.200001 0.33919999
149.39999 28.25 0.39120001
149.39999 28.299999 0.56879997
149.39999 28.35 0.4576
149.39999 28.4 0.38159999
149.39999 28.450001 0.3536
149.39999 28.5 0.36320001
149.39999 28.549999 0.2288
149.39999 28.6 0.184
149.39999 28.65 0.184
149.39999 28.700001 0.1848
149.39999 28.75 0.1848
149.39999 28.799999 0.1848
149.39999 28.85 0.18080001
149.39999 28.9 0.1832
149.39999 28.950001 0.1832
149.39999 29 0.1864
149.39999 29.049999 0.1856
149.39999 29.1 0.18719999
149.39999 29.15 0.18799999
149.39999 29.200001 0.2
149.39999 29.25 0.74080002
149.39999 29.299999 0.78640002
149.39999 29.35 0.89120001
149.39999 29.4 0.8944
149.39999 29.450001 0.89679998
149.39999 29.5 0.88559997
149.39999 29.549999 0.85280001
149.39999 29.6 0.80159998
149.39999 29.65 0.7464
149.39999 29.700001 0.6936
149.39999 29.75 0.6336
149.39999 29.799999 0.57200003
149.39999 29.85 0.5104
149.39999 29.9 0.44
149.39999 29.950001 0.36719999
149.39999 30 0.2904
149.39999 30.049999 0.2104
149.39999 30.1 0.1224
149.39999 30.15 0.028000001
149.39999 30.200001 -0.0744
149.39999 30.25 -0.1848
149.39999 30.299999 -0.31119999
149.39999 30.35 -0.44639999
149.39999 30.4 -0.60399997
149.39999 30.450001 -0.79280001
149.39999 30.5 -1.0272
149.60001 24.700001 -1.2888
149.60001 24.75 -1.2368
149.60001 24.799999 -1.1912
149.60001 24.85 -1.1727999
149.60001 24.9 -1.1672
149.60001 24.950001 -1.1712
149.60001 25 -1.1704
149.60001 25.049999 -1.1712
149.60001 25.1 -1.1712
149.60001 25.15 -1.1688
149.60001 25.200001 -1.1632
149.60001 25.25 -1.164
149.60001 25.299999 -1.1256
149.60001 25.35 0.1656
149.60001 25.4 0.18960001
149.60001 25.450001 0.19760001
149.60001 25.5 0.2024
149.60001 25.549999 0.26640001
149.60001 25.6 0.3432
149.60001 25.65 0.34799999
149.60001 25.700001 0.352
149.60001 25.75 0.35280001
149.60001 25.799999 0.36880001
149.60001 25.85 0.3696
149.60001 25.9 0.35120001
149.60001 25.950001 0.3664
149.60001 26 0.38479999
149.60001 26.049999 0.35839999
149.60001 26.1 0.34
149.60001 26.15 0.3344
149.60001 26.200001 0.33199999
149.60001 26.25 0.3328
149.60001 26.299999 0.39840001
149.60001 26.35 0.38240001
149.60001 26.4 0.35679999
149.60001 26.450001 0.36000001
149.60001 26.5 0.33759999
149.60001 26.549999 0.33759999
149.60001 26.6 0.336
149.60001 26.65 0.34720001
149.60001 26.700001 0.34799999
149.60001 26.75 0.32080001
149.60001 26.799999 0.31200001
149.60001 26.85 0.2728
149.60001 26.9 0.28240001
149.60001 26.950001 0.26879999
149.60001 27 0.3768
149.60001 27.049999 0.35679999
149.60001 27.1 0.3168
149.60001 27.15 0.3312
149.60001 27.200001 0.30880001
149.60001 27.25 0.368
149.60001 27.299999 0.32879999
149.60001 27.35 0.32879999
149.60001 27.4 0.3168
149.60001 27.450001 0.3168
149.60001 27.5 0.31279999
149.60001 27.549999 0.29679999
149.60001 27.6 0.32480001
149.60001 27.65 0.32480001
149.60001 27.700001 0.33199999
149.60001 27.75 0.34639999
149.60001 27.799999 0.32960001
149.60001 27.85 0.33199999
149.60001 27.9 0.33840001
149.60001 27.950001 0.32640001
149.60001 28 0.3224
149.60001 28.049999 0.3272
149.60001 28.1 0.32080001
149.60001 28.15 0.3224
149.60001 28.200001 0.32480001
149.60001 28.25 0.3312
149.60001 28.299999 0.336
149.60001 28.35 0.38080001
149.60001 28.4 0.3448
149.60001 28.450001 0.52880001
149.60001 28.5 0.54640001
149.60001 28.549999 0.51840001
149.60001 28.6 0.176
149.60001 28.65 0.184
149.60001 28.700001 0.1848
149.60001 28.75 0.1848
149.60001 28.799999 0.1824
149.60001 28.85 0.184
149.60001 28.9 0.1848
149.60001 28.950001 0.184
149.60001 29 0.18880001
149.60001 29.049999 0.18719999
149.60001 29.1 0.18799999
149.60001 29.15 0.18799999
149.60001 29.200001 0.19840001
149.60001 29.25 0.74879998
149.60001 29.299999 0.8168
149.60001 29.35 0.88639998
149.60001 29.4 0.89679998
149.60001 29.450001 0.89520001
149.60001 29.5 0.88800001
149.60001 29.549999 0.85280001
149.60001 29.6 0.80159998
149.60001 29.65 0.74559999
149.60001 29.700001 0.69279999
149.60001 29.75 0.63120002
149.60001 29.799999 0.57359999
149.60001 29.85 0.50880003
149.60001 29.9 0.43759999
149.60001 29.950001 0.36559999
149.60001 30 0.29120001
149.60001 30.049999 0.2096
149.60001 30.1 0.12
149.60001 30.15 0.0264
149.60001 30.200001 -0.0744
149.60001 30.25 -0.1864
149.60001 30.299999 -0.31040001
149.60001 30.35 -0.4488
149.60001 30.4 -0.60720003
149.60001 30.450001 -0.79439998
149.60001 30.5 -1.0264
149.8 24.700001 -1.28
149.8 24.75 -1.2151999
149.8 24.799999 -1.1776
149.8 24.85 -1.1688
149.8 24.9 -1.1720001
149.8 24.950001 -1.168
149.8 25 -1.1672
149.8 25.049999 -1.1655999
149.8 25.1 -1.1688
149.8 25.15 -1.1696
149.8 25.200001 -1.164
149.8 25.25 -1.168
149.8 25.299999 -1.1504
149.8 25.35 0.14480001
149.8 25.4 0.1856
149.8 25.450001 0.19679999
149.8 25.5 0.204
149.8 25.549999 0.2128
149.8 25.6 0.3624
149.8 25.65 0.37439999
149.8 25.700001 0.39039999
149.8 25.75 0.38640001
149.8 25.799999 0.36480001
149.8 25.85 0.3448
149.8 25.9 0.3696
149.8 25.950001 0.38080001
149.8 26 0.39039999
149.8 26.049999 0.3944
149.8 26.1 0.36719999
149.8 26.15 0.34240001
149.8 26.200001 0.3416
149.8 26.25 0.34400001
149.8 26.299999 0.3448
149.8 26.35 0.36000001
149.8 26.4 0.36559999
149.8 26.450001 0.36320001
149.8 26.5 0.3752
149.8 26.549999 0.3224
149.8 26.6 0.3168
149.8 26.65 0.2992
149.8 26.700001 0.30320001
149.8 26.75 0.3048
149.8 26.799999 0.30239999
149.8 26.85 0.29359999
149.8 26.9 0.2976
149.8 26.950001 0.30880001
149.8 27 0.2728
149.8 27.049999 0.292
149.8 27.1 0.31200001
149.8 27.15 0.28560001
149.8 27.200001 0.264
149.8 27.25 0.25760001
149.8 27.299999 0.2992
149.8 27.35 0.30160001
149.8 27.4 0.32080001
149.8 27.450001 0.32159999
149.8 27.5 0.31999999
149.8 27.549999 0.32960001
149.8 27.6 0.324
149.8 27.65 0.32480001
149.8 27.700001 0.35679999
149.8 27.75 0.34240001
149.8 27.799999 0.35120001
149.8 27.85 0.35600001
149.8 27.9 0.35280001
149.8 27.950001 0.33199999
149.8 28 0.32480001
149.8 28.049999 0.324
149.8 28.1 0.32480001
149.8 28.15 0.32800001
149.8 28.200001 0.3184
149.8 28.25 0.31279999
149.8 28.299999 0.31279999
149.8 28.35 0.3256
149.8 28.4 0.34
149.8 28.450001 0.37439999
149.8 28.5 0.4104
149.8 28.549999 0.3696
149.8 28.6 0.1696
149.8 28.65 0.204
149.8 28.700001 0.1928
149.8 28.75 0.1832
149.8 28.799999 0.184
149.8 28.85 0.1728
149.8 28.9 0.1832
149.8 28.950001 0.1856
149.8 29 0.184
149.8 29.049999 0.1848
149.8 29.1 0.1848
149.8 29.15 0.1856
149.8 29.200001 0.19840001
149.8 29.25 0.74720001
149.8 29.299999 0.84960002
149.8 29.35 0.88480002
149.8 29.4 0.8944
149.8 29.450001 0.8944
149.8 29.5 0.88480002
149.8 29.549999 0.84960002
149.8 29.6 0.79839998
149.8 29.65 0.74479997
149.8 29.700001 0.68959999
149.8 29.75 0.63200003
149.8 29.799999 0.56800002
149.8 29.85 0.50239998
149.8 29.9 0.43520001
149.8 29.950001 0.36320001
149.8 30 0.28479999
149.8 30.049999 0.20479999
149.8 30.1 0.1152
149.8 30.15 0.0232
149.8 30.200001 -0.081600003
149.8 30.25 -0.1928
149.8 30.299999 -0.3184
149.8 30.35 -0.45680001
149.8 30.4 -0.61680001
149.8 30.450001 -0.80720001
149.8 30.5 -1.044
150 24.65 -1.2248
150 24.700001 -1.2016
150 24.75 -1.1768
150 24.799999 -1.1704
150 24.85 -1.1712
150 24.9 -1.1720001
150 24.950001 -1.168
150 25 -1.1688
150 25.049999 -1.1632
150 25.1 -1.164
150 25.15 -1.1616
150 25.200001 -1.1624
150 25.25 -1.1664
150 25.299999 -1.1512001
150 25.35 0.15360001
150 25.4 0.18880001
150 25.450001 0.2104
150 25.5 0.20640001
150 25.549999 0.30160001
150 25.6 0.3752
150 25.65 0.35679999
150 25.700001 0.3432
150 25.75 0.34240001
150 25.799999 0.35519999
150 25.85 0.4032
150 25.9 0.40880001
150 25.950001 0.3944
150 26 0.35600001
150 26.049999 0.3344
150 26.1 0.3152
150 26.15 0.31920001
150 26.200001 0.33840001
150 26.25 0.35440001
150 26.299999 0.35280001
150 26.35 0.4104
150 26.4 0.384
150 26.450001 0.3784
150 26.5 0.368
150 26.549999 0.34639999
150 26.6 0.37439999
150 26.65 0.3664
150 26.700001 0.31999999
150 26.75 0.2832
150 26.799999 0.2744
150 26.85 0.28799999
150 26.9 0.2728
150 26.950001 0.26879999
150 27 0.26640001
150 27.049999 0.26320001
150 27.1 0.2656
150 27.15 0.32960001
150 27.200001 0.37599999
150 27.25 0.28639999
150 27.299999 0.32640001
150 27.35 0.34560001
150 27.4 0.33759999
150 27.450001 0.3224
150 27.5 0.33199999
150 27.549999 0.3432
150 27.6 0.336
150 27.65 0.3328
150 27.700001 0.33759999
150 27.75 0.34079999
150 27.799999 0.34
150 27.85 0.33840001
150 27.9 0.33919999
150 27.950001 0.33759999
150 28 0.3344
150 28.049999 0.33199999
150 28.1 0.33039999
150 28.15 0.33520001
150 28.200001 0.3344
150 28.25 0.33520001
150 28.299999 0.34
150 28.35 0.33680001
150 28.4 0.34799999
150 28.450001 0.3768
150 28.5 0.4152
150 28.549999 0.40239999
150 28.6 0.208
150 28.65 0.1904
150 28.700001 0.1912
150 28.75 0.1912
150 28.799999 0.18000001
150 28.85 0.1824
150 28.9 0.1848
150 28.950001 0.18719999
150 29 0.18719999
150 29.049999 0.18880001
150 29.1 0.18880001
150 29.15 0.18960001
150 29.200001 0.20559999
150 29.25 0.75599998
150 29.299999 0.86799997
150 29.35 0.88880002
150 29.4 0.89520001
150 29.450001 0.89840001
150 29.5 0.88319999
150 29.549999 0.84960002
150 29.6 0.79519999
150 29.65 0.7432
150 29.700001 0.68559998
150 29.75 0.6304
150 29.799999 0.56639999
150 29.85 0.50080001
150 29.9 0.43439999
150 29.950001 0.3592
150 30 0.28400001
150 30.049999 0.2016
150 30.1 0.1136
150 30.15 0.0184
150 30.200001 -0.086400002
150 30.25 -0.19599999
150 30.299999 -0.324
150 30.35 -0.4648
150 30.4 -0.62
150 30.450001 -0.81199998
150 30.5 -1.0592
150 30.549999 -1.428
150.2 24.65 -1.2064
150.2 24.700001 -1.1928
150.2 24.75 -1.1704
150.2 24.799999 -1.168
150.2 24.85 -1.1608
150.2 24.9 -1.168
150.2 24.950001 -1.1648
150.2 25 -1.1688
150.2 25.049999 -1.1664
150.2 25.1 -1.164
150.2 25.15 -1.16
150.2 25.200001 -1.1536
150.2 25.25 0.0792
150.2 25.299999 0.14
150.2 25.35 0.18960001
150.2 25.4 0.20720001
150.2 25.450001 0.39359999
150.2 25.5 0.36480001
150.2 25.549999 0.38319999
150.2 25.6 0.47920001
150.2 25.65 0.46720001
150.2 25.700001 0.39919999
150.2 25.75 0.37599999
150.2 25.799999 0.3696
150.2 25.85 0.37040001
150.2 25.9 0.34400001
150.2 25.950001 0.3448
150.2 26 0.34
150.2 26.049999 0.33919999
150.2 26.1 0.36880001
150.2 26.15 0.352
150.2 26.200001 0.32879999
150.2 26.25 0.34079999
150.2 26.299999 0.4064
150.2 26.35 0.3752
150.2 26.4 0.3536
150.2 26.450001 0.33919999
150.2 26.5 0.33680001
150.2 26.549999 0.36160001
150.2 26.6 0.36160001
150.2 26.65 0.41839999
150.2 26.700001 0.36719999
150.2 26.75 0.36399999
150.2 26.799999 0.296
150.2 26.85 0.28960001
150.2 26.9 0.32319999
150.2 26.950001 0.30000001
150.2 27 0.29440001
150.2 27.049999 0.31200001
150.2 27.1 0.3168
150.2 27.15 0.31760001
150.2 27.200001 0.308
150.2 27.25 0.32879999
150.2 27.299999 0.33039999
150.2 27.35 0.31439999
150.2 27.4 0.31200001
150.2 27.450001 0.32080001
150.2 27.5 0.3312
150.2 27.549999 0.33039999
150.2 27.6 0.33759999
150.2 27.65 0.33680001
150.2 27.700001 0.33039999
150.2 27.75 0.3328
150.2 27.799999 0.336
150.2 27.85 0.34079999
150.2 27.9 0.34799999
150.2 27.950001 0.34240001
150.2 28 0.3448
150.2 28.049999 0.34560001
150.2 28.1 0.33680001
150.2 28.15 0.3432
150.2 28.200001 0.35280001
150.2 28.25 0.3536
150.2 28.299999 0.3448
150.2 28.35 0.36320001
150.2 28.4 0.36320001
150.2 28.450001 0.3608
150.2 28.5 0.34639999
150.2 28.549999 0.36880001
150.2 28.6 0.25119999
150.2 28.65 0.4016
150.2 28.700001 0.18000001
150.2 28.75 0.1944
150.2 28.799999 0.1824
150.2 28.85 0.1824
150.2 28.9 0.1848
150.2 28.950001 0.1856
150.2 29 0.18719999
150.2 29.049999 0.18719999
150.2 29.1 0.192
150.2 29.15 0.1864
150.2 29.200001 0.2112
150.2 29.25 0.7536
150.2 29.299999 0.87120003
150.2 29.35 0.88559997
150.2 29.4 0.8944
150.2 29.450001 0.8944
150.2 29.5 0.88480002
150.2 29.549999 0.84320003
150.2 29.6 0.79360002
150.2 29.65 0.7392
150.2 29.700001 0.68239999
150.2 29.75 0.62639999
150.2 29.799999 0.56080002
150.2 29.85 0.49680001
150.2 29.9 0.428
150.2 29.950001 0.35839999
150.2 30 0.27680001
150.2 30.049999 0.19599999
150.2 30.1 0.1056
150.2 30.15 0.0112
150.2 30.200001 -0.092
150.2 30.25 -0.20479999
150.2 30.299999 -0.3328
150.2 30.35 -0.47279999
150.2 30.4 -0.6336
150.2 30.450001 -0.8272
150.2 30.5 -1.0752
150.39999 24.65 -1.228
150.39999 24.700001 -1.1832
150.39999 24.75 -1.1736
150.39999 24.799999 -1.1648
150.39999 24.85 -1.1655999
150.39999 24.9 -1.16
150.39999 24.950001 -1.1655999
150.39999 25 -1.1592
150.39999 25.049999 -1.1592
150.39999 25.1 0.085600004
150.39999 25.15 0.1248
150.39999 25.200001 0.1768
150.39999 25.25 0.20640001
150.39999 25.299999 0.43759999
150.39999 25.35 0.4384
150.39999 25.4 0.4664
150.39999 25.450001 0.46959999
150.39999 25.5 0.44400001
150.39999 25.549999 0.4544
150.39999 25.6 0.3448
150.39999 25.65 0.34720001
150.39999 25.700001 0.3576
150.39999 25.75 0.3624
150.39999 25.799999 0.3696
150.39999 25.85 0.3696
150.39999 25.9 0.37200001
150.39999 25.950001 0.36719999
150.39999 26 0.3696
150.39999 26.049999 0.3488
150.39999 26.1 0.36399999
150.39999 26.15 0.3592
150.39999 26.200001 0.3872
150.39999 26.25 0.34799999
150.39999 26.299999 0.39520001
150.39999 26.35 0.38319999
150.39999 26.4 0.35440001
150.39999 26.450001 0.37040001
150.39999 26.5 0.35839999
150.39999 26.549999 0.37439999
150.39999 26.6 0.38800001
150.39999 26.65 0.37040001
150.39999 26.700001 0.39680001
150.39999 26.75 0.32640001
150.39999 26.799999 0.30320001
150.39999 26.85 0.32480001
150.39999 26.9 0.3256
150.39999 26.950001 0.32800001
150.39999 27 0.3328
150.39999 27.049999 0.3328
150.39999 27.1 0.33759999
150.39999 27.15 0.3344
150.39999 27.200001 0.32480001
150.39999 27.25 0.33840001
150.39999 27.299999 0.34959999
150.39999 27.35 0.3416
150.39999 27.4 0.33039999
150.39999 27.450001 0.3328
150.39999 27.5 0.3344
150.39999 27.549999 0.3344
150.39999 27.6 0.3344
150.39999 27.65 0.33680001
150.39999 27.700001 0.3448
150.39999 27.75 0.34799999
150.39999 27.799999 0.3504
150.39999 27.85 0.34799999
150.39999 27.9 0.3416
150.39999 27.950001 0.34720001
150.39999 28 0.34959999
150.39999 28.049999 0.3448
150.39999 28.1 0.34400001
150.39999 28.15 0.34240001
150.39999 28.200001 0.34639999
150.39999 28.25 0.3432
150.39999 28.299999 0.33759999
150.39999 28.35 0.34240001
150.39999 28.4 0.36000001
150.39999 28.450001 0.35839999
150.39999 28.5 0.3752
150.39999 28.549999 0.36160001
150.39999 28.6 0.2872
150.39999 28.65 0.2264
150.39999 28.700001 0.1944
150.39999 28.75 0.192
150.39999 28.799999 0.18880001
150.39999 28.85 0.1848
150.39999 28.9 0.1824
150.39999 28.950001 0.18719999
150.39999 29 0.18799999
150.39999 29.049999 0.184
150.39999 29.1 0.18799999
150.39999 29.15 0.18960001
150.39999 29.200001 0.2464
150.39999 29.25 0.75440001
150.39999 29.299999 0.86879998
150.39999 29.35 0.87840003
150.39999 29.4 0.88800001
150.39999 29.450001 0.88559997
150.39999 29.5 0.87360001
150.39999 29.549999 0.82319999
150.39999 29.6 0.77520001
150.39999 29.65 0.72320002
150.39999 29.700001 0.66640002
150.39999 29.75 0.6056
150.39999 29.799999 0.5424
150.39999 29.85 0.47760001
150.39999 29.9 0.4032
150.39999 29.950001 0.32640001
150.39999 30 0.24879999
150.39999 30.049999 0.1648
150.39999 30.1 0.071999997
150.39999 30.15 -0.024
150.39999 30.200001 -0.12800001
150.39999 30.25 -0.2464
150.39999 30.299999 -0.37279999
150.39999 30.35 -0.51679999
150.39999 30.4 -0.68239999
150.39999 30.450001 -0.90560001
150.60001 24.65 -1.2007999
150.60001 24.700001 -1.1688
150.60001 24.75 -1.1632
150.60001 24.799999 -1.1568
150.60001 24.85 -1.1552
150.60001 24.9 0.1072
150.60001 24.950001 0.168
150.60001 25 0.2104
150.60001 25.049999 0.2192
150.60001 25.1 0.33840001
150.60001 25.15 0.38159999
150.60001 25.200001 0.396
150.60001 25.25 0.45840001
150.60001 25.299999 0.41119999
150.60001 25.35 0.51999998
150.60001 25.4 0.4808
150.60001 25.450001 0.4384
150.60001 25.5 0.34799999
150.60001 25.549999 0.35280001
150.60001 25.6 0.35120001
150.60001 25.65 0.3488
150.60001 25.700001 0.34959999
150.60001 25.75 0.35600001
150.60001 25.799999 0.3664
150.60001 25.85 0.34720001
150.60001 25.9 0.3448
150.60001 25.950001 0.35600001
150.60001 26 0.35280001
150.60001 26.049999 0.35600001
150.60001 26.1 0.35600001
150.60001 26.15 0.36719999
150.60001 26.200001 0.3664
150.60001 26.25 0.428
150.60001 26.299999 0.428
150.60001 26.35 0.46880001
150.60001 26.4 0.38479999
150.60001 26.450001 0.35120001
150.60001 26.5 0.38240001
150.60001 26.549999 0.42399999
150.60001 26.6 0.43360001
150.60001 26.65 0.4152
150.60001 26.700001 0.40560001
150.60001 26.75 0.368
150.60001 26.799999 0.36719999
150.60001 26.85 0.37200001
150.60001 26.9 0.37439999
150.60001 26.950001 0.35280001
150.60001 27 0.36000001
150.60001 27.049999 0.36480001
150.60001 27.1 0.3696
150.60001 27.15 0.3752
150.60001 27.200001 0.38800001
150.60001 27.25 0.37439999
150.60001 27.299999 0.3768
150.60001 27.35 0.36320001
150.60001 27.4 0.34240001
150.60001 27.450001 0.33039999
150.60001 27.5 0.33360001
150.60001 27.549999 0.33759999
150.60001 27.6 0.33759999
150.60001 27.65 0.33919999
150.60001 27.700001 0.34720001
150.60001 27.75 0.3448
150.60001 27.799999 0.3416
150.60001 27.85 0.34240001
150.60001 27.9 0.33520001
150.60001 27.950001 0.3328
150.60001 28 0.3312
150.60001 28.049999 0.33360001
150.60001 28.1 0.33680001
150.60001 28.15 0.3344
150.60001 28.200001 0.3328
150.60001 28.25 0.3344
150.60001 28.299999 0.33759999
150.60001 28.35 0.33680001
150.60001 28.4 0.34400001
150.60001 28.450001 0.34720001
150.60001 28.5 0.3488
150.60001 28.549999 0.34240001
150.60001 28.6 0.34400001
150.60001 28.65 0.31760001
150.60001 28.700001 0.19599999
150.60001 28.75 0.18080001
150.60001 28.799999 0.1728
150.60001 28.85 0.1744
150.60001 28.9 0.17839999
150.60001 28.950001 0.18080001
150.60001 29 0.1824
150.60001 29.049999 0.156
150.60001 29.1 0.1472
150.60001 29.15 0.14560001
150.60001 29.200001 0.1592
150.60001 29.25 0.73680001
150.60001 29.299999 0.84640002
150.60001 29.35 0.87279999
150.60001 29.4 0.87519997
150.60001 29.450001 0.8768
150.60001 29.5 0.84799999
150.60001 29.549999 0.80400002
150.60001 29.6 0.74720001
150.60001 29.65 0.67760003
150.60001 29.700001 0.63520002
150.60001 29.75 0.56879997
150.60001 29.799999 0.49520001
150.60001 29.85 0.4472
150.60001 29.9 0.3752
150.60001 29.950001 0.29519999
150.60001 30 0.2216
150.60001 30.049999 0.12
150.60001 30.1 0.037599999
150.60001 30.15 -0.053599998
150.60001 30.200001 -0.1688
150.8 24.700001 -1.1624
150.8 24.75 -1.1592
150.8 24.799999 -1.1592
150.8 24.85 0.17919999
150.8 24.9 0.2208
150.8 24.950001 0.2448
150.8 25 0.2712
150.8 25.049999 0.47040001
150.8 25.1 0.5248
150.8 25.15 0.52319998
150.8 25.200001 0.47839999
150.8 25.25 0.4456
150.8 25.299999 0.384
150.8 25.35 0.34
150.8 25.4 0.34400001
150.8 25.450001 0.34720001
150.8 25.5 0.3432
150.8 25.549999 0.3432
150.8 25.6 0.3416
150.8 25.65 0.3416
150.8 25.700001 0.33919999
150.8 25.75 0.34079999
150.8 25.799999 0.34240001
150.8 25.85 0.3488
150.8 25.9 0.37439999
150.8 25.950001 0.36559999
150.8 26 0.3504
150.8 26.049999 0.3488
150.8 26.1 0.38479999
150.8 26.15 0.35519999
150.8 26.200001 0.36320001
150.8 26.25 0.36160001
150.8 26.299999 0.49360001
150.8 26.35 0.47679999
150.8 26.4 0.40239999
150.8 26.450001 0.34720001
150.8 26.5 0.3768
150.8 26.549999 0.39120001
150.8 26.6 0.39359999
150.8 26.65 0.35519999
150.8 26.700001 0.38240001
150.8 26.75 0.45120001
150.8 26.799999 0.3488
150.8 26.85 0.35280001
150.8 26.9 0.3624
150.8 26.950001 0.38080001
150.8 27 0.39680001
150.8 27.049999 0.42160001
150.8 27.1 0.4048
150.8 27.15 0.4064
150.8 27.200001 0.42160001
150.8 27.25 0.4104
150.8 27.299999 0.3696
150.8 27.35 0.36399999
150.8 27.4 0.34799999
150.8 27.450001 0.34560001
150.8 27.5 0.352
150.8 27.549999 0.3536
150.8 27.6 0.35839999
150.8 27.65 0.36399999
150.8 27.700001 0.36480001
150.8 27.75 0.35600001
150.8 27.799999 0.35280001
150.8 27.85 0.34720001
150.8 27.9 0.35440001
150.8 27.950001 0.3536
150.8 28 0.352
150.8 28.049999 0.34560001
150.8 28.1 0.34240001
150.8 28.15 0.3416
150.8 28.200001 0.34
150.8 28.25 0.34959999
150.8 28.299999 0.3488
150.8 28.35 0.3592
150.8 28.4 0.3624
150.8 28.450001 0.36399999
150.8 28.5 0.3416
150.8 28.549999 0.32800001
150.8 28.6 0.30880001
150.8 28.65 0.31279999
150.8 28.700001 0.32800001
150.8 28.75 0.19760001
150.8 28.799999 0.176
150.8 28.85 0.168
150.8 28.9 0.17919999
150.8 28.950001 0.18719999
150.8 29 0.18080001
150.8 29.049999 0.1504
150.8 29.1 0.148
150.8 29.15 0.1568
150.8 29.200001 0.1656
150.8 29.25 0.74400002
150.8 29.299999 0.86479998
150.8 29.35 0.87440002
150.8 29.4 0.87120003
150.8 29.450001 0.884
150.8 29.5 0.83679998
150.8 29.549999 0.77520001
150.8 29.6 0.72399998
150.8 29.65 0.67680001
150.8 29.700001 0.61119998
150.8 29.75 0.56879997
150.8 29.799999 0.49200001
150.8 29.85 0.42879999
150.8 29.9 0.35519999
150.8 29.950001 0.28240001
150.8 30 0.2
150.8 30.049999 0.1008
150.8 30.1 0.0128
150.8 30.15 -0.088
150.8 30.200001 -0.2176
150.8 30.25 -0.3272
150.8 30.299999 -0.43439999
151 24.700001 -1.16
151 24.75 -0.94239998
151 24.799999 0.12800001
151 24.85 0.25839999
151 24.9 0.25600001
151 24.950001 0.3152
151 25 0.3224
151 25.049999 0.3168
151 25.1 0.3312
151 25.15 0.3488
151 25.200001 0.34400001
151 25.25 0.32319999
151 25.299999 0.32319999
151 25.35 0.32159999
151 25.4 0.3224
151 25.450001 0.32879999
151 25.5 0.3272
151 25.549999 0.33759999
151 25.6 0.36559999
151 25.65 0.3432
151 25.700001 0.3432
151 25.75 0.34079999
151 25.799999 0.3448
151 25.85 0.3448
151 25.9 0.34400001
151 25.950001 0.35440001
151 26 0.34720001
151 26.049999 0.33199999
151 26.1 0.34560001
151 26.15 0.37599999
151 26.200001 0.39199999
151 26.25 0.39039999
151 26.299999 0.4224
151 26.35 0.41839999
151 26.4 0.37360001
151 26.450001 0.3976
151 26.5 0.3624
151 26.549999 0.35280001
151 26.6 0.38159999
151 26.65 0.3696
151 26.700001 0.36399999
151 26.75 0.3608
151 26.799999 0.3856
151 26.85 0.35600001
151 26.9 0.36399999
151 26.950001 0.36880001
151 27 0.37279999
151 27.049999 0.396
151 27.1 0.40880001
151 27.15 0.42719999
151 27.200001 0.43520001
151 27.25 0.4296
151 27.299999 0.40400001
151 27.35 0.38800001
151 27.4 0.36880001
151 27.450001 0.36399999
151 27.5 0.3624
151 27.549999 0.36880001
151 27.6 0.37040001
151 27.65 0.3784
151 27.700001 0.37360001
151 27.75 0.37040001
151 27.799999 0.3624
151 27.85 0.35280001
151 27.9 0.3536
151 27.950001 0.35440001
151 28 0.34959999
151 28.049999 0.35280001
151 28.1 0.352
151 28.15 0.34400001
151 28.200001 0.34400001
151 28.25 0.34
151 28.299999 0.3416
151 28.35 0.3608
151 28.4 0.3608
151 28.450001 0.35839999
151 28.5 0.35280001
151 28.549999 0.33520001
151 28.6 0.3224
151 28.65 0.27919999
151 28.700001 0.2888
151 28.75 0.31999999
151 28.799999 0.17919999
151 28.85 0.1504
151 28.9 0.1496
151 28.950001 0.16
151 29 0.1592
151 29.049999 0.1496
151 29.1 0.1584
151 29.15 0.1568
151 29.200001 0.1584
151 29.25 0.74559999
151 29.299999 0.86720002
151 29.35 0.87519997
151 29.4 0.87599999
151 29.450001 0.8768
151 29.5 0.83920002
151 29.549999 0.77039999
151 29.6 0.72320002
151 29.65 0.66079998
151 29.700001 0.60399997
151 29.75 0.54799998
151 29.799999 0.47920001
151 29.85 0.4152
151 29.9 0.33680001
151 29.950001 0.27200001
151 30 0.18799999
151 30.049999 0.093599997
151 30.1 0.0016
151 30.15 -0.090400003
151 30.200001 -0.21520001
151 30.25 -0.33759999
151 30.299999 -0.484
151.2 24.700001 0.021600001
151.2 24.75 0.075199999
151.2 24.799999 0.1328
151.2 24.85 0.21520001
151.2 24.9 0.28
151.2 24.950001 0.33520001
151.2 25 0.33680001
151.2 25.049999 0.47839999
151.2 25.1 0.4456
151.2 25.15 0.3488
151.2 25.200001 0.35440001
151.2 25.25 0.3416
151.2 25.299999 0.3344
151.2 25.35 0.3184
151.2 25.4 0.31600001
151.2 25.450001 0.33039999
151.2 25.5 0.33360001
151.2 25.549999 0.35280001
151.2 25.6 0.3448
151.2 25.65 0.33680001
151.2 25.700001 0.32960001
151.2 25.75 0.3312
151.2 25.799999 0.3344
151.2 25.85 0.34079999
151.2 25.9 0.3592
151.2 25.950001 0.34400001
151.2 26 0.3312
151.2 26.049999 0.3272
151.2 26.1 0.3256
151.2 26.15 0.33680001
151.2 26.200001 0.3696
151.2 26.25 0.37360001
151.2 26.299999 0.3664
151.2 26.35 0.37279999
151.2 26.4 0.3784
151.2 26.450001 0.40880001
151.2 26.5 0.3712
151.2 26.549999 0.35839999
151.2 26.6 0.39680001
151.2 26.65 0.41119999
151.2 26.700001 0.38
151.2 26.75 0.39199999
151.2 26.799999 0.3944
151.2 26.85 0.38960001
151.2 26.9 0.3888
151.2 26.950001 0.39199999
151.2 27 0.39199999
151.2 27.049999 0.39840001
151.2 27.1 0.38479999
151.2 27.15 0.39039999
151.2 27.200001 0.3944
151.2 27.25 0.3872
151.2 27.299999 0.39120001
151.2 27.35 0.37599999
151.2 27.4 0.36320001
151.2 27.450001 0.3608
151.2 27.5 0.36399999
151.2 27.549999 0.3624
151.2 27.6 0.35679999
151.2 27.65 0.3536
151.2 27.700001 0.352
151.2 27.75 0.35120001
151.2 27.799999 0.33840001
151.2 27.85 0.3344
151.2 27.9 0.33520001
151.2 27.950001 0.33039999
151.2 28 0.32879999
151.2 28.049999 0.32800001
151.2 28.1 0.32800001
151.2 28.15 0.32879999
151.2 28.200001 0.33199999
151.2 28.25 0.33199999
151.2 28.299999 0.34
151.2 28.35 0.37200001
151.2 28.4 0.38479999
151.2 28.450001 0.35519999
151.2 28.5 0.33680001
151.2 28.549999 0.32960001
151.2 28.6 0.34079999
151.2 28.65 0.3224
151.2 28.700001 0.34240001
151.2 28.75 0.17120001
151.2 28.799999 0.1864
151.2 28.85 0.15279999
151.2 28.9 0.15360001
151.2 28.950001 0.1592
151.2 29 0.164
151.2 29.049999 0.16159999
151.2 29.1 0.1608
151.2 29.15 0.1552
151.2 29.200001 0.73680001
151.2 29.25 0.77200001
151.2 29.299999 0.87199998
151.2 29.35 0.87519997
151.2 29.4 0.87760001
151.2 29.450001 0.87519997
151.2 29.5 0.81440002
151.2 29.549999 0.75599998
151.2 29.6 0.708
151.2 29.65 0.65439999
151.2 29.700001 0.59920001
151.2 29.75 0.52880001
151.2 29.799999 0.4648
151.2 29.85 0.39120001
151.2 29.9 0.3184
151.2 29.950001 0.2536
151.2 30 0.1584
151.2 30.049999 0.092799999
151.2 30.1 0.00079999998
151.2 30.15 -0.13600001
151.2 30.200001 -0.244
151.2 30.25 -0.39199999
151.39999 24.700001 0.02
151.39999 24.75 0.112
151.39999 24.799999 0.2032
151.39999 24.85 0.2744
151.39999 24.9 0.33759999
151.39999 24.950001 0.33680001
151.39999 25 0.384
151.39999 25.049999 0.41839999
151.39999 25.1 0.45840001
151.39999 25.15 0.4928
151.39999 25.200001 0.50160003
151.39999 25.25 0.5
151.39999 25.299999 0.46079999
151.39999 25.35 0.3976
151.39999 25.4 0.39039999
151.39999 25.450001 0.38
151.39999 25.5 0.3696
151.39999 25.549999 0.37040001
151.39999 25.6 0.3488
151.39999 25.65 0.3536
151.39999 25.700001 0.36480001
151.39999 25.75 0.3752
151.39999 25.799999 0.37360001
151.39999 25.85 0.36880001
151.39999 25.9 0.3576
151.39999 25.950001 0.36160001
151.39999 26 0.35280001
151.39999 26.049999 0.3624
151.39999 26.1 0.3576
151.39999 26.15 0.3608
151.39999 26.200001 0.3664
151.39999 26.25 0.38080001
151.39999 26.299999 0.38640001
151.39999 26.35 0.37439999
151.39999 26.4 0.36559999
151.39999 26.450001 0.36160001
151.39999 26.5 0.3576
151.39999 26.549999 0.34799999
151.39999 26.6 0.33360001
151.39999 26.65 0.33199999
151.39999 26.700001 0.368
151.39999 26.75 0.37599999
151.39999 26.799999 0.37920001
151.39999 26.85 0.3664
151.39999 26.9 0.3608
151.39999 26.950001 0.35679999
151.39999 27 0.37279999
151.39999 27.049999 0.36320001
151.39999 27.1 0.37360001
151.39999 27.15 0.36880001
151.39999 27.200001 0.35519999
151.39999 27.25 0.37200001
151.39999 27.299999 0.3608
151.39999 27.35 0.35519999
151.39999 27.4 0.35280001
151.39999 27.450001 0.3488
151.39999 27.5 0.35679999
151.39999 27.549999 0.34799999
151.39999 27.6 0.3416
151.39999 27.65 0.34240001
151.39999 27.700001 0.34639999
151.39999 27.75 0.34
151.39999 27.799999 0.34079999
151.39999 27.85 0.33759999
151.39999 27.9 0.33360001
151.39999 27.950001 0.33360001
151.39999 28 0.33039999
151.39999 28.049999 0.3312
151.39999 28.1 0.33360001
151.39999 28.15 0.34
151.39999 28.200001 0.34
151.39999 28.25 0.3504
151.39999 28.299999 0.3576
151.39999 28.35 0.3488
151.39999 28.4 0.3416
151.39999 28.450001 0.33360001
151.39999 28.5 0.32879999
151.39999 28.549999 0.38800001
151.39999 28.6 0.4104
151.39999 28.65 0.37439999
151.39999 28.700001 0.1664
151.39999 28.75 0.1848
151.39999 28.799999 0.1584
151.39999 28.85 0.1568
151.39999 28.9 0.156
151.39999 28.950001 0.16
151.39999 29 0.16240001
151.39999 29.049999 0.1608
151.39999 29.1 0.16320001
151.39999 29.15 0.15279999
151.39999 29.200001 0.74080002
151.39999 29.25 0.79839998
151.39999 29.299999 0.87519997
151.39999 29.35 0.88080001
151.39999 29.4 0.88080001
151.39999 29.450001 0.87279999
151.39999 29.5 0.80159998
151.39999 29.549999 0.74559999
151.39999 29.6 0.69599998
151.39999 29.65 0.6304
151.39999 29.700001 0.58240002
151.39999 29.75 0.51599997
151.39999 29.799999 0.4384
151.39999 29.85 0.36480001
151.39999 29.9 0.30559999
151.39999 29.950001 0.22319999
151.39999 30 0.1344
151.39999 30.049999 0.052000001
151.39999 30.1 -0.0504
151.39999 30.15 -0.15360001
151.39999 30.200001 -0.2888
151.39999 30.25 -0.41280001
151.60001 24.700001 0.0232
151.60001 24.75 0.099200003
151.60001 24.799999 0.18880001
151.60001 24.85 0.42559999
151.60001 24.9 0.44960001
151.60001 24.950001 0.45359999
151.60001 25 0.44319999
151.60001 25.049999 0.42320001
151.60001 25.1 0.368
151.60001 25.15 0.4048
151.60001 25.200001 0.412
151.60001 25.25 0.40000001
151.60001 25.299999 0.39359999
151.60001 25.35 0.40400001
151.60001 25.4 0.38080001
151.60001 25.450001 0.34720001
151.60001 25.5 0.33360001
151.60001 25.549999 0.3488
151.60001 25.6 0.37200001
151.60001 25.65 0.33680001
151.60001 25.700001 0.33680001
151.60001 25.75 0.3536
151.60001 25.799999 0.3488
151.60001 25.85 0.36880001
151.60001 25.9 0.3712
151.60001 25.950001 0.3696
151.60001 26 0.37760001
151.60001 26.049999 0.3752
151.60001 26.1 0.3944
151.60001 26.15 0.37920001
151.60001 26.200001 0.3592
151.60001 26.25 0.35679999
151.60001 26.299999 0.35280001
151.60001 26.35 0.352
151.60001 26.4 0.34560001
151.60001 26.450001 0.34079999
151.60001 26.5 0.39520001
151.60001 26.549999 0.33039999
151.60001 26.6 0.32800001
151.60001 26.65 0.3256
151.60001 26.700001 0.33680001
151.60001 26.75 0.35440001
151.60001 26.799999 0.39680001
151.60001 26.85 0.4048
151.60001 26.9 0.39520001
151.60001 26.950001 0.38
151.60001 27 0.3784
151.60001 27.049999 0.35519999
151.60001 27.1 0.34079999
151.60001 27.15 0.33840001
151.60001 27.200001 0.33759999
151.60001 27.25 0.3416
151.60001 27.299999 0.33759999
151.60001 27.35 0.33919999
151.60001 27.4 0.34400001
151.60001 27.450001 0.34240001
151.60001 27.5 0.3416
151.60001 27.549999 0.34079999
151.60001 27.6 0.34720001
151.60001 27.65 0.33919999
151.60001 27.700001 0.34560001
151.60001 27.75 0.34079999
151.60001 27.799999 0.34400001
151.60001 27.85 0.3488
151.60001 27.9 0.33680001
151.60001 27.950001 0.34
151.60001 28 0.34400001
151.60001 28.049999 0.34079999
151.60001 28.1 0.33919999
151.60001 28.15 0.34400001
151.60001 28.200001 0.3504
151.60001 28.25 0.3536
151.60001 28.299999 0.34400001
151.60001 28.35 0.33039999
151.60001 28.4 0.3272
151.60001 28.450001 0.32159999
151.60001 28.5 0.34799999
151.60001 28.549999 0.23360001
151.60001 28.6 0.17839999
151.60001 28.65 0.1824
151.60001 28.700001 0.1824
151.60001 28.75 0.1816
151.60001 28.799999 0.1584
151.60001 28.85 0.1568
151.60001 28.9 0.16159999
151.60001 28.950001 0.16159999
151.60001 29 0.16320001
151.60001 29.049999 0.16320001
151.60001 29.1 0.1584
151.60001 29.15 0.1568
151.60001 29.200001 0.7464
151.60001 29.25 0.8624
151.60001 29.299999 0.88480002
151.60001 29.35 0.88160002
151.60001 29.4 0.88239998
151.60001 29.450001 0.83600003
151.60001 29.5 0.78719997
151.60001 29.549999 0.74400002
151.60001 29.6 0.68080002
151.60001 29.65 0.62639999
151.60001 29.700001 0.54479998
151.60001 29.75 0.49599999
151.60001 29.799999 0.4296
151.60001 29.85 0.3488
151.60001 29.9 0.28080001
151.60001 29.950001 0.19599999
151.60001 30 0.124
151.60001 30.049999 0.0071999999
151.60001 30.1 -0.084799998
151.60001 30.15 -0.18080001
151.60001 30.200001 -0.31600001
151.8 24.299999 0.56720001
151.8 24.35 0.5808
151.8 24.4 0.58240002
151.8 24.450001 0.5952
151.8 24.5 0.55119997
151.8 24.549999 0.472
151.8 24.6 0.44319999
151.8 24.65 0.4064
151.8 24.700001 0.36399999
151.8 24.75 0.3504
151.8 24.799999 0.29440001
151.8 24.85 0.27200001
151.8 24.9 0.31920001
151.8 24.950001 0.32480001
151.8 25 0.3432
151.8 25.049999 0.35600001
151.8 25.1 0.37279999
151.8 25.15 0.368
151.8 25.200001 0.3504
151.8 25.25 0.35600001
151.8 25.299999 0.3768
151.8 25.35 0.3592
151.8 25.4 0.3536
151.8 25.450001 0.36480001
151.8 25.5 0.37279999
151.8 25.549999 0.3624
151.8 25.6 0.36399999
151.8 25.65 0.3488
151.8 25.700001 0.336
151.8 25.75 0.34
151.8 25.799999 0.3504
151.8 25.85 0.36160001
151.8 25.9 0.368
151.8 25.950001 0.37360001
151.8 26 0.38
151.8 26.049999 0.38240001
151.8 26.1 0.37200001
151.8 26.15 0.36399999
151.8 26.200001 0.35679999
151.8 26.25 0.34799999
151.8 26.299999 0.3432
151.8 26.35 0.35600001
151.8 26.4 0.3624
151.8 26.450001 0.384
151.8 26.5 0.39840001
151.8 26.549999 0.36160001
151.8 26.6 0.36719999
151.8 26.65 0.33520001
151.8 26.700001 0.33039999
151.8 26.75 0.3416
151.8 26.799999 0.36559999
151.8 26.85 0.37920001
151.8 26.9 0.38319999
151.8 26.950001 0.3752
151.8 27 0.3752
151.8 27.049999 0.34
151.8 27.1 0.33360001
151.8 27.15 0.3328
151.8 27.200001 0.3256
151.8 27.25 0.32800001
151.8 27.299999 0.32640001
151.8 27.35 0.3272
151.8 27.4 0.32640001
151.8 27.450001 0.33680001
151.8 27.5 0.36320001
151.8 27.549999 0.3504
151.8 27.6 0.3504
151.8 27.65 0.35679999
151.8 27.700001 0.35280001
151.8 27.75 0.3608
151.8 27.799999 0.35679999
151.8 27.85 0.3504
151.8 27.9 0.35280001
151.8 27.950001 0.34400001
151.8 28 0.33680001
151.8 28.049999 0.336
151.8 28.1 0.34959999
151.8 28.15 0.37920001
151.8 28.200001 0.39199999
151.8 28.25 0.37279999
151.8 28.299999 0.412
151.8 28.35 0.40000001
151.8 28.4 0.34079999
151.8 28.450001 0.1384
151.8 28.5 0.21359999
151.8 28.549999 0.18080001
151.8 28.6 0.1832
151.8 28.65 0.18880001
151.8 28.700001 0.18080001
151.8 28.75 0.1752
151.8 28.799999 0.15279999
151.8 28.85 0.15440001
151.8 28.9 0.1576
151.8 28.950001 0.16320001
151.8 29 0.16240001
151.8 29.049999 0.1584
151.8 29.1 0.1568
151.8 29.15 0.73040003
151.8 29.200001 0.74720001
151.8 29.25 0.87279999
151.8 29.299999 0.88080001
151.8 29.35 0.87519997
151.8 29.4 0.86720002
151.8 29.450001 0.81519997
151.8 29.5 0.7608
151.8 29.549999 0.71200001
151.8 29.6 0.66320002
151.8 29.65 0.58880001
151.8 29.700001 0.52960002
151.8 29.75 0.4664
151.8 29.799999 0.3944
151.8 29.85 0.32480001
151.8 29.9 0.24879999
151.8 29.950001 0.1664
151.8 30 0.076800004
151.8 30.049999 -0.021600001
151.8 30.1 -0.1336
151.8 30.15 -0.2352
152 24.6 0.46720001
152 24.65 0.51200002
152 24.700001 0.49680001
152 24.75 0.47920001
152 24.799999 0.27360001
152 24.85 0.31999999
152 24.9 0.34959999
152 24.950001 0.37360001
152 25 0.396
152 25.049999 0.4296
152 25.1 0.4016
152 25.15 0.42879999
152 25.200001 0.45840001
152 25.25 0.44080001
152 25.299999 0.40400001
152 25.35 0.34079999
152 25.4 0.37760001
152 25.450001 0.3576
152 25.5 0.33360001
152 25.549999 0.34720001
152 25.6 0.34560001
152 25.65 0.37439999
152 25.700001 0.3752
152 25.75 0.37040001
152 25.799999 0.37279999
152 25.85 0.3696
152 25.9 0.36559999
152 25.950001 0.36719999
152 26 0.45199999
152 26.049999 0.36559999
152 26.1 0.35839999
152 26.15 0.36000001
152 26.200001 0.3696
152 26.25 0.37920001
152 26.299999 0.3696
152 26.35 0.40720001
152 26.4 0.4208
152 26.450001 0.43200001
152 26.5 0.4048
152 26.549999 0.3536
152 26.6 0.34400001
152 26.65 0.35120001
152 26.700001 0.34720001
152 26.75 0.3664
152 26.799999 0.368
152 26.85 0.36320001
152 26.9 0.36480001
152 26.950001 0.36480001
152 27 0.3592
152 27.049999 0.34560001
152 27.1 0.34079999
152 27.15 0.34240001
152 27.200001 0.34720001
152 27.25 0.34799999
152 27.299999 0.3448
152 27.35 0.35280001
152 27.4 0.34720001
152 27.450001 0.34639999
152 27.5 0.3488
152 27.549999 0.34720001
152 27.6 0.35600001
152 27.65 0.35839999
152 27.700001 0.36399999
152 27.75 0.36480001
152 27.799999 0.36480001
152 27.85 0.36480001
152 27.9 0.36399999
152 27.950001 0.36320001
152 28 0.3624
152 28.049999 0.36160001
152 28.1 0.384
152 28.15 0.38
152 28.200001 0.472
152 28.25 0.456
152 28.299999 0.44
152 28.35 0.3608
152 28.4 0.3888
152 28.450001 0.40239999
152 28.5 0.35839999
152 28.549999 0.18880001
152 28.6 0.1832
152 28.65 0.1752
152 28.700001 0.208
152 28.75 0.1776
152 28.799999 0.156
152 28.85 0.1568
152 28.9 0.16159999
152 28.950001 0.164
152 29 0.1608
152 29.049999 0.156
152 29.1 0.16159999
152 29.15 0.73839998
152 29.200001 0.852
152 29.25 0.88080001
152 29.299999 0.88480002
152 29.35 0.87840003
152 29.4 0.8448
152 29.450001 0.79360002
152 29.5 0.74239999
152 29.549999 0.68800002
152 29.6 0.63440001
152 29.65 0.57200003
152 29.700001 0.50800002
152 29.75 0.4368
152 29.799999 0.36559999
152 29.85 0.292
152 29.9 0.2208
152 29.950001 0.1304
152 30 0.046399999
152 30.049999 -0.033599999
152 30.1 -0.1664
152 30.15 -0.292
152 30.200001 -0.40079999
152.2 24.75 0.092
152.2 24.799999 0.25040001
152.2 24.85 0.3344
152.2 24.9 0.36399999
152.2 24.950001 0.38
152.2 25 0.38640001
152.2 25.049999 0.38640001
152.2 25.1 0.40239999
152.2 25.15 0.40560001
152.2 25.200001 0.3944
152.2 25.25 0.34240001
152.2 25.299999 0.37040001
152.2 25.35 0.35120001
152.2 25.4 0.3416
152.2 25.450001 0.34639999
152.2 25.5 0.3664
152.2 25.549999 0.3504
152.2 25.6 0.34720001
152.2 25.65 0.35519999
152.2 25.700001 0.36480001
152.2 25.75 0.36480001
152.2 25.799999 0.37279999
152.2 25.85 0.37040001
152.2 25.9 0.36880001
152.2 25.950001 0.37200001
152.2 26 0.37200001
152.2 26.049999 0.39680001
152.2 26.1 0.41440001
152.2 26.15 0.42879999
152.2 26.200001 0.44080001
152.2 26.25 0.46399999
152.2 26.299999 0.50080001
152.2 26.35 0.47839999
152.2 26.4 0.39120001
152.2 26.450001 0.37439999
152.2 26.5 0.34079999
152.2 26.549999 0.33680001
152.2 26.6 0.33680001
152.2 26.65 0.3536
152.2 26.700001 0.37040001
152.2 26.75 0.35600001
152.2 26.799999 0.35679999
152.2 26.85 0.35280001
152.2 26.9 0.3488
152.2 26.950001 0.3592
152.2 27 0.3504
152.2 27.049999 0.34720001
152.2 27.1 0.3488
152.2 27.15 0.35280001
152.2 27.200001 0.3504
152.2 27.25 0.35519999
152.2 27.299999 0.35679999
152.2 27.35 0.3576
152.2 27.4 0.35519999
152.2 27.450001 0.3488
152.2 27.5 0.352
152.2 27.549999 0.3536
152.2 27.6 0.34720001
152.2 27.65 0.35679999
152.2 27.700001 0.3624
152.2 27.75 0.3608
152.2 27.799999 0.35519999
152.2 27.85 0.34720001
152.2 27.9 0.34240001
152.2 27.950001 0.33919999
152.2 28 0.3488
152.2 28.049999 0.3592
152.2 28.1 0.3712
152.2 28.15 0.36719999
152.2 28.200001 0.48719999
152.2 28.25 0.48879999
152.2 28.299999 0.37279999
152.2 28.35 0.3696
152.2 28.4 0.3168
152.2 28.450001 0.1936
152.2 28.5 0.20559999
152.2 28.549999 0.1832
152.2 28.6 0.1832
152.2 28.65 0.18080001
152.2 28.700001 0.1728
152.2 28.75 0.16
152.2 28.799999 0.164
152.2 28.85 0.1608
152.2 28.9 0.1656
152.2 28.950001 0.17200001
152.2 29 0.16159999
152.2 29.049999 0.1648
152.2 29.1 0.1672
152.2 29.15 0.7536
152.2 29.200001 0.87199998
152.2 29.25 0.88239998
152.2 29.299999 0.884
152.2 29.35 0.87760001
152.2 29.4 0.8344
152.2 29.450001 0.77039999
152.2 29.5 0.7216
152.2 29.549999 0.66399997
152.2 29.6 0.5984
152.2 29.65 0.53039998
152.2 29.700001 0.47839999
152.2 29.75 0.4136
152.2 29.799999 0.33919999
152.2 29.85 0.25600001
152.2 29.9 0.1736
152.2 29.950001 0.099200003
152.2 30 -0.0055999998
152.2 30.049999 -0.116
152.2 30.1 -0.23280001
152.39999 24.700001 0.39120001
152.39999 24.75 0.38800001
152.39999 24.799999 0.49759999
152.39999 24.85 0.32319999
152.39999 24.9 0.36719999
152.39999 24.950001 0.29679999
152.39999 25 0.3768
152.39999 25.049999 0.38240001
152.39999 25.1 0.40239999
152.39999 25.15 0.4048
152.39999 25.200001 0.4224
152.39999 25.25 0.34720001
152.39999 25.299999 0.33840001
152.39999 25.35 0.37439999
152.39999 25.4 0.34959999
152.39999 25.450001 0.34799999
152.39999 25.5 0.36000001
152.39999 25.549999 0.35440001
152.39999 25.6 0.35440001
152.39999 25.65 0.36160001
152.39999 25.700001 0.37760001
152.39999 25.75 0.40239999
152.39999 25.799999 0.41119999
152.39999 25.85 0.40959999
152.39999 25.9 0.40880001
152.39999 25.950001 0.41679999
152.39999 26 0.42399999
152.39999 26.049999 0.42879999
152.39999 26.1 0.44400001
152.39999 26.15 0.60159999
152.39999 26.200001 0.4152
152.39999 26.25 0.45359999
152.39999 26.299999 0.46000001
152.39999 26.35 0.45840001
152.39999 26.4 0.39919999
152.39999 26.450001 0.3592
152.39999 26.5 0.34
152.39999 26.549999 0.34
152.39999 26.6 0.33680001
152.39999 26.65 0.34400001
152.39999 26.700001 0.3664
152.39999 26.75 0.34560001
152.39999 26.799999 0.34240001
152.39999 26.85 0.3488
152.39999 26.9 0.36000001
152.39999 26.950001 0.3624
152.39999 27 0.3488
152.39999 27.049999 0.3504
152.39999 27.1 0.34639999
152.39999 27.15 0.352
152.39999 27.200001 0.3608
152.39999 27.25 0.37040001
152.39999 27.299999 0.37439999
152.39999 27.35 0.37200001
152.39999 27.4 0.36480001
152.39999 27.450001 0.36000001
152.39999 27.5 0.3608
152.39999 27.549999 0.3712
152.39999 27.6 0.36320001
152.39999 27.65 0.3696
152.39999 27.700001 0.37200001
152.39999 27.75 0.3752
152.39999 27.799999 0.37599999
152.39999 27.85 0.3664
152.39999 27.9 0.36880001
152.39999 27.950001 0.35600001
152.39999 28 0.34959999
152.39999 28.049999 0.34959999
152.39999 28.1 0.37360001
152.39999 28.15 0.49919999
152.39999 28.200001 0.52880001
152.39999 28.25 0.52079999
152.39999 28.299999 0.43920001
152.39999 28.35 0.45519999
152.39999 28.4 0.51359999
152.39999 28.450001 0.53119999
152.39999 28.5 0.52079999
152.39999 28.549999 0.58319998
152.39999 28.6 0.1848
152.39999 28.65 0.18000001
152.39999 28.700001 0.1752
152.39999 28.75 0.168
152.39999 28.799999 0.1648
152.39999 28.85 0.168
152.39999 28.9 0.1688
152.39999 28.950001 0.168
152.39999 29 0.17200001
152.39999 29.049999 0.1648
152.39999 29.1 0.7464
152.39999 29.15 0.83359998
152.39999 29.200001 0.88080001
152.39999 29.25 0.8768
152.39999 29.299999 0.87360001
152.39999 29.35 0.84719998
152.39999 29.4 0.80479997
152.39999 29.450001 0.75040001
152.39999 29.5 0.69279999
152.39999 29.549999 0.63120002
152.39999 29.6 0.5704
152.39999 29.65 0.51200002
152.39999 29.700001 0.44240001
152.39999 29.75 0.3712
152.39999 29.799999 0.31200001
152.39999 29.85 0.21520001
152.39999 29.9 0.1384
152.39999 29.950001 0.045600001
152.39999 30 -0.044799998
152.39999 30.049999 -0.17039999
152.39999 30.1 -0.29679999
152.39999 30.15 -0.4224
152.39999 30.200001 -0.48159999
152.60001 24.75 0.3448
152.60001 24.799999 0.3224
152.60001 24.85 0.324
152.60001 24.9 0.32879999
152.60001 24.950001 0.33199999
152.60001 25 0.3344
152.60001 25.049999 0.33840001
152.60001 25.1 0.3432
152.60001 25.15 0.35440001
152.60001 25.200001 0.49200001
152.60001 25.25 0.47119999
152.60001 25.299999 0.37920001
152.60001 25.35 0.3888
152.60001 25.4 0.37200001
152.60001 25.450001 0.37439999
152.60001 25.5 0.3712
152.60001 25.549999 0.37360001
152.60001 25.6 0.37439999
152.60001 25.65 0.36399999
152.60001 25.700001 0.37200001
152.60001 25.75 0.3784
152.60001 25.799999 0.3976
152.60001 25.85 0.39520001
152.60001 25.9 0.39680001
152.60001 25.950001 0.39840001
152.60001 26 0.4384
152.60001 26.049999 0.428
152.60001 26.1 0.56239998
152.60001 26.15 0.62879997
152.60001 26.200001 0.50080001
152.60001 26.25 0.50480002
152.60001 26.299999 0.47600001
152.60001 26.35 0.41839999
152.60001 26.4 0.43439999
152.60001 26.450001 0.39520001
152.60001 26.5 0.3448
152.60001 26.549999 0.33759999
152.60001 26.6 0.34
152.60001 26.65 0.3432
152.60001 26.700001 0.3712
152.60001 26.75 0.3328
152.60001 26.799999 0.336
152.60001 26.85 0.3576
152.60001 26.9 0.36480001
152.60001 26.950001 0.3712
152.60001 27 0.368
152.60001 27.049999 0.37200001
152.60001 27.1 0.37040001
152.60001 27.15 0.368
152.60001 27.200001 0.36559999
152.60001 27.25 0.36480001
152.60001 27.299999 0.36480001
152.60001 27.35 0.36320001
152.60001 27.4 0.35839999
152.60001 27.450001 0.3576
152.60001 27.5 0.37920001
152.60001 27.549999 0.36480001
152.60001 27.6 0.3608
152.60001 27.65 0.36880001
152.60001 27.700001 0.368
152.60001 27.75 0.3696
152.60001 27.799999 0.38479999
152.60001 27.85 0.3888
152.60001 27.9 0.38
152.60001 27.950001 0.39120001
152.60001 28 0.4048
152.60001 28.049999 0.45120001
152.60001 28.1 0.47760001
152.60001 28.15 0.56959999
152.60001 28.200001 0.57279998
152.60001 28.25 0.53600001
152.60001 28.299999 0.52560002
152.60001 28.35 0.54000002
152.60001 28.4 0.56800002
152.60001 28.450001 0.56959999
152.60001 28.5 0.55599999
152.60001 28.549999 0.18880001
152.60001 28.6 0.184
152.60001 28.65 0.1832
152.60001 28.700001 0.15279999
152.60001 28.75 0.16240001
152.60001 28.799999 0.16
152.60001 28.85 0.1608
152.60001 28.9 0.16159999
152.60001 28.950001 0.1648
152.60001 29 0.1728
152.60001 29.049999 0.72640002
152.60001 29.1 0.74879998
152.60001 29.15 0.8768
152.60001 29.200001 0.88
152.60001 29.25 0.8872
152.60001 29.299999 0.88080001
152.60001 29.35 0.82080001
152.60001 29.4 0.77280003
152.60001 29.450001 0.7184
152.60001 29.5 0.65679997
152.60001 29.549999 0.5952
152.60001 29.6 0.53039998
152.60001 29.65 0.4648
152.60001 29.700001 0.4032
152.60001 29.75 0.33039999
152.60001 29.799999 0.2368
152.60001 29.85 0.17200001
152.60001 29.9 0.084799998
152.60001 29.950001 -0.00079999998
152.60001 30 -0.092799999
152.60001 30.049999 -0.23199999
152.8 24.75 0.12
152.8 24.799999 0.31999999
152.8 24.85 0.3608
152.8 24.9 0.37760001
152.8 24.950001 0.39680001
152.8 25 0.396
