# .PCD v0.7 - Point Cloud Data file format
VERSION 0.7
FIELDS x y z
SIZE 4 4 4
TYPE F F F
COUNT 1 1 1
WIDTH 1499
HEIGHT 1
VIEWPOINT 0 0 0 1 0 0 0
POINTS 1499
DATA ascii
136.63791 -47.799553 -2.4656172
136.68753 -47.799187 -2.4572592
136.73788 -47.798622 -2.4624791
136.78772 -47.798203 -2.4581144
136.83774 -47.797729 -2.4569445
136.88748 -47.79734 -2.4509826
136.93753 -47.79686 -2.4506116
136.98732 -47.796448 -2.4454484
137.03732 -47.795975 -2.4442785
137.0876 -47.795433 -2.4479008
137.13718 -47.795082 -2.4387441
137.18692 -47.794693 -2.4327822
137.23711 -47.794174 -2.4348073
137.28725 -47.793663 -2.4360332
137.3369 -47.793297 -2.4284739
137.38687 -47.792839 -2.4265056
137.43706 -47.792313 -2.4285307
137.48636 -47.792046 -2.4145818
137.53632 -47.791595 -2.4126134
137.58647 -47.791077 -2.4138393
137.63634 -47.790649 -2.4102738
137.68657 -47.790123 -2.4130974
137.73627 -47.789742 -2.4063368
137.78624 -47.789276 -2.4043684
137.83612 -47.788849 -2.4008024
137.88599 -47.788414 -2.3972363
137.93591 -47.787964 -2.3944693
137.9857 -47.78756 -2.3893061
138.03523 -47.787231 -2.3793507
138.08586 -47.786583 -2.3893623
138.13525 -47.786285 -2.3770113
138.18539 -47.785782 -2.3782372
138.23549 -47.785286 -2.378665
138.28554 -47.784805 -2.3782938
138.33556 -47.78434 -2.3771238
138.38574 -47.783813 -2.379149
138.43535 -47.783455 -2.370791
138.48523 -47.783028 -2.3672252
138.53516 -47.782578 -2.3644578
138.58498 -47.782158 -2.3600936
138.6349 -47.781715 -2.3573263
138.68483 -47.781265 -2.3545589
138.73457 -47.780876 -2.348597
138.78467 -47.78038 -2.3490248
138.83455 -47.779945 -2.345459
138.88446 -47.779503 -2.3426917
138.93465 -47.778984 -2.3447165
138.8822 -47.807175 -0.49060255
138.92912 -47.807564 -0.43352497
138.97653 -47.807823 -0.38523287
139.02411 -47.808037 -0.34013546
139.07425 -47.807526 -0.34136176
139.12392 -47.807159 -0.33380246
139.17361 -47.806778 -0.32704192
139.22331 -47.806389 -0.32028127
139.27367 -47.805824 -0.32550097
139.3235 -47.805405 -0.32113642
139.37361 -47.804901 -0.32156396
139.42348 -47.804474 -0.31799805
139.47322 -47.804077 -0.31203616
139.52345 -47.803543 -0.31485987
139.57347 -47.803078 -0.31369001
139.62338 -47.802635 -0.3109228
139.67326 -47.802193 -0.30735689
139.72305 -47.801788 -0.3021937
139.77315 -47.8013 -0.3026213
139.82321 -47.800812 -0.30225015
139.87308 -47.800385 -0.2986843
139.92239 -47.80011 -0.28473556
139.97256 -47.799591 -0.28676051
140.02258 -47.799118 -0.28559065
140.07251 -47.798676 -0.28282344
140.12256 -47.798195 -0.28245234
140.17226 -47.797813 -0.27569175
140.22028 -47.797897 -0.23858124
140.23915 -47.806137 0.32565999
140.28223 -47.807602 0.45222294
140.33211 -47.807175 0.45578873
140.38159 -47.806854 0.46654284
140.43204 -47.806259 0.45972586
140.48523 -47.804901 0.40339053
140.53758 -47.80378 0.36223006
140.59045 -47.802498 0.31148553
140.64325 -47.801254 0.26233828
140.69604 -47.800011 0.21319121
140.74976 -47.7985 0.14727151
140.80264 -47.797226 0.09652698
140.85597 -47.795837 0.037795663
140.90987 -47.794273 -0.031318665
140.96477 -47.792435 -0.11880267
141.01814 -47.791031 -0.17833281
141.07262 -47.789307 -0.25782984
141.12698 -47.787613 -0.33572966
141.18195 -47.785767 -0.42401236
141.23775 -47.783676 -0.52746999
141.29314 -47.7817 -0.62373948
141.3485 -47.779739 -0.71921039
141.40813 -47.776573 -0.89215338
141.46777 -47.773407 -1.0650964
133.01668 -48.039627 -2.1462989
133.06789 -48.038818 -2.1666937
133.11609 -48.038857 -2.1327777
133.16357 -48.039093 -2.0860829
133.21024 -48.039558 -2.0242133
133.25905 -48.039429 -2.0014791
133.30902 -48.038971 -1.9995105
133.35925 -48.038437 -2.0023341
133.40886 -48.038078 -1.9939762
133.459 -48.037575 -1.9952024
133.50813 -48.037346 -1.9780589
133.55788 -48.036957 -1.972097
133.60872 -48.036255 -1.9861022
133.66425 -48.034233 -2.0847678
133.717 -48.032997 -2.1331162
133.76872 -48.032051 -2.163095
133.82056 -48.031067 -2.1946712
133.87012 -48.030724 -2.1855145
133.91972 -48.030373 -2.1771567
133.9693 -48.030022 -2.168
134.01891 -48.029663 -2.1596422
134.06848 -48.02932 -2.1504855
134.11809 -48.028961 -2.1421275
134.16766 -48.02861 -2.1329708
134.21727 -48.028259 -2.1246128
134.26688 -48.027901 -2.1162548
134.31606 -48.027657 -2.0999103
134.35944 -48.029045 -1.978938
134.40794 -48.028999 -1.9506129
134.45734 -48.028694 -1.9382615
134.50699 -48.028328 -1.9307023
134.55714 -48.027824 -1.9319285
134.60684 -48.027435 -1.9251679
134.6568 -48.026978 -1.9231994
134.70738 -48.026352 -1.9324125
134.75771 -48.025787 -1.9368335
134.80931 -48.024879 -1.9644161
134.89032 -48.015739 -2.5239215
134.94359 -48.014351 -2.5818546
134.9933 -48.013969 -2.5750937
135.04193 -48.013885 -2.5491648
135.092 -48.013397 -2.5487938
135.14218 -48.012886 -2.5508189
135.19188 -48.012505 -2.5440581
135.24211 -48.011971 -2.5468817
135.29211 -48.011497 -2.545712
135.342 -48.01107 -2.5421462
135.39218 -48.010551 -2.5441709
135.44188 -48.010162 -2.5374103
135.49185 -48.009712 -2.5354419
135.54185 -48.009239 -2.5342722
135.59164 -48.008827 -2.529109
135.64169 -48.008347 -2.5287375
135.69171 -48.007881 -2.5275679
135.74164 -48.007431 -2.5248008
135.79102 -48.007141 -2.5124493
135.84117 -48.00663 -2.5136757
135.89139 -48.006096 -2.516499
135.94106 -48.00573 -2.5089397
135.99124 -48.005211 -2.5109649
136.04111 -48.004776 -2.5073991
136.09082 -48.004395 -2.5006385
136.14082 -48.003929 -2.4994683
136.19092 -48.003426 -2.499896
136.24075 -48.003006 -2.4955316
136.29037 -48.002655 -2.4871736
136.34033 -48.00219 -2.4852052
136.39047 -48.001686 -2.4864314
136.44031 -48.001266 -2.4820669
136.48979 -48.000946 -2.4713128
136.53967 -48.000511 -2.4677467
136.58981 -48.000008 -2.4689732
136.64012 -47.999451 -2.4733942
136.69014 -47.998978 -2.4722242
136.73962 -47.998657 -2.4614706
136.78981 -47.998146 -2.4634953
136.8399 -47.997643 -2.463923
136.8896 -47.997261 -2.4571624
136.93925 -47.996895 -2.4496031
136.98962 -47.996323 -2.4548225
137.03923 -47.995964 -2.4464648
137.08942 -47.995445 -2.4484897
137.13921 -47.995033 -2.4433265
137.1886 -47.994743 -2.430975
137.23883 -47.994209 -2.4337988
137.28906 -47.993675 -2.4366221
137.33867 -47.993317 -2.4282641
137.3882 -47.992989 -2.418309
137.43843 -47.992455 -2.4211326
137.48848 -47.991974 -2.4207616
137.53857 -47.991478 -2.4211888
137.58784 -47.991211 -2.4064417
137.63815 -47.990662 -2.4108624
137.68834 -47.990143 -2.4128876
137.73827 -47.9897 -2.4101202
137.78827 -47.989227 -2.4089503
137.83801 -47.988831 -2.4029884
137.88773 -47.988457 -2.3962278
137.93759 -47.988014 -2.392662
137.98796 -47.98745 -2.3978815
138.03766 -47.987068 -2.3911214
138.08719 -47.986732 -2.381166
138.13747 -47.986191 -2.384788
138.18747 -47.985718 -2.3836184
138.23744 -47.98526 -2.38165
138.28731 -47.984825 -2.3780839
138.33701 -47.984451 -2.3713233
138.38724 -47.98391 -2.3741469
138.43721 -47.983459 -2.3721786
138.48677 -47.983116 -2.3630219
138.53679 -47.982635 -2.3618522
138.58714 -47.982071 -2.3670716
138.63702 -47.981644 -2.3635058
138.68672 -47.981255 -2.3567452
138.73647 -47.980858 -2.3507833
138.78658 -47.98037 -2.3512111
138.83653 -47.979904 -2.3492424
138.88615 -47.979553 -2.3408844
138.93597 -47.979134 -2.3365197
138.88358 -48.007309 -0.48320454
138.93117 -48.007515 -0.43810725
138.97667 -48.008308 -0.35547179
139.02628 -48.00795 -0.34711379
139.07597 -48.007561 -0.34035319
139.12564 -48.007195 -0.33279395
139.17574 -48.006699 -0.3332215
139.22543 -48.00631 -0.3264609
139.27544 -48.005844 -0.3252911
139.3252 -48.005455 -0.31932914
139.37538 -48.004929 -0.32135415
139.42557 -48.00441 -0.32337904
139.47522 -48.004044 -0.31581974
139.52527 -48.003555 -0.31544864
139.57541 -48.003052 -0.31667489
139.62515 -48.002655 -0.31071293
139.67494 -48.002243 -0.30554968
139.72466 -48.001862 -0.29878914
139.77492 -48.00132 -0.30241144
139.82503 -48.000824 -0.30283898
139.87468 -48.000458 -0.29527968
139.92468 -47.999985 -0.29410988
139.97466 -47.999527 -0.29214144
140.02461 -47.999069 -0.29017293
140.07484 -47.998543 -0.29299647
140.12367 -47.998405 -0.2702623
140.17195 -47.998413 -0.23794377
140.19073 -48.006683 0.32789481
140.23386 -48.008141 0.45365906
140.28383 -48.007675 0.45562756
140.33366 -48.007256 0.45999205
140.38455 -48.006546 0.44518828
140.43695 -48.005402 0.40322924
140.49014 -48.004044 0.34689391
140.54266 -48.002876 0.30253863
140.59541 -48.001633 0.25419021
140.64886 -48.000206 0.19306278
140.70175 -47.998932 0.14231819
140.75507 -47.997536 0.083586812
140.8091 -47.995941 0.012076378
140.86282 -47.994438 -0.053843141
140.916 -47.993073 -0.11017835
140.97061 -47.991318 -0.19207168
141.02486 -47.98967 -0.26757538
141.07982 -47.987808 -0.35585803
141.13539 -47.985786 -0.45532221
141.19136 -47.98365 -0.56197464
141.24596 -47.981903 -0.64386785
141.30353 -47.979309 -0.77927279
141.35989 -47.977066 -0.89311337
132.97087 -48.239433 -2.1911864
133.02022 -48.239151 -2.1780362
133.06718 -48.239525 -2.1217573
133.11436 -48.239853 -2.0694718
133.16154 -48.240173 -2.0171862
133.21133 -48.239761 -2.012023
133.26157 -48.239235 -2.0148468
133.311 -48.238922 -2.003294
133.36124 -48.238388 -2.0061176
133.41165 -48.237808 -2.012136
133.46378 -48.236748 -2.0493031
133.51457 -48.236053 -2.0625093
133.56648 -48.235054 -2.0956829
133.621 -48.23333 -2.1759787
134.46211 -48.227875 -1.9923619
134.50934 -48.22818 -1.9408752
134.55856 -48.227936 -1.925329
134.60875 -48.227417 -1.927354
134.65941 -48.226761 -1.9381644
134.70885 -48.226456 -1.9266117
134.75868 -48.226028 -1.9222471
134.80843 -48.225639 -1.9162853
134.86188 -48.224205 -1.9774126
134.91246 -48.223572 -1.9866258
134.99538 -48.213898 -2.5804749
135.04494 -48.213554 -2.5713181
135.09358 -48.213463 -2.5453889
135.14407 -48.21286 -2.5530047
135.19418 -48.212372 -2.5534325
135.24393 -48.211975 -2.5474706
135.29379 -48.21154 -2.5439045
135.34377 -48.211082 -2.5419359
135.39337 -48.210732 -2.5335779
135.44374 -48.210152 -2.5387979
135.49374 -48.209686 -2.5376279
135.54362 -48.209259 -2.5340619
135.59355 -48.208809 -2.5312948
135.64343 -48.208374 -2.527729
135.69308 -48.208008 -2.5201697
135.74309 -48.207535 -2.5190001
135.7932 -48.207039 -2.5194273
135.8432 -48.206573 -2.5182576
135.89308 -48.206139 -2.5146918
135.94304 -48.205681 -2.5127234
135.99287 -48.205261 -2.508359
136.04306 -48.204742 -2.5103836
136.09294 -48.204308 -2.5068178
136.1429 -48.203857 -2.5048494
136.19278 -48.203415 -2.5012836
136.24271 -48.202972 -2.4985161
136.29227 -48.202629 -2.4893599
136.34233 -48.202141 -2.4889884
136.39238 -48.201668 -2.4886174
136.44226 -48.201233 -2.4850516
136.4921 -48.200813 -2.4806871
136.54184 -48.200417 -2.4747252
136.59193 -48.199921 -2.4751525
136.64154 -48.19957 -2.4667945
136.69182 -48.19902 -2.470417
136.74152 -48.198639 -2.4636564
136.79163 -48.198143 -2.4640839
136.8414 -48.197731 -2.458921
136.89119 -48.197327 -2.4537575
136.94112 -48.196884 -2.4509902
136.99113 -48.196411 -2.4498205
137.04135 -48.195885 -2.4526439
137.09106 -48.195503 -2.4458838
137.14076 -48.195114 -2.4391229
137.19099 -48.19458 -2.4419465
137.24069 -48.194206 -2.4351859
137.29057 -48.193764 -2.4316201
137.34084 -48.193222 -2.4352424
137.39072 -48.192795 -2.4316764
137.44025 -48.192451 -2.421721
137.49055 -48.191902 -2.4261422
137.54048 -48.19146 -2.4233751
137.59006 -48.191109 -2.4142184
137.63988 -48.190689 -2.4098539
137.69025 -48.190125 -2.4150734
137.74017 -48.189682 -2.4123063
137.78973 -48.189331 -2.4031496
137.83975 -48.188866 -2.4019799
137.8894 -48.188492 -2.3944206
137.93959 -48.187973 -2.3964455
137.98956 -48.187515 -2.3944769
138.03931 -48.187119 -2.388515
138.08913 -48.186699 -2.3841505
138.13919 -48.186218 -2.3837795
138.18924 -48.185738 -2.3834083
138.23929 -48.185249 -2.3830371
138.28935 -48.184769 -2.3826661
138.33919 -48.184349 -2.3783016
138.3891 -48.183899 -2.3755343
138.43912 -48.183434 -2.3743644
138.48912 -48.182968 -2.3731947
138.53886 -48.182564 -2.3672328
138.58875 -48.182137 -2.363667
138.63879 -48.181656 -2.3632958
138.68832 -48.18132 -2.3533406
138.73833 -48.180855 -2.3521707
138.78821 -48.18042 -2.3486047
138.83813 -48.17997 -2.3458376
138.88797 -48.17955 -2.3414731
138.9382 -48.179024 -2.3442969
138.88535 -48.207321 -0.48299456
138.93262 -48.207611 -0.43230635
138.97874 -48.208237 -0.36085254
139.02805 -48.207962 -0.3469038
139.07832 -48.207413 -0.35052603
139.1283 -48.206963 -0.34855753
139.17776 -48.206642 -0.33780354
139.22748 -48.206253 -0.33104295
139.27718 -48.205872 -0.32428241
139.32727 -48.205383 -0.32470995
139.3775 -48.204842 -0.32753348
139.42738 -48.204414 -0.3239677
139.47743 -48.203934 -0.3235966
139.52722 -48.203522 -0.31843328
139.57741 -48.203003 -0.32045823
139.62697 -48.20266 -0.31130159
139.67725 -48.20211 -0.31492394
139.72743 -48.201599 -0.31694883
139.77704 -48.201241 -0.30859089
139.82724 -48.200714 -0.31061578
139.87645 -48.20047 -0.29506969
139.92664 -48.199951 -0.29709458
139.97668 -48.199463 -0.29672343
140.02657 -48.199036 -0.29315764
140.0643 -48.202003 -0.069954038
140.09386 -48.207253 0.30100596
140.13588 -48.209015 0.44673741
140.18584 -48.208557 0.44870579
140.23563 -48.208153 0.4538691
140.28595 -48.207596 0.44944811
140.33711 -48.206802 0.42985225
140.39061 -48.20536 0.36792612
140.4422 -48.204445 0.34034336
140.49553 -48.203049 0.2816118
140.54868 -48.201706 0.22607529
140.60133 -48.200493 0.17932415
140.65536 -48.198898 0.10781378
140.70798 -48.197701 0.061861277
140.76157 -48.196228 -0.0016621351
140.81537 -48.194695 -0.069179118
140.86935 -48.193115 -0.13989085
140.92285 -48.191666 -0.20181692
140.97791 -48.189796 -0.291697
141.03255 -48.188026 -0.37438887
141.089 -48.185753 -0.48982674
141.14294 -48.184181 -0.55973965
141.19975 -48.181816 -0.68156701
141.25656 -48.179443 -0.80339444
132.97168 -48.43972 -2.1734052
133.0204 -48.439613 -2.1490736
133.0679 -48.439842 -2.1023791
133.11482 -48.440239 -2.0453014
133.16328 -48.440201 -2.0161777
133.2132 -48.439751 -2.0134106
133.26343 -48.439224 -2.0162342
133.31296 -48.438889 -2.0062788
133.36305 -48.438393 -2.0067062
133.41298 -48.43795 -2.0039392
133.46718 -48.43631 -2.0786443
133.51886 -48.435364 -2.1078243
133.57007 -48.434563 -2.1282191
134.46375 -48.427925 -1.989756
134.51178 -48.428017 -1.9526455
134.56148 -48.427635 -1.9458848
134.61073 -48.427368 -1.9311374
134.66043 -48.426987 -1.9243768
134.71089 -48.426399 -1.9311939
134.76036 -48.426071 -1.92044
134.81015 -48.425667 -1.9152766
134.86171 -48.424767 -1.9420608
134.91432 -48.423561 -1.9880133
134.99715 -48.413918 -2.5802646
135.04684 -48.413536 -2.5735042
135.09602 -48.4133 -2.5571594
135.14563 -48.412941 -2.5488014
135.19556 -48.412498 -2.5460343
135.24551 -48.412041 -2.544066
135.29544 -48.411591 -2.5412986
135.34563 -48.411079 -2.5433235
135.39523 -48.410721 -2.5349655
135.44582 -48.410088 -2.5441785
135.49561 -48.409676 -2.5390153
135.54504 -48.40937 -2.5274627
135.59518 -48.408859 -2.5286889
135.6452 -48.408394 -2.5275192
135.69516 -48.407936 -2.5255508
135.74535 -48.407417 -2.5275755
135.79492 -48.407074 -2.5184188
135.84502 -48.406578 -2.5188465
135.89499 -48.406113 -2.5168781
135.9449 -48.40567 -2.5141108
135.99483 -48.405228 -2.5113435
136.04488 -48.404747 -2.5109725
136.09448 -48.404388 -2.5026145
136.14464 -48.403885 -2.5038409
136.19469 -48.403397 -2.5034695
136.24438 -48.403015 -2.4967093
136.29453 -48.402512 -2.4979353
136.34419 -48.402138 -2.490376
136.3938 -48.401779 -2.482018
136.44415 -48.401215 -2.4872379
136.49382 -48.400848 -2.4796786
136.54382 -48.400368 -2.4785087
136.59389 -48.399887 -2.4781375
136.64389 -48.399422 -2.4769678
136.69368 -48.39901 -2.4718046
136.74338 -48.398628 -2.465044
136.79343 -48.398148 -2.4646728
136.84326 -48.397728 -2.4603081
136.89337 -48.397232 -2.4607358
136.94298 -48.396873 -2.4523778
136.99268 -48.396484 -2.4456172
137.04305 -48.39592 -2.4508371
137.09283 -48.395515 -2.4456737
137.14288 -48.395027 -2.4453025
137.19276 -48.3946 -2.4417367
137.24281 -48.394119 -2.4413657
137.29256 -48.393723 -2.4354038
137.34253 -48.393265 -2.4334352
137.39253 -48.392799 -2.4322653
137.4425 -48.392334 -2.4302969
137.49234 -48.391914 -2.4259324
137.54208 -48.391525 -2.4199705
137.59218 -48.391022 -2.420398
137.64197 -48.390617 -2.4152346
137.69185 -48.39019 -2.4116688
137.74211 -48.389648 -2.4152913
137.79164 -48.389305 -2.4053359
137.84178 -48.388802 -2.4065621
137.89175 -48.388351 -2.4045937
137.9415 -48.387947 -2.3986316
137.99173 -48.387421 -2.4014554
138.04138 -48.387054 -2.3938961
138.09143 -48.386566 -2.3935251
138.14091 -48.386246 -2.382771
138.19119 -48.385704 -2.3863931
138.24106 -48.385269 -2.3828273
138.29089 -48.38485 -2.3784628
138.34042 -48.384514 -2.3685074
138.39052 -48.384018 -2.3689351
138.44066 -48.383514 -2.3701611
138.4908 -48.383011 -2.3713875
138.54019 -48.382706 -2.359036
138.59052 -48.382156 -2.3634572
138.64052 -48.381683 -2.3622873
138.69035 -48.381264 -2.3579226
138.74019 -48.380844 -2.3535581
138.79016 -48.380386 -2.3515897
138.84012 -48.379929 -2.3496213
138.88991 -48.379517 -2.3444581
138.94005 -48.379013 -2.3456843
138.88734 -48.40728 -0.48677814
138.9352 -48.40741 -0.44647282
138.9807 -48.408203 -0.36383742
139.03035 -48.407829 -0.35627812
139.07988 -48.407494 -0.34632277
139.12984 -48.407036 -0.34435427
139.17986 -48.40657 -0.34318453
139.22972 -48.406136 -0.33961862
139.27969 -48.405678 -0.33765018
139.32957 -48.405251 -0.33408427
139.37962 -48.404762 -0.33371311
139.42955 -48.40432 -0.33094603
139.47955 -48.403854 -0.32977623
139.52957 -48.403374 -0.32860631
139.57932 -48.402985 -0.32264441
139.62897 -48.402618 -0.31508517
139.67853 -48.402267 -0.30592853
139.72885 -48.401711 -0.31034946
139.77895 -48.401215 -0.31077707
139.82864 -48.400833 -0.30401647
139.87843 -48.400421 -0.29885328
139.92867 -48.399895 -0.30167687
139.97917 -48.399284 -0.30929255
140.02582 -48.399757 -0.24742287
140.04562 -48.407738 0.30004597
140.0883 -48.409325 0.43379712
140.13805 -48.40892 0.43975914
140.18721 -48.408691 0.4561038
140.23825 -48.407936 0.43890405
140.29091 -48.406723 0.39215291
140.3432 -48.405609 0.35179114
140.39618 -48.40432 0.29944932
140.44879 -48.403114 0.25349677
140.50114 -48.401993 0.2123363
140.55455 -48.400574 0.15200758
140.608 -48.399132 0.090880156
140.66061 -48.397942 0.044927657
140.71439 -48.396423 -0.021790504
140.76863 -48.39476 -0.097294331
140.8224 -48.393242 -0.16401249
140.87646 -48.39164 -0.23632151
140.93117 -48.389854 -0.31981215
140.98602 -48.388031 -0.40649745
141.04124 -48.386108 -0.49957222
141.09625 -48.384232 -0.58865356
141.15434 -48.381508 -0.7336427
141.21243 -48.378777 -0.87863183
141.27052 -48.376053 -1.0236211
141.32764 -48.373589 -1.1510391
133.02231 -48.639587 -2.1512599
133.07007 -48.639748 -2.1093571
133.11681 -48.64019 -2.0490847
133.1655 -48.640099 -2.0239544
133.21519 -48.639709 -2.0171938
133.26489 -48.639328 -2.0104332
133.31473 -48.638908 -2.0060687
133.36508 -48.638336 -2.0112886
133.41554 -48.637741 -2.0181055
133.46422 -48.63765 -1.9929751
133.51764 -48.636223 -2.053304
133.56941 -48.635262 -2.0840814
133.62102 -48.634346 -2.1116643
133.67062 -48.633987 -2.1033063
133.7164 -48.634705 -2.0254629
134.37852 -48.625237 -2.2274971
134.41649 -48.628143 -2.008287
134.46477 -48.628151 -1.9759684
134.51323 -48.628113 -1.9468447
134.56245 -48.627869 -1.9312986
134.61234 -48.627434 -1.9277328
134.66225 -48.626991 -1.9249655
134.71243 -48.626472 -1.9269905
134.76205 -48.626114 -1.9186325
134.81229 -48.62558 -1.9214561
134.86378 -48.624695 -1.9474415
134.91641 -48.623489 -1.993394
134.99901 -48.613907 -2.5816522
135.04817 -48.613678 -2.5653076
135.09717 -48.613487 -2.5457678
135.14731 -48.612984 -2.5469942
135.19754 -48.61245 -2.5498176
135.24738 -48.61203 -2.5454531
135.29698 -48.611671 -2.5370951
135.34714 -48.611168 -2.5383215
135.39732 -48.610649 -2.5403461
135.44737 -48.610161 -2.5399752
135.49716 -48.609756 -2.534812
135.54704 -48.609329 -2.5312462
135.5974 -48.608749 -2.5364656
135.64709 -48.608376 -2.529705
135.69725 -48.607864 -2.5309315
135.74716 -48.607414 -2.5281644
135.79709 -48.606972 -2.5253971
135.84692 -48.60656 -2.5210326
135.89684 -48.60611 -2.5182652
135.94658 -48.605713 -2.5123034
135.99664 -48.605232 -2.5119324
136.04674 -48.604736 -2.5123599
136.09671 -48.604279 -2.5103912
136.14667 -48.603828 -2.5084229
136.19637 -48.603439 -2.5016623
136.24615 -48.603035 -2.4964991
136.29625 -48.602539 -2.4969268
136.34613 -48.602104 -2.493361
136.39592 -48.6017 -2.4881976
136.44606 -48.601189 -2.4894238
136.49585 -48.600784 -2.4842606
136.54573 -48.600349 -2.4806948
136.59566 -48.599907 -2.4779277
136.64545 -48.599503 -2.4727643
136.69554 -48.598999 -2.4731917
136.74533 -48.598595 -2.4680285
136.79517 -48.598175 -2.4636641
136.84552 -48.597603 -2.4688838
136.89526 -48.597214 -2.4629219
136.94501 -48.596817 -2.4569597
136.99489 -48.596382 -2.4533939
137.04477 -48.595947 -2.4498281
137.095 -48.595421 -2.452652
137.1447 -48.595032 -2.4458914
137.19467 -48.594582 -2.4439228
137.24472 -48.594101 -2.4435515
137.29442 -48.593712 -2.4367909
137.34435 -48.593269 -2.4340239
137.39413 -48.592865 -2.4288607
137.44427 -48.592354 -2.4300869
137.49397 -48.591972 -2.4233263
137.5442 -48.591438 -2.4261498
137.59412 -48.590988 -2.4233828
137.64395 -48.590576 -2.4190183
137.69406 -48.59008 -2.4194458
137.74371 -48.589714 -2.4118862
137.79364 -48.589264 -2.4091191
137.84373 -48.588768 -2.4095469
137.89343 -48.588387 -2.4027863
137.94392 -48.587776 -2.4104018
137.99336 -48.587471 -2.398849
138.04333 -48.587021 -2.3968806
138.09338 -48.586533 -2.3965096
138.14294 -48.586189 -2.3873529
138.19301 -48.585709 -2.386982
138.2428 -48.585297 -2.3818188
138.29276 -48.584839 -2.3798499
138.3429 -48.584335 -2.3810763
138.39264 -48.583931 -2.3751144
138.44261 -48.583481 -2.3731461
138.49245 -48.583061 -2.3687813
138.54276 -48.582497 -2.3732023
138.59224 -48.582184 -2.3624482
138.6423 -48.581703 -2.3620772
138.69244 -48.581192 -2.3633037
138.74231 -48.580757 -2.3597376
138.79237 -48.580276 -2.3593664
138.84216 -48.579865 -2.3542032
138.89212 -48.579414 -2.3522348
138.8414 -48.607117 -0.5292694
138.88853 -48.607452 -0.47618514
138.93524 -48.607903 -0.41511422
138.98219 -48.608292 -0.35883528
139.03181 -48.607933 -0.35047728
139.08205 -48.607399 -0.35330093
139.13219 -48.606895 -0.35452712
139.18163 -48.60659 -0.34297448
139.23158 -48.606125 -0.34100592
139.28177 -48.605606 -0.34303093
139.33151 -48.605217 -0.33706897
139.38158 -48.604729 -0.33669788
139.43083 -48.604469 -0.32195044
139.48123 -48.603889 -0.32796872
139.53142 -48.603371 -0.32999378
139.58109 -48.602997 -0.32243443
139.63135 -48.602455 -0.32605666
139.68088 -48.602119 -0.31610131
139.7308 -48.601677 -0.31333417
139.78085 -48.601196 -0.31296313
139.83099 -48.600685 -0.31418931
139.88101 -48.60022 -0.31301945
139.92978 -48.600098 -0.28948659
139.96649 -48.60334 -0.047913313
139.99443 -48.609047 0.35259795
140.03998 -48.609825 0.43443477
140.08989 -48.609383 0.43720186
140.13968 -48.608971 0.44236529
140.1907 -48.608223 0.4251653
140.24345 -48.606987 0.37681675
140.29648 -48.605675 0.32367623
140.34926 -48.604431 0.27452892
140.40143 -48.603355 0.23656321
140.45476 -48.601952 0.17783189
140.50728 -48.600784 0.13347679
140.56175 -48.599068 0.053979516
140.61424 -48.5979 0.010423183
140.6676 -48.596497 -0.049106836
140.72168 -48.594894 -0.12141603
140.77553 -48.593346 -0.18973148
140.83009 -48.591606 -0.27082604
140.88451 -48.589905 -0.3495245
140.93987 -48.587929 -0.44499531
140.99438 -48.586205 -0.5252912
132.97517 -48.839767 -2.1721866
133.02399 -48.83963 -2.1494522
133.07082 -48.840042 -2.0907774
133.11897 -48.840096 -2.0560629
133.16827 -48.839828 -2.0421143
133.21797 -48.839439 -2.0353537
133.26755 -48.839096 -2.026197
133.31689 -48.838814 -2.0130467
133.36664 -48.838409 -2.0070848
133.41664 -48.837944 -2.0059152
133.46661 -48.837486 -2.0039468
133.51654 -48.837036 -2.0011795
133.56694 -48.836464 -2.0071979
133.61736 -48.835884 -2.013216
133.66789 -48.835258 -2.0216305
133.71948 -48.834351 -2.0492134
133.76981 -48.833794 -2.0536342
133.82088 -48.833023 -2.0716329
133.87186 -48.832283 -2.0880342
133.92253 -48.831635 -2.0988445
133.97285 -48.83107 -2.1032655
134.02232 -48.83075 -2.0925117
134.06563 -48.832161 -1.9699419
134.13228 -48.827042 -2.2698755
134.18358 -48.826202 -2.2918673
134.22073 -48.82933 -2.0582809
134.2684 -48.829521 -2.014781
134.31758 -48.829277 -1.9984362
134.36656 -48.829094 -1.9788966
134.41521 -48.82901 -1.9529678
134.46451 -48.828735 -1.939019
134.51465 -48.828232 -1.9402453
134.56476 -48.827736 -1.9406728
134.61432 -48.827385 -1.9315161
134.66429 -48.826935 -1.9295477
134.71452 -48.826401 -1.9323713
134.76404 -48.826065 -1.9224159
134.81396 -48.825623 -1.9196488
134.8653 -48.824783 -1.9424394
134.91814 -48.823517 -1.9923853
135.00087 -48.813896 -2.5830393
135.04977 -48.813744 -2.5619025
135.09943 -48.813362 -2.5543432
135.14935 -48.81292 -2.5515761
135.19958 -48.812393 -2.5543995
135.2495 -48.811951 -2.5516324
135.29942 -48.811501 -2.5488653
135.34908 -48.811134 -2.541306
135.39914 -48.810654 -2.540935
135.44884 -48.810265 -2.5341744
135.49907 -48.809738 -2.536998
135.54886 -48.809326 -2.5318346
135.59895 -48.80883 -2.5322623
135.64891 -48.808372 -2.5302939
135.69839 -48.80806 -2.5195398
135.74854 -48.807541 -2.520766
135.799 -48.806953 -2.5275831
135.84839 -48.806656 -2.5152316
135.89835 -48.806198 -2.5132632
135.94858 -48.805672 -2.5160868
135.9985 -48.805229 -2.5133195
136.04785 -48.804939 -2.5001698
136.09821 -48.804367 -2.5053892
136.14853 -48.803818 -2.5098102
136.19827 -48.803413 -2.5038486
136.24841 -48.80291 -2.5050745
136.29816 -48.802521 -2.4991126
136.34781 -48.802139 -2.4915533
136.39774 -48.801697 -2.4887862
136.44788 -48.801193 -2.4900126
136.49771 -48.800781 -2.4856479
136.54773 -48.800301 -2.484478
136.59738 -48.799934 -2.4769187
136.64748 -48.799446 -2.4773464
136.69757 -48.798943 -2.4777741
136.74741 -48.798523 -2.4734094
136.79701 -48.798172 -2.4650514
136.84717 -48.797661 -2.4662776
136.89726 -48.797165 -2.4667053
136.94682 -48.796822 -2.4575486
136.99701 -48.796295 -2.4595735
137.04668 -48.795929 -2.452014
137.09673 -48.795448 -2.451643
137.14665 -48.794998 -2.4488759
137.19684 -48.794479 -2.4509008
137.24644 -48.794128 -2.4425428
137.29654 -48.793625 -2.4429705
137.34621 -48.793259 -2.435411
137.39621 -48.792793 -2.4342413
137.44653 -48.792229 -2.4386625
137.49623 -48.791847 -2.4319019
137.54619 -48.791397 -2.4299333
137.59576 -48.791046 -2.4207766
137.64586 -48.79055 -2.4212041
137.6956 -48.790161 -2.4152422
137.74562 -48.789688 -2.4140725
137.79576 -48.789177 -2.4152987
137.84563 -48.78875 -2.4117327
137.89542 -48.788345 -2.4065695
137.94565 -48.787804 -2.4093933
137.99532 -48.787437 -2.401834
138.04523 -48.786995 -2.3990669
138.09497 -48.786598 -2.393105
138.14499 -48.786125 -2.3919349
138.19495 -48.785675 -2.3899665
138.24506 -48.785172 -2.3903942
138.2951 -48.784691 -2.3900228
138.34485 -48.784302 -2.3840611
138.39459 -48.783897 -2.378099
138.44429 -48.783516 -2.3713384
138.49448 -48.783005 -2.3733635
138.54445 -48.782539 -2.3713951
138.59436 -48.782097 -2.3686278
138.64424 -48.78167 -2.3650618
138.69443 -48.781143 -2.3670869
138.74408 -48.780777 -2.3595276
138.79419 -48.780281 -2.3599553
138.74457 -48.807671 -0.55695683
138.79233 -48.807838 -0.51505423
138.83871 -48.80838 -0.44839245
138.88603 -48.80867 -0.39850295
138.93422 -48.808701 -0.36458713
138.9838 -48.808357 -0.35543054
139.03433 -48.807739 -0.36384493
139.08368 -48.807449 -0.35069484
139.13356 -48.807022 -0.34712899
139.18393 -48.806458 -0.35234869
139.23358 -48.806076 -0.34478933
139.28345 -48.805649 -0.34122348
139.33307 -48.80529 -0.33286554
139.38356 -48.80468 -0.34048122
139.43295 -48.80439 -0.32812995
139.48314 -48.803871 -0.33015478
139.53323 -48.803368 -0.33058232
139.58281 -48.803024 -0.32142568
139.63281 -48.802559 -0.32025588
139.683 -48.802032 -0.32228082
139.73293 -48.80159 -0.31951362
139.78297 -48.801117 -0.31914258
139.83276 -48.800697 -0.31397927
139.88013 -48.800972 -0.26488858
139.89931 -48.809128 0.29376197
139.94261 -48.810532 0.41633165
139.9921 -48.810211 0.42708552
140.04187 -48.809807 0.43224871
140.0925 -48.809166 0.42223704
140.14464 -48.808098 0.38507009
140.19672 -48.807053 0.34870172
140.24965 -48.805771 0.29715848
140.30222 -48.804581 0.25200474
140.35501 -48.803329 0.20285749
140.4082 -48.801979 0.14652228
140.46178 -48.800499 0.082998633
140.5148 -48.799194 0.029857993
140.56834 -48.797737 -0.032866836
140.62126 -48.796448 -0.084409952
140.67587 -48.794693 -0.16630322
140.72977 -48.793144 -0.23541754
140.78401 -48.791481 -0.31092128
140.83888 -48.789658 -0.39760661
132.97354 -49.040741 -2.1104782
133.02196 -49.040718 -2.0805559
133.07051 -49.040649 -2.0530295
133.12021 -49.040268 -2.0462689
133.17053 -49.039711 -2.0506897
133.22063 -49.039215 -2.0511174
133.26997 -49.038933 -2.0379672
133.32025 -49.038391 -2.0415897
133.3688 -49.038322 -2.0140634
133.41843 -49.037971 -2.0057054
133.4678 -49.037674 -1.993354
133.51773 -49.037224 -1.9905868
133.56805 -49.036667 -1.9950078
133.61819 -49.036163 -1.9962341
133.6675 -49.035889 -1.9822853
133.71738 -49.035461 -1.9787194
133.76765 -49.03492 -1.9823416
133.81831 -49.034256 -1.9931521
133.86847 -49.033752 -1.9943783
133.91856 -49.033264 -1.9948059
133.96751 -49.033081 -1.9744678
134.01782 -49.032532 -1.9788886
134.0674 -49.032188 -1.969732
134.11763 -49.031654 -1.9725556
134.16689 -49.031395 -1.9578081
134.21663 -49.030998 -1.9518464
134.26677 -49.030495 -1.9530725
134.31735 -49.029861 -1.9622856
134.36674 -49.029564 -1.9499342
134.41649 -49.029175 -1.9439723
134.46642 -49.028725 -1.9412051
134.51642 -49.028252 -1.9400353
134.56618 -49.027863 -1.9340734
134.61623 -49.027374 -1.9337023
134.66611 -49.026947 -1.9301364
134.71597 -49.026512 -1.9265707
134.76643 -49.025917 -1.9333876
134.8159 -49.025597 -1.9226336
134.86702 -49.024818 -1.9414309
134.91916 -49.02375 -1.9785979
134.97115 -49.022728 -2.0133686
135.05247 -49.013504 -2.578465
135.1015 -49.013298 -2.5597243
135.15134 -49.012886 -2.5553596
135.20113 -49.012482 -2.5501966
135.25136 -49.011948 -2.55302
135.3011 -49.011551 -2.5470581
135.35129 -49.011032 -2.549083
135.40068 -49.010735 -2.5367317
135.45052 -49.010315 -2.5323672
135.50066 -49.009811 -2.5335934
135.55084 -49.009293 -2.5356183
135.60068 -49.008865 -2.5312538
135.65065 -49.008408 -2.5292854
135.70047 -49.007996 -2.5249207
135.7507 -49.007454 -2.5277443
135.80058 -49.007027 -2.5241785
135.85037 -49.006622 -2.5190153
135.90074 -49.00605 -2.524235
135.9503 -49.005707 -2.5150783
136 -49.005325 -2.5083175
136.05028 -49.004776 -2.51194
136.1003 -49.004311 -2.5107703
136.15004 -49.003914 -2.5048082
136.20018 -49.003403 -2.5060344
136.25014 -49.002945 -2.504066
136.30011 -49.002495 -2.5020976
136.3495 -49.00219 -2.4897461
136.39999 -49.001587 -2.4973621
136.44974 -49.001198 -2.4913998
136.49953 -49.000786 -2.4862366
136.54967 -49.000275 -2.487463
136.59946 -48.99987 -2.4822998
136.64925 -48.999466 -2.4771366
136.69952 -48.998917 -2.4807589
136.74908 -48.998573 -2.471602
136.79922 -48.99807 -2.4728284
136.84915 -48.99762 -2.4700613
136.89903 -48.997192 -2.4664955
136.94873 -48.996811 -2.4597349
136.99896 -48.996269 -2.4625583
137.04861 -48.995903 -2.454999
137.0985 -48.995476 -2.4514332
137.1489 -48.994888 -2.4574516
137.19821 -48.994614 -2.4435029
137.24835 -48.99411 -2.4447289
137.29836 -48.993637 -2.4435592
137.3481 -48.993248 -2.4375973
137.39803 -48.992805 -2.4348302
137.44786 -48.992378 -2.4304657
137.49765 -48.991974 -2.4253025
137.54796 -48.991417 -2.4297233
137.59807 -48.990921 -2.430151
137.64781 -48.990524 -2.4241891
137.69772 -48.990082 -2.421422
137.7476 -48.989655 -2.417856
137.7977 -48.989151 -2.4182835
137.84709 -48.988861 -2.4059319
137.89711 -48.988388 -2.4047623
137.94725 -48.987877 -2.4059887
137.99725 -48.987411 -2.4048188
138.04688 -48.987053 -2.396461
138.09706 -48.986534 -2.3984857
138.14671 -48.98616 -2.3909264
138.19664 -48.985718 -2.3881593
138.24704 -48.985138 -2.3941777
138.29674 -48.984756 -2.3874168
138.34662 -48.984322 -2.3838511
138.39685 -48.983788 -2.3866749
138.44629 -48.983482 -2.3751221
138.49615 -48.983047 -2.3715563
138.54622 -48.982567 -2.3711853
138.59627 -48.982086 -2.3708138
138.64636 -48.98159 -2.3712416
138.69603 -48.981216 -2.3636823
138.74599 -48.980759 -2.3617139
138.69443 -49.008705 -0.52357346
138.74135 -49.009094 -0.46649581
138.78941 -49.009171 -0.43018401
138.83611 -49.009628 -0.36911297
138.88638 -49.009087 -0.37273526
138.93661 -49.008553 -0.37555885
138.98582 -49.008308 -0.36001277
139.03575 -49.007866 -0.35724562
139.08589 -49.007347 -0.35847181
139.13542 -49.007019 -0.34851646
139.18573 -49.006462 -0.35293746
139.2354 -49.006088 -0.34537816
139.28523 -49.005669 -0.34101367
139.33524 -49.005203 -0.33984381
139.38484 -49.004845 -0.33148581
139.43495 -49.004349 -0.33191347
139.485 -49.003868 -0.33154231
139.53497 -49.00341 -0.32957381
139.58493 -49.002953 -0.32760525
139.63477 -49.002533 -0.32324076
139.68512 -49.001961 -0.32846045
139.7354 -49.001419 -0.33208275
139.78192 -49.00193 -0.26781696
139.80208 -49.009804 0.27326244
139.84555 -49.011162 0.39263737
139.89384 -49.011177 0.42495584
139.94368 -49.01075 0.42932034
139.99399 -49.010201 0.42489922
140.04501 -49.009445 0.40769935
140.09811 -49.008118 0.35296142
140.15065 -49.006935 0.30860639
140.20348 -49.005676 0.25866044
140.25587 -49.004547 0.21670139
140.30893 -49.00322 0.16276205
140.36247 -49.001762 0.10003722
140.41557 -49.000435 0.045299292
140.46867 -48.999092 -0.0094387531
140.52217 -48.99765 -0.07136488
140.57616 -48.996071 -0.14207649
140.62984 -48.994568 -0.20719731
140.68422 -48.992882 -0.28509712
140.73874 -48.99115 -0.36539298
132.97289 -49.241432 -2.0663404
133.02293 -49.240952 -2.0659695
133.07246 -49.240616 -2.0560141
133.12256 -49.24012 -2.0564418
133.17218 -49.239769 -2.0480838
133.22249 -49.239204 -2.0525045
133.27232 -49.238785 -2.04814
133.32234 -49.238319 -2.0469704
133.37216 -49.237892 -2.0426059
133.4205 -49.2379 -2.011086
133.47025 -49.237503 -2.0051241
133.51994 -49.237114 -1.9983636
133.56982 -49.236687 -1.9947978
133.61975 -49.236244 -1.9920305
133.67006 -49.23568 -1.9964515
133.71945 -49.23539 -1.9841001
133.76978 -49.234833 -1.9885211
133.81912 -49.234543 -1.975371
133.869 -49.234116 -1.9718052
133.9191 -49.23362 -1.9722327
133.96924 -49.233109 -1.9734589
134.01907 -49.232697 -1.9690944
134.06891 -49.232277 -1.9647299
134.11891 -49.231812 -1.9635601
134.16879 -49.231369 -1.9599942
134.21889 -49.230881 -1.9604218
134.26912 -49.230347 -1.9632454
134.31891 -49.229935 -1.9580822
134.36844 -49.229607 -1.9481268
134.41853 -49.229111 -1.9485544
134.46863 -49.228615 -1.948982
134.51842 -49.22821 -1.9438187
134.56798 -49.227867 -1.9346621
134.618 -49.227386 -1.9334923
134.66818 -49.226875 -1.9355172
134.71779 -49.226517 -1.9271593
134.76816 -49.225945 -1.9323789
134.81799 -49.225525 -1.9280144
134.86778 -49.225121 -1.9228512
134.91832 -49.224495 -1.9312656
134.97128 -49.223206 -1.9836074
135.02275 -49.222328 -2.0087943
135.10448 -49.212982 -2.5810785
135.15329 -49.212852 -2.5583444
135.20325 -49.212395 -2.556376
135.25317 -49.211952 -2.5536087
135.30319 -49.211479 -2.5524387
135.35289 -49.211098 -2.5456781
135.4025 -49.210739 -2.5373204
135.45255 -49.210251 -2.5369492
135.50278 -49.209724 -2.539773
135.55266 -49.209297 -2.536207
135.60245 -49.208885 -2.5310438
135.65282 -49.208313 -2.5362635
135.70238 -49.20797 -2.5271068
135.75221 -49.20755 -2.5227423
135.80244 -49.207016 -2.5255659
135.85228 -49.206596 -2.5212011
135.90198 -49.206215 -2.5144405
135.95193 -49.205757 -2.5124722
136.00177 -49.205338 -2.5081077
136.05188 -49.204842 -2.5085351
136.10193 -49.204361 -2.5081639
136.15211 -49.203842 -2.5101891
136.20186 -49.203445 -2.5042272
136.2516 -49.203049 -2.4982653
136.30197 -49.202484 -2.5034847
136.35162 -49.20211 -2.4959254
136.40146 -49.201691 -2.4915609
136.45164 -49.201172 -2.4935861
136.50156 -49.200729 -2.4908187
136.55144 -49.200294 -2.4872527
136.60176 -49.199738 -2.4916739
136.65169 -49.199295 -2.4889069
136.70155 -49.19886 -2.4853408
136.75104 -49.19854 -2.474587
136.80122 -49.198021 -2.4766119
136.85141 -49.197502 -2.4786367
136.90129 -49.197067 -2.475071
136.95103 -49.196678 -2.4691091
137.00069 -49.196297 -2.4615498
137.05092 -49.19577 -2.4643734
137.1008 -49.195343 -2.4608073
137.15063 -49.194916 -2.4564428
137.20055 -49.194473 -2.4536757
137.25012 -49.19413 -2.444519
137.29996 -49.193703 -2.4401546
137.35005 -49.193214 -2.4405823
137.4001 -49.192734 -2.4402108
137.44998 -49.192291 -2.436645
137.50012 -49.191788 -2.4378715
137.54982 -49.191406 -2.4311109
137.59991 -49.19091 -2.4315381
137.64944 -49.190575 -2.4215829
137.69958 -49.190071 -2.4228091
137.74942 -49.189659 -2.4184446
137.79956 -49.189148 -2.4196711
137.84935 -49.188736 -2.4145076
137.89914 -49.188332 -2.4093444
137.94937 -49.187798 -2.412168
137.99895 -49.187454 -2.4030113
138.04935 -49.186874 -2.40903
138.099 -49.186501 -2.4014704
138.14897 -49.186043 -2.3995018
138.19897 -49.185577 -2.3983321
138.24855 -49.185226 -2.3891754
138.2989 -49.184662 -2.3943954
138.34857 -49.184288 -2.3868358
138.39848 -49.183838 -2.3840685
138.44867 -49.183327 -2.3860936
138.49855 -49.182892 -2.3825278
138.54843 -49.182457 -2.378962
138.59834 -49.182014 -2.376195
138.55447 -49.207809 -0.67702526
138.59564 -49.209801 -0.51611882
138.64314 -49.210037 -0.46942413
138.69063 -49.210274 -0.42272937
138.73866 -49.210358 -0.38561887
138.78787 -49.210114 -0.37007278
138.83832 -49.209518 -0.37688977
138.88803 -49.209137 -0.37012911
138.93822 -49.208618 -0.37215418
138.98801 -49.208206 -0.36699086
139.03778 -49.207802 -0.36182761
139.08775 -49.207344 -0.35985917
139.13759 -49.206924 -0.35549456
139.18738 -49.20652 -0.35033143
139.23726 -49.206078 -0.34676552
139.28722 -49.205627 -0.34479707
139.33705 -49.205208 -0.34043247
139.38675 -49.204819 -0.33367193
139.43716 -49.204239 -0.33969021
139.48695 -49.203835 -0.33452696
139.53691 -49.203377 -0.33255857
139.58701 -49.202881 -0.33298612
139.63759 -49.202255 -0.34219909
139.68323 -49.203003 -0.26195967
139.70383 -49.210762 0.27113277
139.74858 -49.211761 0.36734593
139.79594 -49.212029 0.41643679
139.84604 -49.21154 0.41600919
139.89601 -49.211082 0.41797769
139.94699 -49.210335 0.4015764
140.00014 -49.208992 0.34603977
140.05231 -49.207916 0.30807412
140.1044 -49.206871 0.27170593
140.15767 -49.205482 0.21377307
140.21011 -49.204338 0.17101538
140.26343 -49.202942 0.11228395
140.31671 -49.201553 0.05435127
140.36995 -49.200188 -0.0027827621
140.42326 -49.198792 -0.061514258
140.47685 -49.197319 -0.12503767
140.53119 -49.195641 -0.20213884
140.58478 -49.194168 -0.26566231
140.6393 -49.192436 -0.34595811
140.69398 -49.190659 -0.42944872
140.74969 -49.188599 -0.53130901
140.80322 -49.187134 -0.59403384
132.93384 -49.439354 -2.2334266
132.97456 -49.441483 -2.0645332
133.02467 -49.440987 -2.064961
133.07445 -49.440575 -2.0597978
133.12463 -49.440063 -2.0618224
133.17442 -49.439651 -2.0566592
133.22435 -49.439201 -2.0538921
133.27432 -49.438751 -2.0519238
133.32397 -49.438385 -2.0443645
133.37253 -49.438316 -2.0168381
133.42209 -49.437973 -2.0076814
133.47197 -49.437538 -2.0041156
133.52162 -49.437164 -1.9965563
133.57181 -49.436646 -1.9985813
133.62148 -49.436279 -1.991022
133.67143 -49.435814 -1.9890534
133.72127 -49.435402 -1.9846889
133.77129 -49.434929 -1.9835192
133.82115 -49.434494 -1.9799533
133.87122 -49.434013 -1.9795821
133.92117 -49.433563 -1.9776136
133.97127 -49.43306 -1.9780413
134.02084 -49.432716 -1.9688846
134.07077 -49.432274 -1.9661174
134.12073 -49.431816 -1.9641489
134.17101 -49.431267 -1.9677712
134.22057 -49.430923 -1.9586145
134.27049 -49.430481 -1.9558474
134.32042 -49.430031 -1.9530802
134.37077 -49.429466 -1.9582998
134.42039 -49.429115 -1.9499419
134.47031 -49.428665 -1.9471747
134.52037 -49.428185 -1.9468036
134.57028 -49.427742 -1.9440364
134.62035 -49.427254 -1.9436653
134.67049 -49.42675 -1.9448915
134.71996 -49.42643 -1.9341375
134.76993 -49.425964 -1.932169
134.81989 -49.425514 -1.9302005
134.86981 -49.425072 -1.9274334
134.91946 -49.42469 -1.9198741
134.96925 -49.424286 -1.9147109
135.01944 -49.423775 -1.9167358
135.07198 -49.422592 -1.9610909
135.123 -49.421844 -1.9782907
135.20639 -49.412033 -2.580925
135.25455 -49.412086 -2.5462108
135.30482 -49.411537 -2.5498331
135.35492 -49.411049 -2.5502605
135.4048 -49.410614 -2.5466948
135.45454 -49.410217 -2.5407329
135.50487 -49.40966 -2.5451536
135.55461 -49.409271 -2.5391917
135.60466 -49.408783 -2.5388207
135.6545 -49.408363 -2.5344563
135.70445 -49.407906 -2.5324876
135.75417 -49.407524 -2.525727
135.80408 -49.407082 -2.5229597
135.85396 -49.406647 -2.5193939
135.90401 -49.406158 -2.5190229
135.95375 -49.405769 -2.513061
136.00363 -49.405334 -2.5094953
136.05373 -49.404839 -2.5099225
136.10388 -49.404335 -2.5111489
136.15335 -49.404015 -2.5003948
136.20323 -49.40358 -2.496829
136.25363 -49.403 -2.5028472
136.3036 -49.402542 -2.5008788
136.35321 -49.402184 -2.4925208
136.4034 -49.401665 -2.4945459
136.45328 -49.40123 -2.4909801
136.50316 -49.400803 -2.4874141
136.55334 -49.400276 -2.489439
136.60287 -49.399948 -2.4794836
136.65274 -49.399521 -2.4759178
136.70311 -49.398941 -2.4811375
136.7529 -49.398537 -2.4759743
136.80299 -49.398048 -2.4764018
136.85278 -49.397636 -2.4712386
136.90288 -49.397141 -2.4716663
136.95294 -49.39666 -2.4712951
137.00255 -49.396301 -2.4629371
137.05243 -49.395866 -2.4593711
137.10217 -49.395477 -2.4534092
137.15236 -49.394951 -2.4554343
137.20224 -49.394524 -2.4518685
137.25224 -49.394051 -2.4506984
137.30225 -49.393578 -2.4495287
137.35222 -49.393127 -2.4475603
137.40219 -49.39267 -2.4455919
137.45206 -49.392235 -2.4420261
137.50203 -49.391777 -2.4400573
137.55168 -49.391411 -2.4324982
137.6017 -49.39093 -2.4313283
137.65157 -49.390503 -2.4277625
137.70145 -49.390076 -2.4241967
137.7515 -49.389595 -2.4238255
137.80147 -49.38913 -2.4218569
137.85121 -49.388741 -2.415895
137.90121 -49.388268 -2.4147253
137.95114 -49.387817 -2.4119582
138.00093 -49.387413 -2.406795
138.05098 -49.386932 -2.4064236
138.10081 -49.386513 -2.4020591
138.15065 -49.386093 -2.3976946
138.20093 -49.385551 -2.4013171
138.25063 -49.385162 -2.3945563
138.30063 -49.384697 -2.3933864
138.35039 -49.3843 -2.3874247
138.40048 -49.383804 -2.3878522
138.45036 -49.383369 -2.3842864
138.50041 -49.382896 -2.3839154
138.45004 -49.410492 -0.56733936
138.49718 -49.410828 -0.51425511
138.54428 -49.411179 -0.46037227
138.59111 -49.411591 -0.40169734
138.64046 -49.411308 -0.3885473
138.69037 -49.410866 -0.3857801
138.74043 -49.410378 -0.38540894
138.7899 -49.410057 -0.37465495
138.84001 -49.409569 -0.37508249
138.8898 -49.409164 -0.3699193
138.9398 -49.408691 -0.36874944
138.98978 -49.408234 -0.36678094
139.03983 -49.407753 -0.3664099
139.08957 -49.407356 -0.36044794
139.13927 -49.406975 -0.35368735
139.18941 -49.406471 -0.35491359
139.23915 -49.406067 -0.34895164
139.28903 -49.40564 -0.34538585
139.33952 -49.405037 -0.35300153
139.38924 -49.404648 -0.34624088
139.43875 -49.404312 -0.33628565
139.48898 -49.403786 -0.33910918
139.53957 -49.403152 -0.34832227
139.58719 -49.403351 -0.30402356
139.62373 -49.406647 -0.05925554
139.65347 -49.411842 0.30850971
139.69809 -49.412888 0.40711892
139.7482 -49.412392 0.40669119
139.79825 -49.411903 0.40706241
139.84892 -49.411255 0.39625192
139.90131 -49.410118 0.35429299
139.95375 -49.408966 0.31153524
140.00615 -49.407829 0.26957613
140.0592 -49.406509 0.21563685
140.11177 -49.405327 0.17048299
140.16487 -49.403984 0.11574507
140.21788 -49.402679 0.062604427
140.27068 -49.401436 0.013457179
140.32422 -49.399971 -0.04926765
140.37811 -49.398415 -0.11838186
140.43201 -49.396866 -0.18749607
140.4852 -49.3955 -0.24383157
140.53989 -49.393723 -0.32732213
140.59529 -49.391747 -0.42359155
140.64928 -49.39016 -0.49430317
140.70419 -49.388321 -0.58178717
132.17734 -49.648682 -2.103806
132.22739 -49.648201 -2.103435
132.27734 -49.647743 -2.1014667
132.3278 -49.647148 -2.1082835
132.37781 -49.646683 -2.1071138
132.42729 -49.646355 -2.0963597
132.47766 -49.64579 -2.1015792
132.52682 -49.645554 -2.0852346
132.57759 -49.644875 -2.0976424
132.62808 -49.644272 -2.105258
132.68039 -49.643158 -2.1456199
132.72934 -49.642982 -2.1252813
132.77917 -49.642563 -2.1209168
132.82803 -49.642418 -2.0989814
132.87773 -49.642036 -2.0922208
132.92787 -49.641525 -2.0934472
132.97687 -49.641342 -2.0739076
133.02644 -49.640999 -2.0647509
133.07614 -49.64061 -2.0579903
133.12614 -49.640144 -2.0568204
133.17603 -49.639709 -2.0532546
133.22537 -49.63942 -2.0401046
133.27451 -49.639206 -2.0229611
133.32372 -49.638954 -2.0074151
133.3739 -49.638435 -2.0094399
133.42346 -49.638092 -2.0002832
133.47374 -49.63755 -2.0039058
133.52402 -49.637001 -2.0075278
133.57355 -49.636665 -1.9975725
133.62386 -49.636116 -2.0019937
133.67383 -49.635651 -2.000025
133.72343 -49.6353 -1.9916672
133.77341 -49.634842 -1.9896986
133.82355 -49.634331 -1.9909248
133.87276 -49.634087 -1.9753788
133.92325 -49.633484 -1.9829944
133.97292 -49.633102 -1.9754351
134.02283 -49.63266 -1.9726681
134.07306 -49.632133 -1.9754916
134.12285 -49.631729 -1.9703285
134.17264 -49.631317 -1.9651651
134.22273 -49.630821 -1.9655927
134.27257 -49.630409 -1.9612281
134.3231 -49.629784 -1.9696425
134.37247 -49.629501 -1.9564925
134.42216 -49.62912 -1.9497319
134.4727 -49.628494 -1.9581462
134.52222 -49.628166 -1.948191
134.57193 -49.627785 -1.9414303
134.62256 -49.627136 -1.9514421
134.67198 -49.626831 -1.9398894
134.722 -49.626366 -1.9387196
134.77205 -49.625877 -1.9383485
134.82202 -49.62542 -1.93638
134.87225 -49.624893 -1.9392036
134.92216 -49.624443 -1.9364364
134.97121 -49.624245 -1.9176956
135.02135 -49.623741 -1.9189218
135.07153 -49.623215 -1.9209467
135.12111 -49.622871 -1.91179
135.17116 -49.622398 -1.911419
135.22108 -49.621956 -1.9086518
135.27122 -49.621437 -1.909878
135.32088 -49.621071 -1.9023187
135.40825 -49.610153 -2.5768347
135.4572 -49.609978 -2.5564966
135.50645 -49.609718 -2.541749
135.55655 -49.60923 -2.5421765
135.60652 -49.608765 -2.5402079
135.65652 -49.608299 -2.5390382
135.70641 -49.607864 -2.5354724
135.75655 -49.607353 -2.5366986
135.80598 -49.607048 -2.525146
135.85596 -49.606598 -2.5231776
135.90605 -49.606094 -2.5236049
135.95605 -49.605629 -2.5224352
136.00575 -49.605247 -2.5156746
136.05554 -49.604836 -2.5105114
136.10551 -49.604378 -2.508543
136.15584 -49.603828 -2.5129638
136.20566 -49.603401 -2.5085993
136.25549 -49.602982 -2.5042348
136.30568 -49.602463 -2.5062597
136.35521 -49.602127 -2.4963043
136.40514 -49.601685 -2.4935369
136.45496 -49.601265 -2.4891729
136.50493 -49.600815 -2.4872041
136.55498 -49.600327 -2.4868331
136.60446 -49.600006 -2.476079
136.65469 -49.59948 -2.4789028
136.70479 -49.598976 -2.4793301
136.75462 -49.598557 -2.4749656
136.80467 -49.598076 -2.4745946
136.85439 -49.597694 -2.467834
136.90453 -49.597183 -2.4690602
136.95432 -49.596779 -2.4638968
137.00427 -49.596321 -2.4619284
137.05432 -49.59584 -2.4615574
137.10434 -49.595375 -2.4603877
137.15413 -49.594955 -2.4552243
137.20401 -49.594528 -2.4516582
137.25385 -49.594109 -2.4472938
137.30424 -49.593529 -2.4533124
137.3539 -49.593155 -2.4457531
137.40369 -49.592751 -2.4405897
137.45401 -49.592194 -2.4450107
137.50389 -49.591759 -2.4414449
137.55345 -49.591415 -2.4322882
137.60347 -49.590942 -2.4311185
137.65361 -49.590439 -2.4323444
137.70335 -49.590042 -2.4263828
137.75327 -49.5896 -2.4236155
137.80338 -49.589104 -2.4240432
137.85329 -49.588661 -2.4212759
137.90273 -49.588356 -2.4097233
137.95277 -49.587868 -2.4093521
138.00261 -49.587448 -2.4049873
138.05272 -49.586952 -2.4054151
138.10242 -49.586571 -2.3986545
138.15233 -49.586128 -2.3958874
138.20244 -49.585632 -2.3963149
138.25267 -49.585098 -2.3991385
138.30263 -49.584641 -2.3971701
138.3522 -49.584297 -2.3880134
138.30249 -49.61171 -0.58341777
138.35074 -49.61174 -0.55030054
138.39836 -49.611938 -0.50600195
138.44519 -49.61235 -0.44732696
138.49237 -49.612679 -0.39504147
138.54269 -49.612122 -0.3994624
138.59253 -49.611694 -0.39509785
138.64214 -49.611343 -0.38673997
138.69197 -49.610924 -0.38237536
138.74207 -49.610428 -0.3828029
138.79199 -49.609985 -0.38003576
138.84169 -49.609604 -0.37327522
138.89188 -49.609085 -0.37530005
138.94188 -49.608612 -0.37413025
138.99159 -49.608231 -0.36736971
139.04169 -49.607735 -0.36779726
139.09164 -49.607277 -0.36582875
139.14175 -49.606781 -0.3662563
