# .PCD v0.7 - Point Cloud Data file format
VERSION 0.7
FIELDS x y z
SIZE 4 4 4
TYPE F F F
COUNT 1 1 1
WIDTH 1581
HEIGHT 1
VIEWPOINT 0 0 0 1 0 0 0
POINTS 1581
DATA ascii
134.88048 -35.039646 0.87440002
134.9301 -35.045719 0.92479998
134.97974 -35.051785 0.94880003
135.02936 -35.057858 0.94959998
135.07899 -35.063931 0.95200002
135.12862 -35.070004 0.95039999
135.17825 -35.076069 0.94639999
135.22787 -35.082142 0.94319999
135.27751 -35.088215 0.95039999
135.32715 -35.094288 0.94880003
135.37677 -35.100361 0.94880003
135.42641 -35.106426 0.95279998
135.47603 -35.112499 0.95920002
135.52567 -35.118572 0.94639999
135.57529 -35.124645 0.94880003
135.62492 -35.130718 0.94959998
135.67455 -35.136784 0.94480002
135.72418 -35.142857 0.9472
135.77382 -35.14893 0.9576
135.82344 -35.155003 0.94880003
135.87308 -35.161068 0.94880003
135.9227 -35.167141 0.93760002
135.97234 -35.173214 1.5344
136.02196 -35.179287 1.6608
136.07159 -35.18536 1.6768
136.12122 -35.191425 1.676
136.17085 -35.197498 1.6696
136.22049 -35.203571 1.6136
136.27011 -35.209644 1.5632
136.31975 -35.21571 1.5144
136.36937 -35.221783 1.4608001
136.41901 -35.227856 1.3896
136.46863 -35.233929 1.332
136.51826 -35.240002 1.2648
136.56789 -35.246067 1.1984
136.61752 -35.25214 1.1368001
136.66714 -35.258213 1.0528001
136.71678 -35.264286 0.97039998
136.76642 -35.270359 0.88480002
136.81604 -35.276424 0.80000001
136.86568 -35.282497 0.6832
136.9153 -35.28857 0.59680003
136.96494 -35.294643 0.4912
137.01456 -35.300709 0.32800001
137.06419 -35.306782 0.17919999
137.11383 -35.312855 0.0016
134.26062 -35.165302 -0.65600002
134.31026 -35.171375 -0.64960003
134.35989 -35.177448 -0.66000003
134.40952 -35.183521 -0.67199999
134.45915 -35.189587 -0.66240001
134.50877 -35.19566 -0.66720003
134.55841 -35.201733 -0.6688
134.60803 -35.207806 -0.67040002
134.65767 -35.213879 -0.66799998
134.70729 -35.219944 -0.66799998
134.75693 -35.226017 -0.66479999
134.80655 -35.23209 -0.66960001
134.85619 -35.238163 0.85680002
134.90582 -35.244236 0.92799997
134.95544 -35.250301 0.95039999
135.00508 -35.256374 0.9472
135.0547 -35.262447 0.94800001
135.10434 -35.26852 0.94239998
135.15396 -35.274586 0.94880003
135.2036 -35.280659 0.94639999
135.25323 -35.286732 0.94480002
135.30286 -35.292805 0.95120001
135.35249 -35.298878 0.94959998
135.40211 -35.304943 0.9472
135.45175 -35.311016 0.96079999
135.50137 -35.317089 0.95039999
135.55101 -35.323162 0.95200002
135.60063 -35.329235 0.94800001
135.65027 -35.3353 0.94639999
135.69989 -35.341373 0.94400001
135.74953 -35.347446 0.94480002
135.79916 -35.353519 0.94800001
135.84879 -35.359585 0.95359999
135.89842 -35.365658 0.93440002
135.94804 -35.371731 1.5319999
135.99768 -35.377804 1.6688
136.0473 -35.383877 1.6824
136.09694 -35.389942 1.6784
136.14658 -35.396015 1.6688
136.1962 -35.402088 1.6072
136.24583 -35.408161 1.576
136.29546 -35.414227 1.528
136.34509 -35.4203 1.4552
136.39471 -35.426373 1.392
136.44435 -35.432446 1.3256
136.49397 -35.438519 1.2656
136.54361 -35.444584 1.2007999
136.59323 -35.450657 1.1272
136.64287 -35.45673 1.0448
136.6925 -35.462803 0.97359997
136.74213 -35.468876 0.88319999
136.79176 -35.474941 0.79280001
136.84138 -35.481014 0.69919997
136.89102 -35.487087 0.57999998
136.94064 -35.49316 0.45039999
136.99028 -35.499226 0.32080001
137.0399 -35.505299 0.1832
134.28598 -35.369892 -0.74720001
134.3356 -35.375965 -0.68080002
134.38522 -35.382038 -0.6688
134.43486 -35.388103 -0.66720003
134.4845 -35.394176 -0.66960001
134.53412 -35.400249 -0.66960001
134.58376 -35.406322 -0.67760003
134.63338 -35.412395 -0.6688
134.68301 -35.418461 -0.67199999
134.73264 -35.424534 -0.6728
134.78227 -35.430607 0.81919998
134.83191 -35.43668 0.84719998
134.88153 -35.442753 0.90319997
134.93115 -35.448818 0.94080001
134.98079 -35.454891 0.95200002
135.03043 -35.460964 0.94880003
135.08005 -35.467037 0.94480002
135.12968 -35.473103 0.94160002
135.17931 -35.479176 0.94800001
135.22894 -35.485249 0.95200002
135.27856 -35.491322 0.94639999
135.3282 -35.497395 0.95200002
135.37784 -35.50346 0.95279998
135.42746 -35.509533 0.94400001
135.4771 -35.515606 0.9472
135.52672 -35.521679 0.94639999
135.57635 -35.527752 0.94800001
135.62598 -35.533817 0.95120001
135.67561 -35.53989 0.94800001
135.72525 -35.545963 0.95679998
135.77487 -35.552036 0.95359999
135.82451 -35.558102 0.94959998
135.87413 -35.564175 0.92799997
135.92377 -35.570248 1.5416
135.97339 -35.576321 1.668
136.02303 -35.582394 1.6744
136.07266 -35.588459 1.6727999
136.12228 -35.594532 1.6672
136.17191 -35.600605 1.6088001
136.22154 -35.606678 1.5624
136.27118 -35.612743 1.5112
136.3208 -35.618816 1.4576
136.37044 -35.624889 1.3848
136.42006 -35.630962 1.3279999
136.4697 -35.637035 1.2632
136.51932 -35.643101 1.192
136.56895 -35.649174 1.12
136.61859 -35.655247 1.0472
136.66821 -35.66132 0.96719998
136.71783 -35.667393 0.88959998
136.76747 -35.673458 0.7888
136.81711 -35.679531 0.67839998
136.86673 -35.685604 0.57520002
136.91637 -35.691677 0.4472
136.96599 -35.697742 0.3168
137.01563 -35.703815 0.156
134.41058 -35.586628 -0.67919999
134.46021 -35.592701 -0.676
134.50983 -35.598774 -0.6728
134.55946 -35.604847 -0.67919999
134.6091 -35.61092 -0.67119998
134.65872 -35.616985 -0.67360002
134.70836 -35.623058 -0.67040002
134.75798 -35.629131 -0.68080002
134.80762 -35.635204 0.85280001
134.85724 -35.641277 0.90640002
134.90688 -35.647343 0.94559997
134.95651 -35.653416 0.9472
135.00613 -35.659489 0.94559997
135.05577 -35.665562 0.94480002
135.10539 -35.671627 0.95120001
135.15503 -35.6777 0.9472
135.20465 -35.683773 0.94559997
135.25429 -35.689846 0.94559997
135.30392 -35.695919 0.95120001
135.35355 -35.701984 0.9472
135.40317 -35.708057 0.95120001
135.4528 -35.71413 0.94319999
135.50244 -35.720203 0.94800001
135.55206 -35.726276 0.94480002
135.6017 -35.732342 0.94959998
135.65132 -35.738415 0.94480002
135.70096 -35.744488 0.94080001
135.75058 -35.750561 0.94880003
135.80022 -35.756626 0.95200002
135.84985 -35.762699 0.93040001
135.89948 -35.768772 1.5344
135.94911 -35.774845 1.664
135.99873 -35.780918 1.6712
136.04837 -35.786983 1.6712
136.09799 -35.793056 1.6744
136.14763 -35.799129 1.6056
136.19727 -35.805202 1.5568
136.24689 -35.811268 1.5032001
136.29651 -35.817341 1.4432
136.34615 -35.823414 1.3911999
136.39578 -35.829487 1.3288
136.4454 -35.83556 1.2656
136.49504 -35.841625 1.1928
136.54466 -35.847698 1.1352
136.5943 -35.853771 1.0456001
136.64392 -35.859844 0.96880001
136.69356 -35.865917 0.89039999
136.74319 -35.871983 0.78560001
136.79282 -35.878056 0.68000001
136.84244 -35.884129 0.56559998
136.89207 -35.890202 0.45280001
136.94171 -35.896267 0.30320001
136.99133 -35.90234 0.15440001
134.43591 -35.791218 -0.68159997
134.48555 -35.797291 -0.67439997
134.53519 -35.803364 -0.67680001
134.58481 -35.809437 -0.67839998
134.63445 -35.815502 -0.676
134.68407 -35.821575 -0.676
134.7337 -35.827648 0.78719997
134.78333 -35.833721 0.84560001
134.83296 -35.839794 0.89120001
134.88258 -35.84586 0.94400001
134.93222 -35.851933 0.94639999
134.98184 -35.858006 0.94400001
135.03148 -35.864079 0.94559997
135.08112 -35.870144 0.9472
135.13074 -35.876217 0.94239998
135.18037 -35.88229 0.94480002
135.23 -35.888363 0.94559997
135.27963 -35.894436 0.95679998
135.32925 -35.900501 0.9544
135.37889 -35.906574 0.94959998
135.42853 -35.912647 0.94880003
135.47815 -35.91872 0.94800001
135.52779 -35.924793 0.94959998
135.57741 -35.930859 0.94880003
135.62704 -35.936932 0.94800001
135.67667 -35.943005 0.95279998
135.7263 -35.949078 0.94880003
135.77594 -35.955143 0.94400001
135.82556 -35.961216 0.92879999
135.87518 -35.967289 1.5376
135.92482 -35.973362 1.66
135.97446 -35.979435 1.6672
136.02408 -35.9855 1.6744
136.07372 -35.991573 1.6672
136.12334 -35.997646 1.6023999
136.17297 -36.003719 1.5616
136.2226 -36.009785 1.5032001
136.27223 -36.015858 1.4464
136.32187 -36.021931 1.3896
136.37149 -36.028004 1.3224
136.42113 -36.034077 1.2704
136.47075 -36.040142 1.192
136.52039 -36.046215 1.1128
136.57001 -36.052288 1.0528001
136.61964 -36.058361 0.96560001
136.66927 -36.064434 0.88160002
136.7189 -36.070499 0.78079998
136.76852 -36.076572 0.68400002
136.81816 -36.082645 0.56239998
136.8678 -36.088718 0.4488
136.91742 -36.094784 0.30720001
136.96706 -36.100857 0.1496
134.46127 -35.995815 -0.68239999
134.51089 -36.001888 -0.67760003
134.56052 -36.007961 -0.67839998
134.61015 -36.014027 -0.676
134.65979 -36.0201 -0.6832
134.70941 -36.026173 0.80000001
134.75905 -36.032246 0.84399998
134.80867 -36.038319 0.89359999
134.85831 -36.044384 0.94319999
134.90793 -36.050457 0.94959998
134.95757 -36.05653 0.95120001
135.0072 -36.062603 0.9472
135.05682 -36.068668 0.94800001
135.10645 -36.074741 0.94959998
135.15608 -36.080814 0.94880003
135.20572 -36.086887 0.94480002
135.25534 -36.09296 0.95039999
135.30498 -36.099026 0.94959998
135.3546 -36.105099 0.95279998
135.40424 -36.111172 0.94559997
135.45386 -36.117245 0.9472
135.50349 -36.123318 0.94800001
135.55313 -36.129383 0.9472
135.60275 -36.135456 0.95359999
135.65239 -36.141529 0.95279998
135.70201 -36.147602 0.95200002
135.75165 -36.153667 0.93839997
135.80127 -36.15974 0.93120003
135.85091 -36.165813 1.5496
135.90054 -36.171886 1.6752
135.95016 -36.177959 1.6688
135.9998 -36.184025 1.6744
136.04942 -36.190098 1.6648
136.09906 -36.196171 1.6032
136.14868 -36.202244 1.5512
136.19832 -36.208309 1.4944
136.24796 -36.214382 1.4424
136.29758 -36.220455 1.3824
136.3472 -36.226528 1.324
136.39684 -36.232601 1.2584
136.44647 -36.238667 1.1896
136.49609 -36.24474 1.1192
136.54573 -36.250813 1.0464
136.59535 -36.256886 0.96079999
136.64499 -36.262959 0.86799997
136.69461 -36.269024 0.77280003
136.74425 -36.275097 0.68000001
136.79388 -36.28117 0.55839998
136.84351 -36.287243 0.44639999
136.89313 -36.293308 0.30320001
136.94276 -36.299381 0.124
136.9924 -36.305454 -0.068000004
137.04202 -36.311527 -0.31760001
134.38734 -36.188259 -0.67360002
134.43698 -36.194332 -0.68239999
134.4866 -36.200405 -0.68239999
134.53624 -36.206478 -0.67919999
134.58588 -36.212543 -0.67680001
134.6355 -36.218616 -0.68000001
134.68513 -36.224689 0.8168
134.73476 -36.230762 0.86000001
134.78439 -36.236835 0.93760002
134.83401 -36.242901 0.94800001
134.88365 -36.248974 0.94800001
134.93327 -36.255047 0.9472
134.98291 -36.26112 0.95120001
135.03253 -36.267185 0.94959998
135.08217 -36.273258 0.94959998
135.13181 -36.279331 0.94639999
135.18143 -36.285404 0.94239998
135.23106 -36.291477 0.95279998
135.28069 -36.297543 0.94319999
135.33032 -36.303616 0.95120001
135.37994 -36.309689 0.94319999
135.42958 -36.315762 0.94559997
135.47922 -36.321835 0.9472
135.52884 -36.3279 0.94880003
135.57846 -36.333973 0.94800001
135.6281 -36.340046 0.95200002
135.67773 -36.346119 0.94639999
135.72736 -36.352184 0.94880003
135.77699 -36.358257 0.92320001
135.82661 -36.36433 1.536
135.87625 -36.370403 1.6624
135.92587 -36.376476 1.6712
135.97551 -36.382542 1.6784
136.02515 -36.388615 1.668
136.07477 -36.394688 1.6
136.1244 -36.400761 1.5536
136.17403 -36.406826 1.5112
136.22366 -36.412899 1.4335999
136.27328 -36.418972 1.38
136.32292 -36.425045 1.3224
136.37256 -36.431118 1.2624
136.42218 -36.437183 1.184
136.47182 -36.443256 1.1152
136.52144 -36.449329 1.0368
136.57108 -36.455402 0.95599997
136.6207 -36.461475 0.87279999
136.67033 -36.467541 0.7744
136.71996 -36.473614 0.68000001
136.76959 -36.479687 0.57200003
136.81921 -36.48576 0.43439999
136.86885 -36.491825 0.2992
136.91849 -36.497898 0.086400002
136.96811 -36.503971 0.025599999
134.36307 -36.386776 -0.67919999
134.41269 -36.392849 -0.68000001
134.46233 -36.398922 -0.6688
134.51196 -36.404995 -0.67439997
134.56158 -36.41106 -0.676
134.61121 -36.417133 -0.67439997
134.66084 -36.423206 0.83279997
134.71048 -36.429279 0.88559997
134.7601 -36.435352 0.94559997
134.80974 -36.441418 0.94959998
134.85936 -36.447491 0.9472
134.909 -36.453564 0.95279998
134.95862 -36.459637 0.94480002
135.00826 -36.465702 0.94800001
135.05789 -36.471775 0.95039999
135.10751 -36.477848 0.94959998
135.15714 -36.483921 0.95120001
135.20677 -36.489994 0.94959998
135.25641 -36.496059 0.94639999
135.30603 -36.502132 0.9368
135.35567 -36.508205 0.93360001
135.40529 -36.514278 0.93760002
135.45493 -36.520351 0.9472
135.50455 -36.526417 0.94880003
135.55418 -36.53249 0.94800001
135.60382 -36.538563 0.9472
135.65344 -36.544636 0.9472
135.70308 -36.550701 0.94160002
135.7527 -36.556774 0.92799997
135.80234 -36.562847 1.5391999
135.85196 -36.56892 1.6664
135.9016 -36.574993 1.6696
135.95123 -36.581059 1.668
136.00085 -36.587132 1.6655999
136.05048 -36.593204 1.604
136.10011 -36.599277 1.5528001
136.14975 -36.605343 1.492
136.19937 -36.611416 1.4384
136.24901 -36.617489 1.3688
136.29863 -36.623562 1.3184
136.34827 -36.629635 1.2568001
136.39789 -36.6357 1.1928
136.44753 -36.641773 1.112
136.49716 -36.647846 1.0352
136.54678 -36.653919 0.95840001
136.59642 -36.659992 0.87519997
136.64604 -36.666058 0.76560003
136.69568 -36.672131 0.67680001
136.7453 -36.678204 0.55199999
136.79494 -36.684277 0.42719999
136.84457 -36.690342 0.29519999
136.8942 -36.696415 0.1056
134.38841 -36.591373 -0.67119998
134.43803 -36.597446 -0.66640002
134.48767 -36.603519 -0.66720003
134.53729 -36.609585 -0.66960001
134.58693 -36.615658 -0.66640002
134.63657 -36.621731 -0.67119998
134.68619 -36.627804 0.87440002
134.73582 -36.633877 0.9296
134.78545 -36.639942 0.95279998
134.83508 -36.646015 0.94559997
134.8847 -36.652088 0.9472
134.93434 -36.658161 0.94800001
134.98396 -36.664227 0.94400001
135.0336 -36.6703 0.94880003
135.08322 -36.676373 0.94239998
135.13286 -36.682446 0.94639999
135.1825 -36.688519 0.95039999
135.23212 -36.694584 0.9472
135.28175 -36.700657 0.94800001
135.33138 -36.70673 0.9472
135.38101 -36.712803 0.94480002
135.43063 -36.718876 0.94080001
135.48027 -36.724941 0.94880003
135.52989 -36.731014 0.95279998
135.57953 -36.737087 0.95279998
135.62917 -36.74316 0.94959998
135.67879 -36.749226 0.94880003
135.72842 -36.755299 0.92799997
135.77805 -36.761372 1.5376
135.82768 -36.767445 1.6608
135.8773 -36.773518 1.6672
135.92694 -36.779583 1.6672
135.97656 -36.785656 1.6568
136.0262 -36.791729 1.5968
136.07584 -36.797802 1.5408
136.12546 -36.803867 1.4928
136.17509 -36.80994 1.444
136.22472 -36.816013 1.3839999
136.27435 -36.822086 1.3184
136.32397 -36.828159 1.252
136.37361 -36.834225 1.1824
136.42325 -36.840298 1.1112
136.47287 -36.846371 1.0384001
136.52249 -36.852444 0.96319997
136.57213 -36.858517 0.85119998
136.62177 -36.864582 0.76880002
136.67139 -36.870655 0.66000003
136.72102 -36.876728 0.54720002
136.77065 -36.882801 0.43040001
136.82028 -36.888866 0.29679999
134.36412 -36.78989 -0.67199999
134.41376 -36.795963 -0.6656
134.46338 -36.802036 -0.67040002
134.51302 -36.808102 -0.66479999
134.56265 -36.814175 -0.66159999
134.61227 -36.820248 -0.67119998
134.6619 -36.826321 0.8064
134.71153 -36.832394 0.87599999
134.76117 -36.838459 0.93279999
134.81079 -36.844532 0.94880003
134.86043 -36.850605 0.9472
134.91005 -36.856678 0.94880003
134.95969 -36.862743 0.94559997
135.00931 -36.868816 0.94239998
135.05894 -36.874889 0.94239998
135.10858 -36.880962 0.94800001
135.1582 -36.887035 0.94319999
135.20782 -36.893101 0.94800001
135.25746 -36.899174 0.94319999
135.3071 -36.905247 0.94160002
135.35672 -36.91132 0.94639999
135.40636 -36.917393 0.94400001
135.45598 -36.923458 0.94
135.50562 -36.929531 0.94559997
135.55524 -36.935604 0.94480002
135.60487 -36.941677 0.94319999
135.65451 -36.947742 0.94400001
135.70413 -36.953815 0.92640001
135.75377 -36.959888 1.5599999
135.80339 -36.965961 1.6744
135.85303 -36.972034 1.668
135.90265 -36.9781 1.6720001
135.95229 -36.984173 1.6576
136.00192 -36.990246 1.5968
136.05154 -36.996319 1.5408
136.10117 -37.002384 1.4848
136.1508 -37.008457 1.4376
136.20044 -37.01453 1.3872
136.25006 -37.020603 1.3112
136.2997 -37.026676 1.2464
136.34932 -37.032742 1.1904
136.39896 -37.038815 1.1048
136.44858 -37.044888 1.0312001
136.49821 -37.050961 0.9648
136.54785 -37.057034 0.85600001
136.59747 -37.063099 0.76880002
136.64711 -37.069172 0.66960001
136.69673 -37.075245 0.54879999
136.74637 -37.081318 0.41999999
136.79599 -37.087383 0.28479999
134.33984 -36.988415 -0.67119998
134.38947 -36.994488 -0.66399997
134.4391 -37.000561 -0.6656
134.48872 -37.006626 -0.66479999
134.53836 -37.012699 -0.66479999
134.58798 -37.018772 -0.66799998
134.63762 -37.024845 0.77759999
134.68726 -37.030918 0.82639998
134.73688 -37.036983 0.884
134.7865 -37.043056 0.93279999
134.83614 -37.049129 0.9472
134.88577 -37.055202 0.94559997
134.93539 -37.061268 0.94480002
134.98503 -37.067341 0.94319999
135.03465 -37.073414 0.94080001
135.08429 -37.079487 0.94319999
135.13391 -37.08556 0.95599997
135.18355 -37.091625 0.94480002
135.23318 -37.097698 0.94800001
135.28281 -37.103771 0.9472
135.33243 -37.109844 0.94239998
135.38206 -37.115917 0.95359999
135.4317 -37.121983 0.9472
135.48132 -37.128056 0.94239998
135.53096 -37.134129 0.9472
135.5806 -37.140202 0.94400001
135.63022 -37.146267 0.94160002
135.67984 -37.15234 0.9296
135.72948 -37.158413 1.58
135.77911 -37.164486 1.6632
135.82874 -37.170559 1.6712
135.87837 -37.176624 1.6727999
135.92799 -37.182697 1.6552
135.97763 -37.18877 1.5936
136.02725 -37.194843 1.5408
136.07689 -37.200909 1.4888
136.12653 -37.206982 1.4288
136.17615 -37.213055 1.3824
136.22577 -37.219128 1.3128
136.27541 -37.225201 1.2536
136.32504 -37.231266 1.1688
136.37466 -37.237339 1.108
136.4243 -37.243412 1.028
136.47392 -37.249485 0.94160002
136.52356 -37.255558 0.85119998
136.57318 -37.261623 0.75599998
136.62282 -37.267696 0.6656
136.67245 -37.273769 0.54640001
136.72208 -37.279842 0.43360001
136.77171 -37.285908 0.29840001
136.82133 -37.291981 0.088799998
134.31555 -37.186932 -0.6656
134.36519 -37.193005 -0.66240001
134.41481 -37.199078 -0.66399997
134.46445 -37.205143 -0.66000003
134.51407 -37.211216 -0.66079998
134.56371 -37.217289 -0.66399997
134.61334 -37.223362 -0.6688
134.66296 -37.229435 0.81199998
134.71259 -37.2355 0.86799997
134.76222 -37.241573 0.9192
134.81186 -37.247646 0.9472
134.86148 -37.253719 0.9472
134.91112 -37.259785 0.94559997
134.96074 -37.265858 0.94480002
135.01038 -37.271931 0.94239998
135.06 -37.278004 0.94559997
135.10963 -37.284077 0.94880003
135.15927 -37.290142 0.95279998
135.20889 -37.296215 0.94480002
135.25851 -37.302288 0.94319999
135.30815 -37.308361 0.94639999
135.35779 -37.314434 0.95120001
135.40741 -37.320499 0.94319999
135.45705 -37.326572 0.9472
135.50668 -37.332645 0.94239998
135.5563 -37.338718 0.93519998
135.60593 -37.344784 0.93839997
135.65556 -37.350857 0.93040001
135.7052 -37.35693 1.552
135.75482 -37.363003 1.6632
135.80446 -37.369076 1.6664
135.85408 -37.375141 1.6624
135.90372 -37.381214 1.6576
135.95334 -37.387287 1.6032
136.00298 -37.39336 1.5472
136.05261 -37.399426 1.4864
136.10223 -37.405499 1.4312
136.15186 -37.411572 1.3688
136.20149 -37.417645 1.308
136.25113 -37.423717 1.2408
136.30075 -37.429783 1.1768
136.35039 -37.435856 1.1016001
136.40001 -37.441929 1.0312001
136.44965 -37.448002 0.9368
136.49927 -37.454075 0.85759997
136.5489 -37.46014 0.75120002
136.59854 -37.466213 0.66000003
136.64816 -37.472286 0.54079998
136.69778 -37.478359 0.40239999
136.74742 -37.484425 0.2456
136.79706 -37.490498 0.12800001
134.29126 -37.385448 -0.66640002
134.3409 -37.391521 -0.65920001
134.39053 -37.397594 -0.65679997
134.44016 -37.40366 -0.66479999
134.48979 -37.409733 -0.66159999
134.53941 -37.415806 -0.6728
134.58905 -37.421879 0.49039999
134.63867 -37.427952 0.8272
134.68831 -37.434017 0.88080001
134.73795 -37.44009 0.93599999
134.78757 -37.446163 0.94480002
134.8372 -37.452236 0.94800001
134.88683 -37.458302 0.94480002
134.93646 -37.464375 0.94319999
134.98608 -37.470448 0.94480002
135.03572 -37.476521 0.95120001
135.08534 -37.482594 0.95039999
135.13498 -37.488659 0.94239998
135.1846 -37.494732 0.93839997
135.23424 -37.500805 0.99199998
135.28387 -37.506878 0.94160002
135.3335 -37.512951 0.94319999
135.38313 -37.519016 0.94400001
135.43275 -37.525089 0.94800001
135.48239 -37.531162 0.94800001
135.53201 -37.537235 0.94319999
135.58165 -37.543301 0.93919998
135.63129 -37.549374 1.5128
135.68091 -37.555447 1.564
135.73055 -37.56152 1.6648
135.78017 -37.567593 1.6720001
135.8298 -37.573658 1.664
135.87943 -37.579731 1.6576
135.92906 -37.585804 1.5968
135.97868 -37.591877 1.5296
136.02832 -37.597942 1.48
136.07794 -37.604015 1.4272
136.12758 -37.610088 1.3696001
136.17722 -37.616161 1.3048
136.22684 -37.622234 1.2488
136.27647 -37.6283 1.1768
136.3261 -37.634373 1.1048
136.37573 -37.640446 1.0144
136.42535 -37.646519 0.93919998
136.47499 -37.652592 0.84640002
136.52461 -37.658657 0.75599998
136.57425 -37.66473 0.66159999
136.62387 -37.670803 0.53119999
136.67351 -37.676876 0.41280001
136.72314 -37.682941 0.28080001
136.77277 -37.689014 0.1072
134.31662 -37.590046 -0.7464
134.36624 -37.596119 -0.6728
134.41586 -37.602184 -0.65679997
134.4655 -37.608257 -0.6584
134.51514 -37.61433 -0.6552
134.56476 -37.620403 -0.67919999
134.6144 -37.626476 0.8768
134.66402 -37.632542 0.93919998
134.71365 -37.638615 0.94160002
134.76328 -37.644688 0.9472
134.81291 -37.650761 0.94239998
134.86255 -37.656826 0.94480002
134.91217 -37.662899 0.94639999
134.96181 -37.668972 0.94480002
135.01143 -37.675045 0.94559997
135.06107 -37.681118 0.94959998
135.11069 -37.687183 0.9472
135.16032 -37.693256 0.94239998
135.20995 -37.699329 0.94
135.25958 -37.705402 0.94480002
135.3092 -37.711475 0.93919998
135.35884 -37.717541 0.94080001
135.40848 -37.723614 0.94400001
135.4581 -37.729687 0.94239998
135.50774 -37.73576 0.94400001
135.55736 -37.741825 0.93440002
135.60699 -37.747898 1.5336
135.65662 -37.753971 1.5784
135.70625 -37.760044 1.6648
135.75589 -37.766117 1.668
135.80551 -37.772182 1.6664
135.85515 -37.778255 1.6472
135.90477 -37.784328 1.5880001
135.95441 -37.790401 1.5328
136.00403 -37.796467 1.484
136.05367 -37.80254 1.4288
136.10329 -37.808613 1.376
136.15292 -37.814686 1.3024
136.20255 -37.820759 1.2368
136.25218 -37.826824 1.1784
136.30182 -37.832897 1.1
136.35144 -37.83897 1.0168
136.40108 -37.845043 0.94239998
136.4507 -37.851116 0.85039997
136.50034 -37.857182 0.74479997
136.54996 -37.863255 0.65600002
136.59959 -37.869328 0.53600001
136.64922 -37.875401 0.42480001
136.69885 -37.881466 0.24879999
136.74847 -37.887539 0.1016
134.44122 -37.806774 -0.72240001
134.49084 -37.812847 -0.66320002
134.54048 -37.81892 -0.67040002
134.5901 -37.824993 0.88
134.63974 -37.831059 0.93199998
134.68936 -37.837132 0.94160002
134.739 -37.843204 0.94319999
134.78864 -37.849277 0.94559997
134.83826 -37.855343 0.94480002
134.88788 -37.861416 0.94239998
134.93752 -37.867489 0.94480002
134.98715 -37.873562 0.94800001
135.03677 -37.879635 0.94480002
135.08641 -37.8857 0.95039999
135.13603 -37.891773 0.95840001
135.18567 -37.897846 0.93760002
135.23529 -37.903919 0.94319999
135.28493 -37.909992 0.94080001
135.33456 -37.916058 0.94559997
135.38419 -37.922131 0.94480002
135.43382 -37.928204 0.94400001
135.48344 -37.934277 0.94160002
135.53308 -37.940342 0.93839997
135.5827 -37.946415 0.92479998
135.63234 -37.952488 1.5488
135.68198 -37.958561 1.6720001
135.7316 -37.964634 1.6744
135.78122 -37.970699 1.6696
135.83086 -37.976772 1.6544
135.88049 -37.982845 1.5880001
135.93011 -37.988918 1.5368
135.97975 -37.994984 1.4848
136.02937 -38.001057 1.4248
136.07901 -38.00713 1.364
136.12863 -38.013203 1.3104
136.17827 -38.019276 1.2328
136.22791 -38.025341 1.1704
136.27753 -38.031414 1.1
136.32715 -38.037487 1.0296
136.37679 -38.04356 0.93760002
136.42642 -38.049633 0.84240001
136.47604 -38.055698 0.75279999
136.52568 -38.061771 0.66159999
136.5753 -38.067844 0.53200001
136.62494 -38.073917 0.4016
136.67456 -38.079983 0.25760001
134.51619 -38.017445 0.8312
134.56583 -38.023518 0.88
134.61545 -38.029583 0.93519998
134.66508 -38.035656 0.94239998
134.71471 -38.041729 0.93919998
134.76434 -38.047802 0.94080001
134.81396 -38.053867 0.94160002
134.8636 -38.05994 0.94
134.91324 -38.066013 0.93919998
134.96286 -38.072086 0.94800001
135.0125 -38.078159 0.94160002
135.06212 -38.084225 0.94319999
135.11176 -38.090298 0.94239998
135.16138 -38.096371 0.94639999
135.21101 -38.102444 0.93839997
135.26064 -38.108517 0.94
135.31027 -38.114582 0.94
135.35989 -38.120655 0.94239998
135.40953 -38.126728 0.94559997
135.45917 -38.132801 0.94239998
135.50879 -38.138866 0.93360001
135.55843 -38.144939 1.5272
135.60805 -38.151012 1.604
135.65768 -38.157085 1.6696
135.70731 -38.163158 1.6736
135.75694 -38.169224 1.668
135.80658 -38.175297 1.6512001
135.8562 -38.18137 1.5888
135.90584 -38.187443 1.5328
135.95546 -38.193508 1.4856
136.0051 -38.199581 1.4168
136.05472 -38.205654 1.3696001
136.10435 -38.211727 1.3008
136.15398 -38.2178 1.2384
136.20361 -38.223866 1.1672
136.25323 -38.229939 1.0864
136.30287 -38.236012 1.0328
136.35251 -38.242085 0.92000002
136.40213 -38.248158 0.8344
136.45177 -38.254223 0.736
136.50139 -38.260296 0.62879997
136.55103 -38.266369 0.51840001
136.60065 -38.272442 0.3928
136.65028 -38.278507 0.2552
136.69991 -38.28458 0.093599997
134.49191 -38.215961 0.82560003
134.54153 -38.222034 0.88559997
134.59116 -38.2281 0.93360001
134.64079 -38.234173 0.94
134.69043 -38.240246 0.9472
134.74005 -38.246319 0.94880003
134.78969 -38.252384 0.94160002
134.83931 -38.258457 0.94480002
134.88895 -38.26453 0.94480002
134.93857 -38.270603 0.94480002
134.9882 -38.276676 0.94800001
135.03784 -38.282742 0.95039999
135.08746 -38.288815 0.94239998
135.1371 -38.294888 0.94400001
135.18672 -38.300961 0.94400001
135.23636 -38.307034 0.94400001
135.28598 -38.313099 0.94480002
135.33562 -38.319172 0.94480002
135.38525 -38.325245 0.94559997
135.43488 -38.331318 0.94239998
135.48451 -38.337383 0.92559999
135.53413 -38.343456 1.5272
135.58377 -38.349529 1.6224
135.63339 -38.355602 1.6672
135.68303 -38.361675 1.6712
135.73267 -38.367741 1.6688
135.78229 -38.373814 1.6488
135.83191 -38.379887 1.5792
135.88155 -38.38596 1.5344
135.93118 -38.392025 1.4792
135.9808 -38.398098 1.4208
136.03044 -38.404171 1.3544
136.08006 -38.410244 1.2984
136.1297 -38.416317 1.2368
136.17932 -38.422382 1.1632
136.22896 -38.428455 1.0984
136.27859 -38.434528 1.0184
136.32822 -38.440601 0.92479998
136.37784 -38.446674 0.83200002
136.42747 -38.45274 0.73680001
136.47711 -38.458813 0.63599998
136.52673 -38.464886 0.5248
136.57637 -38.470959 0.37599999
136.62599 -38.477024 0.2448
136.67563 -38.483097 0.1184
134.46762 -38.414478 0.84399998
134.51724 -38.420551 0.91039997
134.56688 -38.426617 0.93599999
134.61652 -38.43269 0.93760002
134.66614 -38.438763 0.94400001
134.71577 -38.444836 0.94160002
134.7654 -38.450901 0.94400001
134.81503 -38.456974 0.94319999
134.86465 -38.463047 0.94559997
134.91429 -38.46912 0.94959998
134.96393 -38.475193 0.9472
135.01355 -38.481258 0.93839997
135.06317 -38.487331 0.9368
135.11281 -38.493404 0.93839997
135.16245 -38.499477 0.94800001
135.21207 -38.50555 0.95039999
135.2617 -38.511616 0.94639999
135.31133 -38.517689 0.94800001
135.36096 -38.523762 0.94880003
135.41058 -38.529835 0.94639999
135.46022 -38.5359 0.94559997
135.50986 -38.541973 1.5272
135.55948 -38.548046 1.572
135.60912 -38.554119 1.6688
135.65874 -38.560192 1.6799999
135.70837 -38.566257 1.676
135.758 -38.57233 1.6528
135.80763 -38.578403 1.5784
135.85727 -38.584476 1.5319999
135.90689 -38.590542 1.4808
135.95653 -38.596615 1.4256001
136.00615 -38.602688 1.3584
136.05579 -38.608761 1.2927999
136.10541 -38.614834 1.2264
136.15504 -38.620899 1.1584001
136.20467 -38.626972 1.0872
136.2543 -38.633045 1.0088
136.30392 -38.639118 0.9224
136.35356 -38.645191 0.83920002
136.4032 -38.651257 0.73199999
136.45282 -38.65733 0.62559998
136.50246 -38.663403 0.52399999
136.55208 -38.669476 0.3872
136.60172 -38.675541 0.22480001
136.65134 -38.681614 0.088799998
134.39371 -38.60693 0.77039999
134.44333 -38.613003 0.83840001
134.49297 -38.619076 0.90560001
134.5426 -38.625141 0.93919998
134.59222 -38.631214 0.93839997
134.64185 -38.637287 0.94400001
134.69148 -38.64336 0.94400001
134.74112 -38.649426 0.93519998
134.79074 -38.655499 0.94880003
134.84038 -38.661572 0.9544
134.89 -38.667645 0.94480002
134.93964 -38.673717 0.94959998
134.98926 -38.679783 0.95120001
135.03889 -38.685856 0.95520002
135.08853 -38.691929 0.93440002
135.13815 -38.698002 0.94239998
135.18779 -38.704075 0.94480002
135.23741 -38.71014 0.94480002
135.28705 -38.716213 0.94160002
135.33667 -38.722286 0.94559997
135.38631 -38.728359 0.94160002
135.43594 -38.734425 0.94160002
135.48557 -38.740498 1.5304
135.53519 -38.746571 1.6344
135.58482 -38.752644 1.6696
135.63446 -38.758717 1.6744
135.68408 -38.764782 1.6727999
135.73372 -38.770855 1.632
135.78334 -38.776928 1.5768
135.83298 -38.783001 1.5232
135.8826 -38.789066 1.4808
135.93224 -38.795139 1.4168
135.98187 -38.801212 1.3608
136.03149 -38.807285 1.3056
136.08113 -38.813358 1.22
136.13075 -38.819424 1.1544
136.18039 -38.825497 1.08
136.23001 -38.83157 1.0152
136.27965 -38.837643 0.91439998
136.32928 -38.843716 0.81120002
136.37891 -38.849781 0.73519999
136.42853 -38.855854 0.6304
136.47816 -38.861927 0.51359999
136.5278 -38.868 0.368
136.57742 -38.874065 0.23280001
136.62706 -38.880138 0.042399999
134.31979 -38.799374 0.2112
134.36942 -38.805447 0.83999997
134.41905 -38.81152 0.89840001
134.46867 -38.817593 0.93519998
134.51831 -38.823658 0.95120001
134.56793 -38.829731 0.92559999
134.61757 -38.835804 0.92720002
134.66721 -38.841877 0.93919998
134.71683 -38.847942 0.94559997
134.76646 -38.854015 0.94639999
134.81609 -38.860088 0.95359999
134.86572 -38.866161 0.95359999
134.91534 -38.872234 0.95279998
134.96498 -38.8783 0.94959998
135.0146 -38.884373 0.94800001
135.06424 -38.890446 0.94800001
135.11386 -38.896519 0.94480002
135.1635 -38.902592 0.94959998
135.21313 -38.908657 0.9472
135.26276 -38.91473 0.95039999
135.31239 -38.920803 0.94800001
135.36201 -38.926876 0.95120001
135.41165 -38.932941 0.9368
135.46127 -38.939014 1.5304
135.51091 -38.945087 1.5904
135.56055 -38.95116 1.6736
135.61017 -38.957233 1.6688
135.65981 -38.963299 1.6776
135.70943 -38.969372 1.6256
135.75906 -38.975445 1.5824
135.80869 -38.981518 1.5328
135.85832 -38.987583 1.4696
135.90796 -38.993656 1.4152
135.95758 -38.999729 1.3584
136.0072 -39.005802 1.2952
136.05684 -39.011875 1.2208
136.10648 -39.017941 1.1496
136.1561 -39.024014 1.0848
136.20573 -39.030087 1.0039999
136.25536 -39.03616 0.92720002
136.30499 -39.042233 0.8272
136.35461 -39.048298 0.74159998
136.40425 -39.054371 0.616
136.45389 -39.060444 0.49680001
136.50351 -39.066517 0.36399999
134.34514 -39.003971 0.84079999
134.39476 -39.010044 0.91119999
134.4444 -39.016117 0.94880003
134.49402 -39.022182 0.95520002
134.54366 -39.028255 0.9544
134.59328 -39.034328 0.95359999
134.64291 -39.040401 0.96079999
134.69254 -39.046467 0.93120003
134.74217 -39.05254 0.94400001
134.79181 -39.058613 0.94559997
134.84143 -39.064686 0.96160001
134.89107 -39.070759 0.95279998
134.94069 -39.076824 0.95200002
134.99033 -39.082897 0.95039999
135.03995 -39.08897 0.93839997
135.08958 -39.095043 0.93760002
135.13922 -39.101116 0.93839997
135.18884 -39.107182 0.95120001
135.23846 -39.113255 0.94880003
135.2881 -39.119328 0.94800001
135.33774 -39.125401 0.94800001
135.38736 -39.131466 0.94400001
135.437 -39.137539 1.5304
135.48662 -39.143612 1.6456
135.53625 -39.149685 1.6688
135.58588 -39.155758 1.676
135.63551 -39.161823 1.6672
135.68515 -39.167896 1.6248
135.73477 -39.173969 1.5743999
135.78441 -39.180042 1.5296
135.83403 -39.186108 1.4632
135.88367 -39.192181 1.4088
135.93329 -39.198254 1.3559999
135.98293 -39.204327 1.2872
136.03256 -39.2104 1.2208
136.08218 -39.216465 1.1624
136.13182 -39.222538 1.0743999
136.18144 -39.228611 1.0056
136.23108 -39.234684 0.90399998
136.2807 -39.240757 0.80879998
136.33034 -39.246822 0.71520001
136.37996 -39.252895 0.60720003
136.4296 -39.258968 0.51359999
136.47922 -39.265041 0.37360001
136.52885 -39.271107 0.2184
134.32085 -39.202488 0.84640002
134.37048 -39.208561 0.90799999
134.4201 -39.214634 0.95520002
134.46974 -39.220699 0.9648
134.51936 -39.226772 0.95679998
134.569 -39.232845 0.95999998
134.61862 -39.238918 0.96319997
134.66826 -39.244984 0.96399999
134.7179 -39.251057 0.98400003
134.76752 -39.25713 0.92879999
134.81714 -39.263203 0.94880003
134.86678 -39.269276 0.94559997
134.91641 -39.275341 0.95200002
134.96603 -39.281414 0.95359999
135.01567 -39.287487 0.9472
135.06529 -39.29356 0.94080001
135.11493 -39.299633 0.9368
135.16455 -39.305698 0.94480002
135.21419 -39.311771 0.94400001
135.26382 -39.317844 0.94639999
135.31345 -39.323917 0.95039999
135.36308 -39.329983 0.93279999
135.4127 -39.336056 1.5344
135.46234 -39.342129 1.6608
135.51196 -39.348202 1.6808
135.5616 -39.354275 1.6712
135.61124 -39.36034 1.6664
135.66086 -39.366413 1.6208
135.71048 -39.372486 1.572
135.76012 -39.378559 1.5224
135.80975 -39.384624 1.4648
135.85938 -39.390697 1.4176
135.90901 -39.39677 1.3496
135.95863 -39.402843 1.288
136.00827 -39.408916 1.216
136.05789 -39.414982 1.1528
136.10753 -39.421055 1.0776
136.15717 -39.427128 0.98720002
136.20679 -39.433201 0.92079997
136.25642 -39.439274 0.81440002
136.30605 -39.445339 0.71520001
136.35568 -39.451412 0.60960001
136.4053 -39.457485 0.49039999
136.45494 -39.463558 0.3592
136.50458 -39.469624 0.236
136.5542 -39.475697 -0.0040000002
136.60382 -39.48177 -0.244
134.29657 -39.401005 0.84560001
134.34619 -39.407078 0.91039997
134.39583 -39.413151 0.94959998
134.44545 -39.419216 0.96079999
134.49509 -39.425289 0.95920002
134.54471 -39.431362 0.96319997
134.59435 -39.437435 0.95279998
134.64398 -39.443501 0.96399999
134.6936 -39.449574 0.97759998
134.74323 -39.455647 0.98079997
134.79286 -39.46172 0.94
134.8425 -39.467793 0.96160001
134.89212 -39.473858 0.94319999
134.94176 -39.479931 0.95840001
134.99138 -39.486004 0.94080001
135.04102 -39.492077 0.95200002
135.09064 -39.49815 0.94160002
135.14027 -39.504215 0.94319999
135.18991 -39.510288 0.94800001
135.23953 -39.516361 0.94400001
135.28917 -39.522434 0.94639999
135.33879 -39.5285 0.93199998
135.38843 -39.534573 1.5432
135.43805 -39.540646 1.6528
135.48769 -39.546719 1.6727999
135.53732 -39.552792 1.6768
135.58694 -39.558857 1.668
135.63657 -39.56493 1.6272
135.6862 -39.571003 1.5808001
135.73584 -39.577076 1.524
135.78546 -39.583141 1.4648
135.8351 -39.589214 1.404
135.88472 -39.595287 1.3464
135.93436 -39.60136 1.2816
135.98398 -39.607433 1.2168
136.03362 -39.613499 1.148
136.08325 -39.619572 1.0752
136.13287 -39.625645 0.98559999
136.1825 -39.631718 0.91680002
136.23213 -39.637791 0.81120002
136.28177 -39.643856 0.7112
136.33139 -39.649929 0.61119998
136.38103 -39.656002 0.50639999
136.43065 -39.662075 0.36480001
136.48029 -39.66814 0.19760001
136.52991 -39.674213 0.0416
134.27228 -39.599529 0.8448
134.3219 -39.605602 0.90880001
134.37154 -39.611675 0.95200002
134.42117 -39.617741 0.96160001
134.47079 -39.623814 0.95999998
134.52043 -39.629887 0.95679998
134.57005 -39.63596 0.95679998
134.61969 -39.642025 0.96880001
134.66931 -39.648098 0.97600001
134.71895 -39.654171 0.97759998
134.76859 -39.660244 0.96640003
134.81821 -39.666317 0.95200002
134.86783 -39.672382 0.97439998
134.91747 -39.678455 0.95200002
134.9671 -39.684528 0.94559997
135.01672 -39.690601 0.94959998
135.06636 -39.696674 0.94400001
135.11598 -39.70274 0.94880003
135.16562 -39.708813 0.94400001
135.21524 -39.714886 0.94160002
135.26488 -39.720959 0.9368
135.31451 -39.727024 0.92720002
135.36414 -39.733097 1.5319999
135.41377 -39.73917 1.6528
135.46339 -39.745243 1.6736
135.51303 -39.751316 1.6736
135.56265 -39.757381 1.6776
135.61229 -39.763454 1.6272
135.66193 -39.769527 1.572
135.71155 -39.7756 1.5256
135.76117 -39.781666 1.4680001
135.81081 -39.787739 1.4008
135.86044 -39.793812 1.3512
135.91006 -39.799885 1.2832
135.9597 -39.805958 1.2216001
136.00932 -39.812023 1.1368001
136.05896 -39.818096 1.0743999
136.10858 -39.824169 0.98000002
136.15822 -39.830242 0.90399998
136.20786 -39.836315 0.80320001
136.25748 -39.842381 0.71359998
136.30711 -39.848454 0.60399997
136.35674 -39.854527 0.47600001
136.40637 -39.8606 0.3608
134.24799 -39.798046 0.8416
134.29762 -39.804119 0.91680002
134.34726 -39.810192 0.95520002
134.39688 -39.816257 0.95679998
134.44652 -39.82233 0.95920002
134.49614 -39.828403 0.95840001
134.54578 -39.834476 0.95840001
134.5954 -39.840542 0.96880001
134.64503 -39.846615 0.97920001
134.69466 -39.852688 0.98479998
134.74429 -39.858761 0.94080001
134.79391 -39.864834 0.96799999
134.84355 -39.870899 0.95359999
134.89319 -39.876972 0.96240002
134.94281 -39.883045 0.94480002
134.99245 -39.889118 0.94239998
135.04207 -39.895191 0.94239998
135.09171 -39.901257 0.94639999
135.14133 -39.90733 0.94880003
135.19096 -39.913403 0.94639999
135.2406 -39.919476 0.94880003
135.29022 -39.925541 0.92879999
135.33986 -39.931614 1.5336
135.38948 -39.937687 1.6568
135.43912 -39.94376 1.6672
135.48874 -39.949833 1.6704
135.53838 -39.955898 1.6736
135.588 -39.961971 1.62
135.63763 -39.968044 1.5784
135.68726 -39.974117 1.5192
135.73689 -39.980183 1.4584
135.78653 -39.986256 1.4064
135.83615 -39.992329 1.34
135.88579 -39.998402 1.2711999
135.93541 -40.004475 1.2168
135.98505 -40.01054 1.156
136.03467 -40.016613 1.076
136.0843 -40.022686 0.98079997
136.13393 -40.028759 0.9016
136.18356 -40.034832 0.80559999
136.23318 -40.040897 0.69999999
136.28282 -40.04697 0.60720003
136.33246 -40.053043 0.47920001
136.38208 -40.059116 0.34639999
136.43172 -40.065182 0.192
134.17407 -39.990498 0.19679999
134.22371 -39.996571 0.8448
134.27335 -40.002644 0.90240002
134.32297 -40.008717 0.95920002
134.37259 -40.014782 0.96079999
134.42223 -40.020855 0.95679998
134.47186 -40.026928 0.95679998
134.52148 -40.033001 0.95679998
134.57112 -40.039066 0.97039998
134.62074 -40.045139 0.96799999
134.67038 -40.051212 0.97280002
134.72 -40.057285 0.9576
134.76964 -40.063358 0.94800001
134.81927 -40.069424 0.95520002
134.8689 -40.075497 0.96560001
134.91852 -40.08157 0.95520002
134.96815 -40.087643 0.94
135.01779 -40.093716 0.94160002
135.06741 -40.099781 0.94480002
135.11705 -40.105854 0.94800001
135.16669 -40.111927 0.9472
135.21631 -40.118 0.94400001
135.26593 -40.124065 0.92879999
135.31557 -40.130138 1.5391999
135.3652 -40.136211 1.664
135.41483 -40.142284 1.676
135.46446 -40.148357 1.6784
135.51408 -40.154423 1.668
135.56372 -40.160496 1.6344
135.61334 -40.166569 1.568
135.66298 -40.172642 1.516
135.71262 -40.178707 1.4592
135.76224 -40.18478 1.4168
135.81186 -40.190853 1.3544
135.8615 -40.196926 1.2792
135.91113 -40.202999 1.2072001
135.96075 -40.209064 1.136
136.01039 -40.215137 1.0671999
136.06001 -40.22121 0.98559999
136.10965 -40.227283 0.88800001
136.15927 -40.233356 0.80879998
136.20891 -40.239422 0.70160002
136.25854 -40.245495 0.59680003
136.30817 -40.251568 0.48559999
136.35779 -40.257641 0.3184
134.19942 -40.195087 0.8416
134.24905 -40.20116 0.90560001
134.29868 -40.207233 0.95279998
134.34831 -40.213299 0.95679998
134.39795 -40.219372 0.9544
134.44757 -40.225445 0.95920002
134.49721 -40.231518 0.95679998
134.54683 -40.237583 0.96640003
134.59647 -40.243656 0.95679998
134.64609 -40.249729 0.97439998
134.69572 -40.255802 0.94959998
134.74535 -40.261875 0.93279999
134.79498 -40.267941 0.95359999
134.8446 -40.274014 0.95840001
134.89424 -40.280087 0.95279998
134.94388 -40.28616 0.93760002
134.9935 -40.292233 0.94080001
135.04314 -40.298298 0.94080001
135.09276 -40.304371 0.95120001
135.1424 -40.310444 0.94559997
135.19202 -40.316517 0.93839997
135.24165 -40.322582 0.9296
135.29129 -40.328655 1.536
135.34091 -40.334728 1.6592
135.39055 -40.340801 1.6744
135.44017 -40.346874 1.6752
135.48981 -40.35294 1.6688
135.53943 -40.359013 1.624
135.58907 -40.365086 1.5616
135.63869 -40.371159 1.5192
135.68832 -40.377224 1.4552
135.73795 -40.383297 1.4056
135.78758 -40.38937 1.3464
135.83722 -40.395443 1.2792
135.88684 -40.401516 1.2
135.93648 -40.407581 1.1336
135.9861 -40.413654 1.0656
136.03574 -40.419727 0.9824
136.08536 -40.4258 0.89679998
136.13499 -40.431873 0.796
136.18462 -40.437939 0.69760001
136.23425 -40.444012 0.59680003
136.28387 -40.450085 0.472
134.17514 -40.393604 0.83200002
134.22476 -40.399677 0.90640002
134.2744 -40.40575 0.95520002
134.32402 -40.411816 0.95679998
134.37366 -40.417889 0.9752
134.42328 -40.423962 0.95920002
134.47292 -40.430035 0.96160001
134.52255 -40.4361 0.9544
134.57217 -40.442173 0.95840001
134.62181 -40.448246 0.96399999
134.67143 -40.454319 0.94319999
134.72107 -40.460392 0.94880003
134.77069 -40.466457 0.94639999
134.82033 -40.47253 0.94559997
134.86996 -40.478603 0.94319999
134.91959 -40.484676 0.94080001
134.96921 -40.490749 0.94319999
135.01884 -40.496815 0.93760002
135.06848 -40.502888 0.94239998
135.1181 -40.508961 0.94239998
135.16774 -40.515034 0.94559997
135.21738 -40.521099 0.9296
135.267 -40.527172 1.612
135.31662 -40.533245 1.6648
135.36626 -40.539318 1.6720001
135.41589 -40.545391 1.676
135.46552 -40.551456 1.6696
135.51515 -40.557529 1.6232001
135.56477 -40.563602 1.5664001
135.61441 -40.569675 1.5128
135.66403 -40.575741 1.4624
135.71367 -40.581814 1.3944
135.76331 -40.587887 1.3368
135.81293 -40.59396 1.2808
135.86255 -40.600033 1.2007999
135.91219 -40.606098 1.1432
135.96182 -40.612171 1.0528001
136.01144 -40.618244 0.98559999
136.06108 -40.624317 0.912
136.1107 -40.63039 0.80479997
136.16034 -40.636456 0.69760001
136.20996 -40.642529 0.57999998
136.2596 -40.648602 0.47920001
136.30923 -40.654675 0.31600001
133.35677 -40.494984 -1.3216
133.4064 -40.501057 -1.2904
133.45602 -40.50713 -0.99599999
133.50566 -40.513203 -0.86879998
133.5553 -40.519276 -0.74239999
133.60492 -40.525341 -0.616
133.65454 -40.531414 -0.54479998
133.70418 -40.537487 -0.39840001
133.75381 -40.54356 -0.25279999
133.80344 -40.549625 -0.1064
133.85307 -40.555698 0.0392
133.90269 -40.561771 0.1856
133.95233 -40.567844 0.33199999
134.00195 -40.573917 0.47839999
134.05159 -40.579983 0.62480003
134.10123 -40.586056 0.7712
134.15085 -40.592129 0.83759999
134.20049 -40.598202 0.90240002
134.25011 -40.604275 0.95279998
134.29974 -40.61034 0.9544
134.34937 -40.616413 0.95599997
134.399 -40.622486 0.95599997
134.44864 -40.628559 0.95679998
134.49826 -40.634624 0.95599997
134.54788 -40.640697 0.98079997
134.59752 -40.64677 0.97119999
134.64716 -40.652843 0.95039999
134.69678 -40.658916 0.94639999
134.74641 -40.664982 0.94480002
134.79604 -40.671055 0.94559997
134.84567 -40.677128 0.95200002
134.89529 -40.683201 0.93760002
134.94493 -40.689274 0.94400001
134.99457 -40.695339 0.94480002
135.04419 -40.701412 0.94239998
135.09383 -40.707485 0.94239998
135.14345 -40.713558 0.94239998
135.19308 -40.719624 0.92559999
135.24271 -40.725697 1.5456001
135.29234 -40.73177 1.6616
135.34198 -40.737843 1.6712
135.3916 -40.743916 1.6776
135.44122 -40.749981 1.6712
135.49086 -40.756054 1.6064
135.5405 -40.762127 1.5624
135.59012 -40.7682 1.5184
135.63976 -40.774265 1.4504
135.68938 -40.780338 1.4008
135.73901 -40.786411 1.3288
135.78864 -40.792484 1.2608
135.83827 -40.798557 1.2128
135.88791 -40.804623 1.1408
135.93753 -40.810696 1.0599999
135.98715 -40.816769 0.98479998
136.03679 -40.822842 0.87919998
136.08643 -40.828915 0.80320001
136.13605 -40.83498 0.68480003
136.18568 -40.841053 0.59200001
136.23531 -40.847126 0.46560001
136.28494 -40.853199 0.336
136.33456 -40.859264 0.17839999
133.33249 -40.693501 -1.0624
133.38211 -40.699574 -0.9576
133.43175 -40.705647 -0.884
133.48138 -40.71172 -0.78640002
133.53101 -40.717793 -0.74879998
133.58063 -40.723858 -0.73280001
133.63026 -40.729931 -0.73199999
133.6799 -40.736004 -0.74879998
133.72952 -40.742077 -0.78479999
133.77916 -40.748142 -0.75199997
133.82878 -40.754215 -0.50160003
133.87842 -40.760288 -0.252
133.92804 -40.766361 -0.0024000001
133.97768 -40.772434 0.2464
134.02731 -40.7785 0.49680001
134.07693 -40.784573 0.7464
134.12656 -40.790646 0.84320003
134.17619 -40.796719 0.90079999
134.22583 -40.802792 0.95520002
134.27545 -40.808857 0.95679998
134.32509 -40.81493 0.9576
134.37471 -40.821003 0.95200002
134.42435 -40.827076 0.9576
134.47397 -40.833141 0.95599997
134.52361 -40.839214 0.95999998
134.57324 -40.845287 0.9648
134.62286 -40.85136 0.95120001
134.6725 -40.857433 0.94480002
134.72212 -40.863499 0.9576
134.77176 -40.869572 0.95039999
134.82138 -40.875645 0.94160002
134.87102 -40.881718 0.94400001
134.92065 -40.887791 0.94639999
134.97028 -40.893856 0.94319999
135.0199 -40.899929 0.94559997
135.06953 -40.906002 0.94480002
135.11917 -40.912075 0.94160002
135.16879 -40.91814 0.93199998
135.21843 -40.924213 1.5456001
135.26805 -40.930286 1.6608
135.31769 -40.936359 1.6727999
135.36731 -40.942432 1.6727999
135.41695 -40.948498 1.6727999
135.46658 -40.954571 1.6048
135.5162 -40.960644 1.5648
135.56584 -40.966717 1.5128
135.61546 -40.972782 1.452
135.6651 -40.978855 1.3928
135.71472 -40.984928 1.3336
135.76436 -40.991001 1.2592
135.814 -40.997074 1.2224
135.86362 -41.003139 1.1208
135.91324 -41.009212 1.0456001
135.96288 -41.015285 0.97119999
136.01251 -41.021358 0.89200002
136.06213 -41.027431 0.80479997
136.11177 -41.033497 0.68000001
136.16139 -41.03957 0.59200001
136.21103 -41.045643 0.46399999
133.25858 -40.88596 -1.152
133.3082 -40.892025 -1.0584
133.35783 -40.898098 -0.95200002
133.40746 -40.904171 -0.86479998
133.45709 -40.910244 -0.79280001
133.50671 -40.916317 -0.74559999
133.55635 -40.922382 -0.72399998
133.60599 -40.928455 -0.72399998
133.65561 -40.934528 -0.74400002
133.70523 -40.940601 -0.79119998
133.75487 -40.946667 -0.72000003
133.8045 -40.95274 -0.4664
133.85413 -40.958813 -0.21359999
133.90376 -40.964886 0.038400002
133.95338 -40.970959 0.292
134.00302 -40.977024 0.54479998
134.05264 -40.983097 0.79839998
134.10228 -40.98917 0.84719998
134.15192 -40.995243 0.9152
134.20154 -41.001316 0.95279998
134.25116 -41.007381 0.95840001
134.3008 -41.013454 0.95840001
134.35043 -41.019527 0.95679998
134.40005 -41.0256 0.9544
134.44969 -41.031666 0.97359997
134.49931 -41.037739 0.96960002
134.54895 -41.043812 0.97600001
134.59857 -41.049885 0.96799999
134.64821 -41.055958 0.94959998
134.69785 -41.062023 0.95279998
134.74747 -41.068096 0.94400001
134.7971 -41.074169 0.94
134.84673 -41.080242 0.94080001
134.89636 -41.086315 0.93919998
134.94598 -41.092381 0.93440002
134.99562 -41.098454 0.94559997
135.04526 -41.104527 0.94480002
135.09488 -41.1106 0.94319999
135.14452 -41.116665 0.92320001
135.19414 -41.122738 1.54
135.24377 -41.128811 1.6736
135.2934 -41.134884 1.6696
135.34303 -41.140957 1.6727999
135.39267 -41.147022 1.6648
135.44229 -41.153095 1.6192
135.49191 -41.159168 1.5568
135.54155 -41.165241 1.5048
135.59119 -41.171307 1.448
135.64081 -41.17738 1.3936
135.69044 -41.183453 1.3256
135.74007 -41.189526 1.2711999
135.7897 -41.195599 1.188
135.83932 -41.201664 1.1312
135.88896 -41.207737 1.0536
135.9386 -41.21381 0.96079999
135.98822 -41.219883 0.88559997
136.03784 -41.225956 0.80559999
136.08748 -41.232021 0.68480003
136.13712 -41.238094 0.56800002
136.18674 -41.244167 0.45519999
133.28392 -41.090542 -1.044
133.33354 -41.096615 -0.9472
133.38318 -41.102688 -0.86559999
133.4328 -41.108761 -0.78799999
133.48244 -41.114834 -0.74720001
133.53206 -41.120899 -0.72960001
133.5817 -41.126972 -0.73119998
133.63132 -41.133045 -0.74400002
133.68095 -41.139118 -0.77759999
133.73059 -41.145184 -0.676
133.78021 -41.151257 -0.4296
133.82985 -41.15733 -0.1832
133.87947 -41.163403 0.063199997
133.92911 -41.169476 0.3096
133.97873 -41.175541 0.55680001
134.02837 -41.181614 0.80400002
134.07799 -41.187687 0.86799997
134.12762 -41.19376 0.9224
134.17725 -41.199833 0.95200002
134.22688 -41.205898 0.95520002
134.27652 -41.211971 0.95840001
134.32614 -41.218044 0.9576
134.37578 -41.224117 0.95679998
134.4254 -41.230183 0.95679998
134.47504 -41.236256 0.95120001
134.52466 -41.242329 0.96960002
134.5743 -41.248402 0.96880001
134.62393 -41.254475 0.94160002
134.67355 -41.26054 0.94
134.72318 -41.266613 0.9368
134.77281 -41.272686 0.94160002
134.82245 -41.278759 0.93519998
134.87207 -41.284832 0.93440002
134.92171 -41.290897 0.94080001
134.97133 -41.29697 0.94160002
135.02097 -41.303043 0.94239998
135.07059 -41.309116 0.94559997
135.12022 -41.315182 0.92799997
135.16986 -41.321255 1.5424
135.21948 -41.327328 1.6655999
135.26912 -41.333401 1.6688
135.31874 -41.339474 1.6768
135.36838 -41.345539 1.6664
135.418 -41.351612 1.6048
135.46764 -41.357685 1.5536
