# .PCD v0.7 - Point Cloud Data file format
VERSION 0.7
FIELDS x y z
SIZE 4 4 4
TYPE F F F
COUNT 1 1 1
WIDTH 1509
HEIGHT 1
VIEWPOINT 0 0 0 1 0 0 0
POINTS 1509
DATA ascii
121.09052 -54.749462 -1.5438645
121.09219 -54.797443 -1.5167881
121.09954 -54.849571 -1.5460759
121.10432 -54.899834 -1.5499603
121.10744 -54.948864 -1.5371735
121.0775 -54.973732 -1.1957284
121.07159 -55.016167 -1.0932353
121.06456 -55.057785 -0.97962809
121.06744 -55.106644 -0.96445972
121.07087 -55.15591 -0.95484841
121.07765 -55.20763 -0.97857922
121.08842 -55.262268 -1.0420029
121.09689 -55.315212 -1.0824049
121.10616 -55.36874 -1.1307452
121.11549 -55.422325 -1.1798794
121.12547 -55.476379 -1.2353647
121.13617 -55.53096 -1.2979947
121.14511 -55.584255 -1.3431597
121.15756 -55.640118 -1.4232545
121.16747 -55.694115 -1.4779459
121.18095 -55.750732 -1.5683609
121.19214 -55.805664 -1.6357541
121.20579 -55.862404 -1.7277569
121.21936 -55.919083 -1.8189658
121.23285 -55.975708 -1.9093808
121.24858 -56.033962 -2.0220242
121.26518 -56.092861 -2.1433997
121.28315 -56.152752 -2.278271
121.3055 -56.215855 -2.4568045
121.3285 -56.279427 -2.6416888
120.85409 -54.224754 -1.6650811
120.85432 -54.271687 -1.6237153
120.85648 -54.320019 -1.6014023
120.85999 -54.369347 -1.5925847
120.86382 -54.418903 -1.5869427
120.86717 -54.468113 -1.5765374
120.87061 -54.51738 -1.566926
120.87348 -54.566238 -1.5517576
120.87739 -54.615852 -1.5469095
120.88242 -54.66629 -1.5531753
120.88689 -54.716316 -1.553884
120.8896 -54.765053 -1.537128
120.89288 -54.814205 -1.5259287
120.89982 -54.866043 -1.5512474
120.90629 -54.917526 -1.5718027
120.90349 -54.962238 -1.5002702
120.90724 -55.011742 -1.4938344
120.87402 -55.03421 -1.1198409
120.86588 -55.075012 -0.99511963
120.86852 -55.123695 -0.9775697
120.87218 -55.173138 -0.97033995
120.88 -55.225616 -1.004391
120.88903 -55.278969 -1.0503497
120.89821 -55.332439 -1.0978963
120.90699 -55.385616 -1.1414735
120.91697 -55.439671 -1.1969588
120.92783 -55.494366 -1.2611765
120.93669 -55.547604 -1.3055477
120.94835 -55.602882 -1.3777039
120.95865 -55.657169 -1.4363644
120.97054 -55.712624 -1.5109024
120.98076 -55.766853 -1.5687692
120.99409 -55.823357 -1.6575966
121.00758 -55.879982 -1.7480116
121.02052 -55.936195 -1.8328696
121.03521 -55.99369 -1.9351925
121.04854 -56.050198 -2.02402
121.06642 -56.110031 -2.1580973
121.08311 -56.168987 -2.2802668
121.10802 -56.233955 -2.4842038
120.66875 -54.158218 -1.900642
120.65581 -54.195518 -1.7282891
120.65597 -54.24239 -1.6861295
120.65701 -54.289906 -1.6527022
120.65764 -54.337128 -1.6153058
120.66139 -54.386631 -1.6088699
120.66467 -54.43578 -1.5976708
120.66817 -54.485104 -1.5888532
120.67049 -54.533554 -1.5681278
120.67552 -54.583988 -1.5743936
120.67911 -54.633373 -1.56637
120.68398 -54.683689 -1.5710481
120.68885 -54.734009 -1.5757263
120.6938 -54.784382 -1.5811982
120.69803 -54.834232 -1.5795255
120.70434 -54.885601 -1.5984931
120.70953 -54.936153 -1.6063466
120.71288 -54.985363 -1.5959414
120.6819 -55.009468 -1.2441761
120.67567 -55.05167 -1.1385076
120.66704 -55.092125 -1.0090232
120.67039 -55.141335 -0.99861801
120.67439 -55.19101 -0.9945637
120.68149 -55.242958 -1.02147
120.69083 -55.296547 -1.0706042
120.70017 -55.350132 -1.1197386
120.70911 -55.403427 -1.1649035
120.71813 -55.456779 -1.2108624
120.72867 -55.511242 -1.2719047
120.73897 -55.565529 -1.3305653
120.74991 -55.620285 -1.3955767
120.75989 -55.674339 -1.451062
120.77106 -55.729267 -1.518455
120.78384 -55.785362 -1.6017253
120.79573 -55.84082 -1.6762633
120.80962 -55.897732 -1.7706475
120.82144 -55.953129 -1.8443916
120.83589 -56.010452 -1.944333
120.85186 -56.068882 -2.0593576
120.86783 -56.127316 -2.1743824
120.4648 -54.124836 -1.9074861
120.45872 -54.167156 -1.8034053
120.45194 -54.20895 -1.6921797
120.45282 -54.256348 -1.6571648
120.4549 -54.304623 -1.6340578
120.45816 -54.353771 -1.6228588
120.46255 -54.40374 -1.6227736
120.46631 -54.453239 -1.6163378
120.47102 -54.503441 -1.6194282
120.47421 -54.552532 -1.6074351
120.47804 -54.602093 -1.6017931
120.48139 -54.651299 -1.5913879
120.48434 -54.700218 -1.5770134
120.49049 -54.751469 -1.5943933
120.49576 -54.802078 -1.6030407
120.49863 -54.850937 -1.5878721
120.50334 -54.901138 -1.5909626
120.51157 -54.953907 -1.6289829
120.5154 -55.003464 -1.6233408
120.49519 -55.035454 -1.3787467
120.47643 -55.068489 -1.1484421
120.46916 -55.109936 -1.0324533
120.47171 -55.158562 -1.0141096
120.47618 -55.208584 -1.0148184
120.48297 -55.260303 -1.0385492
120.49231 -55.313889 -1.0876834
120.50157 -55.367416 -1.136024
120.50971 -55.420128 -1.1732502
120.51993 -55.474358 -1.231117
120.53047 -55.52882 -1.2921593
120.54101 -55.583282 -1.3532016
120.55115 -55.637451 -1.4102745
120.56232 -55.692383 -1.4776675
120.57254 -55.746613 -1.5355344
120.58468 -55.802238 -1.6124537
120.59753 -55.858395 -1.6965179
120.6111 -55.915077 -1.7877269
120.62132 -55.969307 -1.8455937
120.63745 -56.027855 -1.962206
120.65166 -56.084999 -2.0597658
120.67018 -56.145302 -2.2001944
120.68815 -56.205193 -2.3350656
120.26221 -54.139198 -1.8840783
120.26164 -54.185547 -1.8347738
120.25206 -54.2253 -1.6957631
120.25462 -54.273926 -1.6774193
120.25789 -54.323074 -1.6662202
120.26084 -54.37199 -1.6518457
120.2646 -54.421494 -1.6454098
120.26683 -54.469883 -1.6238905
120.27018 -54.519093 -1.6134852
120.276 -54.57011 -1.6276896
120.28136 -54.620777 -1.637131
120.28255 -54.668411 -1.6052915
120.2863 -54.717911 -1.5988556
120.2907 -54.767876 -1.5987705
120.29692 -54.819187 -1.6169443
120.30131 -54.869156 -1.6168592
120.30762 -54.920525 -1.6358268
120.31105 -54.969788 -1.6262155
120.31567 -55.019932 -1.628512
120.30106 -55.056007 -1.4394882
120.27902 -55.086651 -1.1766353
120.27016 -55.126926 -1.0447693
120.27367 -55.176254 -1.0359517
120.27774 -55.225986 -1.0326912
120.28325 -55.276772 -1.0437202
120.29395 -55.331348 -1.1063502
120.30217 -55.384117 -1.1443706
120.31191 -55.437996 -1.197474
120.32109 -55.491467 -1.2450206
120.33083 -55.545345 -1.2981243
120.34289 -55.600918 -1.3742499
120.35342 -55.65538 -1.435292
120.36317 -55.709259 -1.4883957
120.3753 -55.764889 -1.5653151
120.38719 -55.820343 -1.639853
120.3987 -55.875504 -1.7104216
120.41051 -55.930901 -1.7841655
120.42432 -55.987759 -1.877756
120.43629 -56.04327 -1.9530877
120.4549 -56.10363 -2.0943098
120.47166 -56.162643 -2.2172732
120.4893 -56.222301 -2.348969
120.50983 -56.284061 -2.509244
120.07127 -54.16209 -1.9765742
120.066 -54.204994 -1.8804321
120.05099 -54.240776 -1.6874388
120.0553 -54.290684 -1.6865599
120.05873 -54.339951 -1.6769485
120.06192 -54.389042 -1.6649556
120.06519 -54.438194 -1.6537566
120.0695 -54.488102 -1.6528777
120.0731 -54.537483 -1.6448539
120.07557 -54.586052 -1.6257162
120.0802 -54.636192 -1.6280128
120.08307 -54.685051 -1.6128445
120.08842 -54.735718 -1.6222857
120.09177 -54.784927 -1.6118804
120.0968 -54.835361 -1.6181463
120.10191 -54.885857 -1.6252059
120.10782 -54.936932 -1.6402043
120.11213 -54.986839 -1.6393254
120.11676 -55.036983 -1.6416219
120.11868 -55.08514 -1.6169273
120.08074 -55.104168 -1.1960961
120.07276 -55.145088 -1.0729625
120.07563 -55.193947 -1.0577941
120.07915 -55.243271 -1.0489767
120.08513 -55.294403 -1.0647689
120.0955 -55.348751 -1.1242234
120.10429 -55.401928 -1.1678007
120.11419 -55.455925 -1.222492
120.12345 -55.509453 -1.2708323
120.13343 -55.563507 -1.3263175
120.14309 -55.617325 -1.3786274
120.15506 -55.67284 -1.453959
120.16425 -55.726311 -1.5015056
120.17622 -55.781822 -1.5768373
120.18716 -55.836578 -1.6418489
120.20033 -55.892967 -1.7290885
120.21262 -55.948711 -1.8075956
120.22596 -56.005219 -1.896423
120.24033 -56.062481 -1.9955704
120.2559 -56.120621 -2.106626
120.27027 -56.177887 -2.2057736
120.29031 -56.239296 -2.3612852
119.85815 -53.888214 -2.1108613
119.86397 -53.939228 -2.1250658
119.86988 -53.990307 -2.140064
119.87563 -54.041267 -2.1534746
119.88153 -54.092342 -2.1684728
119.88736 -54.14336 -2.1826773
119.87395 -54.180309 -2.0055614
119.87434 -54.227356 -1.9657834
119.84784 -54.254734 -1.6584742
119.84824 -54.301781 -1.6186962
119.8511 -54.350639 -1.6035277
119.86332 -54.406326 -1.681241
119.86739 -54.456062 -1.6779805
119.8709 -54.505386 -1.6691631
119.87321 -54.553837 -1.6484376
119.8772 -54.603512 -1.6443832
119.88176 -54.653595 -1.6458859
119.88718 -54.704323 -1.656121
119.89149 -54.75423 -1.6552422
119.89548 -54.803909 -1.6511878
119.8998 -54.853813 -1.6503088
119.90187 -54.902092 -1.6272018
119.90475 -54.950951 -1.6120335
119.90858 -55.000507 -1.6063914
119.91001 -55.048317 -1.5769336
119.91792 -55.100849 -1.6117785
119.8823 -55.121571 -1.2139692
119.87495 -55.162956 -1.0971866
119.87727 -55.211407 -1.0764611
119.88054 -55.260559 -1.0652621
119.88693 -55.311981 -1.0850236
119.89674 -55.365921 -1.138921
119.90641 -55.419739 -1.1912308
119.91543 -55.473095 -1.2371895
119.92589 -55.527496 -1.2974379
119.93507 -55.580967 -1.3449845
119.94624 -55.635895 -1.4123778
119.95463 -55.688782 -1.4519856
119.967 -55.744587 -1.5312866
119.97626 -55.798119 -1.579627
119.9888 -55.854038 -1.6605159
120.00061 -55.909431 -1.7342598
120.0145 -55.966347 -1.8286442
120.0284 -56.023262 -1.9230286
120.04308 -56.080761 -2.0253515
120.05673 -56.137497 -2.1173544
120.07558 -56.198032 -2.2609582
120.09051 -56.255707 -2.3656626
120.11175 -56.317989 -2.5330822
119.67615 -54.198177 -2.0297854
119.6759 -54.244759 -1.9836565
119.67231 -54.288891 -1.9041853
119.6569 -54.324379 -1.7072229
119.65906 -54.372711 -1.6849096
119.66312 -54.422447 -1.6816492
119.66568 -54.471069 -1.6633054
119.67023 -54.521156 -1.6648082
119.67709 -54.572929 -1.6893327
119.6826 -54.623714 -1.7003616
119.68627 -54.673157 -1.6931319
119.6897 -54.722427 -1.6835206
119.69282 -54.771458 -1.6707337
119.69673 -54.821075 -1.6658854
119.69904 -54.869522 -1.6451601
119.70423 -54.920074 -1.6530136
119.70663 -54.968582 -1.633082
119.70982 -55.017677 -1.6210891
119.71445 -55.067818 -1.6233857
119.70989 -55.111248 -1.5343883
119.68427 -55.139263 -1.2358116
119.6758 -55.179832 -1.1079149
119.67827 -55.228401 -1.0887773
119.68266 -55.278366 -1.0886922
119.68889 -55.329678 -1.106866
119.69903 -55.383846 -1.1639389
119.70717 -55.436558 -1.2011653
119.71547 -55.489388 -1.2399794
119.72641 -55.54414 -1.3049909
119.73671 -55.598427 -1.3636515
119.74637 -55.652248 -1.4159614
119.75642 -55.70636 -1.4722404
119.76745 -55.761173 -1.5380456
119.77863 -55.816101 -1.6054388
119.79068 -55.871674 -1.6815645
119.80281 -55.927303 -1.7584839
119.81543 -55.983284 -1.8401664
119.82916 -56.040081 -1.9329631
119.84265 -56.096703 -2.0233781
119.85918 -56.15554 -2.14396
119.87434 -56.21339 -2.2510462
119.89391 -56.274448 -2.4017947
119.91307 -56.335217 -2.5485737
119.47898 -54.216515 -2.0603604
119.4785 -54.26292 -2.0118499
119.47435 -54.306641 -1.9268216
119.46181 -54.344231 -1.7584381
119.46253 -54.391514 -1.7218354
119.4646 -54.439789 -1.6987284
119.46835 -54.489288 -1.6922926
119.47322 -54.539608 -1.6969707
119.47873 -54.590393 -1.7079997
119.48336 -54.640533 -1.7102962
119.48679 -54.6898 -1.7006848
119.49046 -54.739243 -1.693455
119.49486 -54.789211 -1.69337
119.49892 -54.838943 -1.6901095
119.50379 -54.889259 -1.6947876
119.50555 -54.937302 -1.6685051
119.51034 -54.98756 -1.6723894
119.51353 -55.036652 -1.6603965
119.51633 -55.085453 -1.6444342
119.51089 -55.128239 -1.5467044
119.48574 -55.156609 -1.2528908
119.47823 -55.197876 -1.1345205
119.48031 -55.246151 -1.1114135
119.48398 -55.295593 -1.1041838
119.48917 -55.346146 -1.1120374
119.50043 -55.401131 -1.1802243
119.51001 -55.454895 -1.2317402
119.51839 -55.507782 -1.2713481
119.52837 -55.561832 -1.3268332
119.53723 -55.61507 -1.3712045
119.54945 -55.670757 -1.4489179
119.55823 -55.723934 -1.4924951
119.56892 -55.778515 -1.555125
119.58066 -55.833855 -1.6280751
119.59184 -55.888783 -1.6954682
119.60461 -55.944878 -1.7787386
119.61635 -56.000217 -1.8516886
119.63032 -56.05719 -1.946867
119.64485 -56.114571 -2.0476022
119.66058 -56.172829 -2.1602454
119.6767 -56.231377 -2.2768579
119.69243 -56.289635 -2.3895011
119.71319 -56.351566 -2.5521574
119.28933 -54.100067 -2.2968001
119.28518 -54.143787 -2.2117717
119.30003 -54.201405 -2.3156824
119.30977 -54.25528 -2.3687861
119.27895 -54.279507 -2.0186086
119.26745 -54.317856 -1.8605453
119.26553 -54.363213 -1.7977452
119.26497 -54.409561 -1.7484407
119.2668 -54.457657 -1.7229522
119.27016 -54.506866 -1.7125471
119.27431 -54.55666 -1.7100804
119.28085 -54.6082 -1.7314296
119.28413 -54.657352 -1.7202303
119.28756 -54.706619 -1.7106191
119.29043 -54.755478 -1.6954507
119.29674 -54.806847 -1.7144184
119.30272 -54.857979 -1.7302104
119.3064 -54.907421 -1.7229807
119.30863 -54.955814 -1.7014613
119.31486 -55.007122 -1.7196351
119.32036 -55.057907 -1.7306641
119.32404 -55.107349 -1.7234344
119.31477 -55.147335 -1.5875993
119.28738 -55.174068 -1.2715576
119.27932 -55.214928 -1.1476302
119.28219 -55.263786 -1.1324618
119.28562 -55.313053 -1.1228505
119.29129 -55.363953 -1.1354673
119.30127 -55.418007 -1.1909524
119.30997 -55.471127 -1.2337358
119.32003 -55.525242 -1.2900149
119.32905 -55.578594 -1.3359737
119.33879 -55.632473 -1.3890774
119.34909 -55.68676 -1.4477381
119.35979 -55.741337 -1.5103679
119.37064 -55.796036 -1.5745856
119.38158 -55.850788 -1.6395972
119.39284 -55.905777 -1.7077842
119.40546 -55.961754 -1.7894667
119.41807 -56.017738 -1.8711493
119.43092 -56.073891 -1.9552135
119.44545 -56.131271 -2.0559487
119.46014 -56.18877 -2.1582718
119.47643 -56.247437 -2.2764721
119.49638 -56.308784 -2.4311898
119.51595 -56.369846 -2.5819383
119.5399 -56.434113 -2.7763488
119.08554 -54.207073 -2.1739898
119.08306 -54.252018 -2.1056328
119.08027 -54.29673 -2.0341001
119.07603 -54.340393 -1.9482781
119.06757 -54.380962 -1.8203815
119.06725 -54.427486 -1.7734587
119.06549 -54.472958 -1.7122464
119.07084 -54.523628 -1.7216877
119.07842 -54.575928 -1.7533572
119.08249 -54.625664 -1.7500966
119.08696 -54.67569 -1.7508053
119.09223 -54.726295 -1.7594528
119.09526 -54.775272 -1.7458721
119.10005 -54.825531 -1.7497565
119.10445 -54.8755 -1.7496712
119.10635 -54.923656 -1.7249765
119.11011 -54.973156 -1.7185405
119.11538 -55.023766 -1.7271881
119.11961 -55.073616 -1.7255154
119.124 -55.123585 -1.7254304
119.09956 -55.152477 -1.4387616
119.08942 -55.191818 -1.2941939
119.08183 -55.233032 -1.1750296
119.08391 -55.281307 -1.1519227
119.08694 -55.33028 -1.1383421
119.09301 -55.381474 -1.1549282
119.10251 -55.435177 -1.2056501
119.11137 -55.488411 -1.2500212
119.12135 -55.542465 -1.3055065
119.13181 -55.59687 -1.3657548
119.14075 -55.650166 -1.4109199
119.15097 -55.704395 -1.4687867
119.16135 -55.758739 -1.5282412
119.17252 -55.813667 -1.5956341
119.1829 -55.868015 -1.6550887
119.1952 -55.923759 -1.7335958
119.20557 -55.978107 -1.7930504
119.21986 -56.035313 -1.891404
119.23384 -56.092285 -1.9865823
119.24685 -56.14856 -2.0722342
119.26186 -56.206287 -2.1777325
119.27743 -56.264427 -2.2887881
119.29651 -56.325138 -2.4347734
119.31639 -56.386429 -2.5886972
118.94067 -54.310402 -2.6807959
118.91871 -54.341103 -2.4187369
118.87895 -54.358788 -1.9796469
118.86154 -54.392818 -1.7628379
118.85986 -54.438351 -1.7024193
118.86489 -54.488785 -1.7086852
118.87263 -54.541203 -1.7419424
118.8815 -54.59444 -1.7863135
118.88453 -54.643414 -1.7727329
118.88804 -54.692741 -1.7639153
118.89011 -54.741013 -1.7408082
118.89698 -54.792793 -1.7653329
118.90233 -54.84346 -1.7747743
118.9052 -54.892319 -1.7596058
118.90871 -54.941643 -1.7507883
118.9131 -54.991608 -1.7507032
118.91462 -55.039474 -1.7220392
118.92356 -55.09277 -1.7672043
118.93123 -55.14513 -1.7996676
118.93521 -55.194805 -1.7956133
118.89162 -55.209686 -1.3184179
118.88451 -55.251251 -1.2040168
118.88515 -55.298473 -1.1666204
118.8893 -55.348267 -1.1641538
118.89433 -55.398701 -1.1704197
118.9043 -55.452751 -1.2259047
118.91325 -55.50605 -1.2710698
118.92323 -55.560104 -1.326555
118.93272 -55.613804 -1.377277
118.94167 -55.667099 -1.4224421
118.95253 -55.721798 -1.4866598
118.9633 -55.776436 -1.5500835
118.97408 -55.83107 -1.6135073
118.9847 -55.885593 -1.6753434
118.99612 -55.940697 -1.7451181
119.00889 -55.996796 -1.8283885
119.02094 -56.052364 -1.904514
119.0346 -56.109104 -1.9965168
119.04897 -56.166367 -2.0956643
119.06358 -56.223804 -2.1971934
119.08058 -56.282997 -2.3225384
119.09727 -56.341957 -2.4447079
119.11763 -56.403595 -2.603395
118.79646 -54.133656 -3.4564371
118.8018 -54.184326 -3.4658785
118.80659 -54.234585 -3.4697628
118.81082 -54.284435 -3.4680896
118.74127 -54.280346 -2.7328899
118.74535 -54.330078 -2.7296293
118.71014 -54.351089 -2.3357894
118.65831 -54.359962 -1.7768265
118.6663 -54.412556 -1.8124652
118.67236 -54.463749 -1.8290511
118.67619 -54.513306 -1.8234091
118.67963 -54.562576 -1.8137978
118.68442 -54.612835 -1.8176821
118.68609 -54.660816 -1.7906058
118.6912 -54.711308 -1.7976654
118.69527 -54.761044 -1.7944049
118.69727 -54.809258 -1.770504
118.70078 -54.858585 -1.7616866
118.70493 -54.908379 -1.7592199
118.70788 -54.957291 -1.7448454
118.71571 -55.009769 -1.7788963
118.70915 -55.051743 -1.6700523
118.72608 -55.11087 -1.7946035
118.73103 -55.161247 -1.8000755
118.72145 -55.201 -1.6610649
118.6927 -55.226742 -1.3315276
118.68495 -55.267834 -1.2107756
118.68711 -55.31617 -1.1884625
118.69054 -55.365433 -1.1788512
118.69604 -55.416218 -1.1898803
118.70675 -55.470798 -1.2525101
118.71561 -55.524033 -1.2968813
118.72471 -55.577446 -1.343634
118.73469 -55.6315 -1.3991191
118.74499 -55.685787 -1.4577799
118.75425 -55.739315 -1.5061204
118.76527 -55.794128 -1.5719256
118.77548 -55.848358 -1.6297925
118.78698 -55.903519 -1.700361
118.79808 -55.958389 -1.7669603
118.80894 -56.013084 -1.8311779
118.82251 -56.069767 -1.9223869
118.836 -56.126389 -2.0128019
118.85061 -56.18383 -2.114331
118.8653 -56.241325 -2.2166538
118.88255 -56.30069 -2.3443806
118.90147 -56.361282 -2.4887781
118.92175 -56.422867 -2.6466713
118.55666 -53.653252 -3.5005641
118.56217 -53.704037 -3.5115933
118.56656 -53.754005 -3.511508
118.57151 -53.804382 -3.5169802
118.57558 -53.854115 -3.5137196
118.57949 -53.903732 -3.5088716
118.58405 -53.953815 -3.5103741
118.58836 -54.003727 -3.509495
118.5921 -54.053226 -3.5030594
118.59642 -54.103134 -3.5021803
118.59993 -54.152458 -3.4933629
118.604 -54.202194 -3.4901023
118.60767 -54.251637 -3.4828725
118.61182 -54.30143 -3.4804058
118.61573 -54.351044 -3.4755578
118.54698 -54.347538 -2.7482963
118.55065 -54.39698 -2.7410667
118.46977 -54.384602 -1.8931383
118.4669 -54.429256 -1.820812
118.46889 -54.477474 -1.796911
118.47432 -54.528198 -1.8071463
118.47879 -54.578224 -1.8078551
118.48318 -54.628193 -1.8077701
118.48853 -54.67886 -1.8172113
118.49316 -54.729004 -1.8195078
118.49587 -54.777744 -1.8027517
118.49962 -54.827244 -1.7963158
118.50529 -54.878143 -1.8089325
118.50768 -54.926655 -1.789001
118.50808 -54.973701 -1.7492229
118.51279 -55.023903 -1.7523131
118.5179 -55.074394 -1.7593729
118.52788 -55.128448 -1.8148582
118.53067 -55.17725 -1.798896
118.52412 -55.219219 -1.690052
118.49402 -55.243965 -1.3470192
118.48731 -55.28582 -1.2365874
118.48835 -55.333336 -1.2031603
118.49249 -55.383129 -1.2006936
118.49785 -55.433796 -1.210135
118.50735 -55.487499 -1.2608569
118.51677 -55.541145 -1.3107852
118.52555 -55.594322 -1.3543624
118.53616 -55.648842 -1.4161985
118.5451 -55.702137 -1.4613636
118.55524 -55.75631 -1.5184364
118.56602 -55.810944 -1.5818602
118.57736 -55.86599 -1.650841
118.58774 -55.920338 -1.7102954
118.59924 -55.975498 -1.7808641
118.61177 -56.031422 -1.8617529
118.62406 -56.08717 -1.9402599
118.63804 -56.144142 -2.0354381
118.65297 -56.201813 -2.1401427
118.66653 -56.258492 -2.2313516
118.68227 -56.31675 -2.3439949
118.70087 -56.37711 -2.4852171
118.7205 -56.438225 -2.6367593
118.3532 -53.573463 -3.5559187
118.35735 -53.623257 -3.553452
118.36078 -53.672523 -3.5438404
118.36453 -53.722023 -3.537405
118.36893 -53.771992 -3.5373197
118.37267 -53.821491 -3.5308838
118.37778 -53.871986 -3.5379434
118.38194 -53.921776 -3.5354769
118.38512 -53.970867 -3.523484
118.38968 -54.02095 -3.5249863
118.39399 -54.070862 -3.5241075
118.3979 -54.120476 -3.5192595
118.40157 -54.169922 -3.5120296
118.40556 -54.219597 -3.5079753
118.40843 -54.268456 -3.4928069
118.41362 -54.319004 -3.5006604
118.41841 -54.369263 -3.5045447
118.39957 -54.402245 -3.2734461
118.30223 -54.377838 -2.2619827
118.27397 -54.403931 -1.9372087
118.27181 -54.449112 -1.872027
118.27333 -54.496979 -1.8433629
118.27724 -54.546593 -1.8385148
118.28099 -54.596092 -1.8320789
118.28546 -54.646118 -1.8327878
118.29017 -54.69632 -1.835878
118.29328 -54.745354 -1.8230911
118.29599 -54.794094 -1.8063351
118.29942 -54.843361 -1.7967237
118.3035 -54.893097 -1.7934632
118.30893 -54.943821 -1.8036983
118.31395 -54.994255 -1.8099642
118.31395 -55.041012 -1.7662168
118.32194 -55.093605 -1.8018556
118.32944 -55.145851 -1.832731
118.33415 -55.196053 -1.8358215
118.3387 -55.246136 -1.8373243
118.29646 -55.262009 -1.3736246
118.28975 -55.303864 -1.2631927
118.29063 -55.351265 -1.2281778
118.2947 -55.400997 -1.2249174
118.2998 -55.451488 -1.2319772
118.30987 -55.5056 -1.2882562
118.31841 -55.558601 -1.3294519
118.32775 -55.61219 -1.3785861
118.33741 -55.666012 -1.4308959
118.34715 -55.719887 -1.4839995
118.35689 -55.773766 -1.5371032
118.36766 -55.828403 -1.6005269
118.37876 -55.883278 -1.6671262
118.38994 -55.938206 -1.7345192
118.39999 -55.992317 -1.7907984
118.41229 -56.048065 -1.8693056
118.42626 -56.105038 -1.9644837
118.43761 -56.160084 -2.0334644
118.45333 -56.218338 -2.1461077
118.46714 -56.275192 -2.2396982
118.48367 -56.334034 -2.36028
118.50323 -56.395096 -2.5110285
118.52383 -56.456913 -2.6720972
118.15508 -53.591103 -3.5769672
118.15923 -53.640892 -3.5745008
118.16282 -53.690277 -3.5664771
118.16697 -53.740067 -3.5640106
118.17176 -53.790329 -3.5678947
118.17519 -53.839592 -3.5582833
118.17974 -53.889679 -3.5597861
118.18325 -53.939003 -3.5509686
118.187 -53.988503 -3.5445328
118.1918 -54.038765 -3.5484166
118.1953 -54.088089 -3.5395994
118.1981 -54.136887 -3.5236373
118.20225 -54.18668 -3.5211706
118.20632 -54.236412 -3.51791
118.21015 -54.285973 -3.5122676
118.21326 -54.335007 -3.4994812
118.21861 -54.385674 -3.5089223
118.20081 -54.419411 -3.2881441
118.11162 -54.400963 -2.3576543
118.07082 -54.417889 -1.9082441
118.07289 -54.466164 -1.8851372
118.07544 -54.514786 -1.8667934
118.07919 -54.564285 -1.8603574
118.08334 -54.614079 -1.8578908
118.08853 -54.664631 -1.8657445
118.09173 -54.713722 -1.8537514
118.09595 -54.763573 -1.8520786
118.10011 -54.813366 -1.849612
118.10266 -54.861988 -1.8312682
118.10625 -54.911373 -1.8232446
118.11032 -54.961109 -1.819984
118.11535 -55.011539 -1.8262498
118.11998 -55.061684 -1.8285463
118.12613 -55.112938 -1.8459263
118.13116 -55.163368 -1.8521922
118.13387 -55.212112 -1.8354361
118.13826 -55.262077 -1.8353511
118.0981 -55.279472 -1.3922918
118.09027 -55.320507 -1.270746
118.09219 -55.368668 -1.2460513
118.09578 -55.418049 -1.2380276
118.10088 -55.46854 -1.2450874
118.11086 -55.522594 -1.3005724
118.12061 -55.576473 -1.3536761
118.12923 -55.629536 -1.3956656
118.13937 -55.683704 -1.4527385
118.14886 -55.737408 -1.5034606
118.15924 -55.791756 -1.5629152
118.16914 -55.845749 -1.6176064
118.18016 -55.900562 -1.6834118
118.19102 -55.955257 -1.7476294
118.20316 -56.010887 -1.824549
118.21513 -56.066399 -1.8998806
118.22702 -56.121857 -1.9744185
118.23964 -56.177834 -2.0561011
118.25473 -56.235626 -2.1623933
118.26926 -56.293007 -2.2631288
118.28603 -56.35202 -2.3860919
118.30566 -56.413139 -2.5376344
118.32347 -56.472912 -2.670918
118.3455 -56.535782 -2.8462758
118.3744 -56.603672 -3.0899062
117.95703 -53.608795 -3.5988097
117.96103 -53.65847 -3.5947556
117.96518 -53.70826 -3.592289
117.96853 -53.757469 -3.5818834
117.97308 -53.807556 -3.5833864
117.97595 -53.856411 -3.5682178
117.97962 -53.905853 -3.5609882
117.98441 -53.956112 -3.5648725
117.9892 -54.006371 -3.5687566
117.992 -54.055172 -3.5527942
117.9967 -54.105373 -3.5558848
117.99375 -54.149971 -3.4827645
118.00612 -54.205776 -3.5620656
118.00892 -54.254574 -3.546103
118.01179 -54.303432 -3.5309348
118.01586 -54.353165 -3.5276742
118.01937 -54.402493 -3.518857
118.02352 -54.452286 -3.5163903
118.02783 -54.502193 -3.5155115
117.8727 -54.435524 -1.9292929
117.87453 -54.483624 -1.9038041
117.87708 -54.532249 -1.8854604
117.88068 -54.581631 -1.8774366
117.8849 -54.631481 -1.8757639
117.89089 -54.682617 -1.8915561
117.89392 -54.73159 -1.8779755
117.89896 -54.782024 -1.8842412
117.90182 -54.830883 -1.8690728
117.9051 -54.880032 -1.8578738
117.90662 -54.927898 -1.8292098
117.91324 -54.9795 -1.8513527
117.91723 -55.029175 -1.8472984
117.92226 -55.079613 -1.8535643
117.92585 -55.128994 -1.8455406
117.9268 -55.176453 -1.8113196
117.9415 -55.233948 -1.9136426
117.94309 -55.281876 -1.8857725
117.89957 -55.296814 -1.4093709
117.89319 -55.338902 -1.3021147
117.89407 -55.386299 -1.2670999
117.89758 -55.435623 -1.2582823
117.90141 -55.485184 -1.2526402
117.91283 -55.540287 -1.3224149
117.92152 -55.593407 -1.3651984
117.93103 -55.64711 -1.4159203
117.94044 -55.700756 -1.4658486
117.95051 -55.754868 -1.5221276
117.95961 -55.808281 -1.5688803
117.97158 -55.863792 -1.644212
117.98156 -55.917847 -1.6996971
117.99377 -55.973534 -1.7774105
118.004 -56.027763 -1.8352773
118.01693 -56.083977 -1.9201354
118.02866 -56.139317 -1.9930855
118.04304 -56.196579 -2.0922332
118.05749 -56.253902 -2.1921744
118.07074 -56.310349 -2.2802079
118.08646 -56.368607 -2.3928511
118.1049 -56.428848 -2.5324855
118.12207 -56.488155 -2.6594181
117.76035 -53.62748 -3.6341476
117.76546 -53.677971 -3.6412075
117.7677 -53.726364 -3.619688
117.77241 -53.776566 -3.6227784
117.77663 -53.826416 -3.6211057
117.78302 -53.877842 -3.6408672
117.78574 -53.926582 -3.6241112
117.78661 -53.97398 -3.5890961
117.791 -54.023949 -3.589011
117.79556 -54.074036 -3.5905137
117.79858 -54.123009 -3.5769329
117.80146 -54.171867 -3.5617647
117.80505 -54.221249 -3.553741
117.8092 -54.271042 -3.5512743
117.81335 -54.320835 -3.5488081
117.81734 -54.37051 -3.5447536
117.82166 -54.420418 -3.5438745
117.8266 -54.470795 -3.5493464
117.83051 -54.520409 -3.5444984
117.67154 -54.450939 -1.9201745
117.67258 -54.498455 -1.8867471
117.67641 -54.548016 -1.8811051
117.68056 -54.597809 -1.8786385
117.68455 -54.647484 -1.8745842
117.68886 -54.697392 -1.8737054
117.69341 -54.747475 -1.8752078
117.69748 -54.797211 -1.8719473
117.70004 -54.845833 -1.8536036
117.7037 -54.895275 -1.8463738
117.70666 -54.944191 -1.8319993
117.71169 -54.994625 -1.8382651
117.71623 -55.044708 -1.8397678
117.72374 -55.096954 -1.8706433
117.72917 -55.147682 -1.8808784
117.7354 -55.19899 -1.8990521
117.74442 -55.252342 -1.9450111
117.74577 -55.300091 -1.9147594
117.7017 -55.314625 -1.4328009
117.69379 -55.355602 -1.3104613
117.69554 -55.403645 -1.2841787
117.69866 -55.452675 -1.2713921
117.70337 -55.502876 -1.2744825
117.71358 -55.557106 -1.3323492
117.72317 -55.610867 -1.3838651
117.73275 -55.664631 -1.4353809
117.74113 -55.717514 -1.4749889
117.75167 -55.771976 -1.5360312
117.76109 -55.825623 -1.5859594
117.77219 -55.880493 -1.6525586
117.78288 -55.935074 -1.7151885
117.79398 -55.989944 -1.7817878
117.80603 -56.045513 -1.8579134
117.81777 -56.100853 -1.9308635
117.82919 -56.15596 -2.000638
117.8426 -56.212521 -2.0902596
117.85665 -56.269554 -2.1862314
117.87174 -56.327339 -2.2925239
117.88882 -56.386589 -2.4186625
117.9044 -56.444733 -2.5297182
117.92683 -56.507893 -2.7090454
117.56047 -53.643829 -3.6377313
117.5659 -53.694557 -3.6479664
117.5683 -53.743065 -3.6280346
117.57524 -53.794899 -3.6533537
117.58131 -53.846092 -3.6699395
117.58035 -53.892151 -3.6166658
117.58266 -53.940598 -3.5959401
117.58649 -53.990158 -3.5902982
117.59064 -54.039948 -3.5878315
117.59447 -54.089508 -3.5821893
117.59863 -54.139301 -3.5797229
117.60254 -54.188919 -3.5748746
117.60653 -54.238594 -3.5708203
117.61052 -54.288269 -3.566766
117.61475 -54.33812 -3.565093
117.61866 -54.387733 -3.560245
117.62297 -54.437645 -3.5593662
117.62696 -54.48732 -3.5553117
117.63103 -54.537056 -3.5520511
117.63551 -54.587082 -3.5527599
117.47301 -54.515041 -1.8935064
117.47629 -54.56419 -1.8823072
117.48012 -54.613747 -1.8766651
117.48483 -54.663948 -1.8797555
117.48779 -54.712868 -1.865381
117.49425 -54.764351 -1.8859364
117.49768 -54.813618 -1.8763249
117.50287 -54.86417 -1.8841784
117.50582 -54.913086 -1.8698039
117.51045 -54.963226 -1.8721006
117.51564 -55.013779 -1.8799541
117.51987 -55.063629 -1.8782811
117.52586 -55.114765 -1.8940734
117.53185 -55.165901 -1.9098656
117.53791 -55.217094 -1.9264517
117.54182 -55.266708 -1.9216034
117.54789 -55.317902 -1.9381895
117.50294 -55.331795 -1.4474986
117.49742 -55.374523 -1.3489747
117.49686 -55.420872 -1.2996703
117.50069 -55.470428 -1.2940283
117.50533 -55.520569 -1.296325
117.51482 -55.574272 -1.3470469
117.52432 -55.627979 -1.397769
117.53383 -55.681683 -1.4484909
117.54381 -55.735733 -1.5039761
117.55354 -55.789612 -1.5570798
117.56313 -55.843376 -1.6085957
117.57382 -55.897953 -1.6712255
117.58412 -55.95224 -1.7298861
117.59586 -56.00758 -1.8028363
117.60648 -56.062099 -1.8646724
117.61821 -56.117439 -1.9376225
117.63058 -56.173244 -2.0169234
117.64424 -56.22998 -2.1089263
117.65821 -56.286957 -2.2041044
117.6729 -56.344452 -2.3064275
117.68967 -56.403469 -2.4293909
117.70898 -56.464352 -2.5777578
117.36579 -53.663979 -3.6929154
117.36882 -53.712952 -3.6793351
117.37225 -53.762218 -3.6697235
117.3875 -53.820126 -3.7776036
117.38399 -53.864311 -3.6989262
117.38143 -53.909203 -3.6297755
117.38415 -53.957943 -3.6130192
117.38821 -54.007675 -3.6097589
117.39197 -54.057175 -3.603323
117.39604 -54.106911 -3.6000624
117.40027 -54.156761 -3.5983896
117.40402 -54.206261 -3.5919538
117.40825 -54.256111 -3.590281
117.41232 -54.305847 -3.5870204
117.41639 -54.355579 -3.5837598
117.42054 -54.405373 -3.5812931
117.42445 -54.454987 -3.5764451
117.4286 -54.50478 -3.5739784
117.43275 -54.554573 -3.5715117
117.2765 -54.487087 -1.974179
117.27698 -54.534195 -1.9351951
117.27977 -54.582993 -1.9192326
117.28503 -54.633602 -1.9278802
117.28934 -54.683514 -1.9270012
117.29198 -54.732193 -1.9094514
117.29773 -54.783154 -1.9228619
117.30267 -54.83353 -1.9283338
117.30603 -54.882736 -1.9179286
117.30954 -54.932064 -1.909111
117.31441 -54.982384 -1.9137893
117.31641 -55.030598 -1.8898884
117.3231 -55.082256 -1.9128251
117.3251 -55.130474 -1.8889244
117.33389 -55.183651 -1.9325017
117.33939 -55.234436 -1.9435307
117.34251 -55.28347 -1.9307439
117.34785 -55.334137 -1.9401852
117.30434 -55.349079 -1.4637839
117.29955 -55.392334 -1.3724046
117.29874 -55.438507 -1.3207188
117.30273 -55.488182 -1.3166645
117.30785 -55.538673 -1.323724
117.31702 -55.592144 -1.3712707
117.32565 -55.645203 -1.4132602
117.33539 -55.699081 -1.4663638
117.34528 -55.753078 -1.5210552
117.35423 -55.806374 -1.5662202
117.36493 -55.860954 -1.6288502
117.37506 -55.915123 -1.6859231
117.386 -55.969879 -1.7509345
117.39694 -56.024632 -1.8159461
117.40811 -56.079559 -1.8833392
117.41953 -56.134666 -1.9531139
117.43311 -56.191345 -2.0443227
117.44468 -56.246567 -2.1156852
117.46001 -56.304531 -2.224359
117.47446 -56.361855 -2.3243005
117.49051 -56.420345 -2.440119
117.51031 -56.481579 -2.5932491
117.52667 -56.540302 -2.7122431
117.18562 -53.881775 -3.7175932
117.18331 -53.926838 -3.6508241
117.18618 -53.975693 -3.6356556
117.18993 -54.025192 -3.6292195
117.194 -54.074928 -3.6259589
117.19791 -54.124546 -3.6211109
117.20183 -54.174164 -3.6162627
117.20614 -54.224072 -3.6153839
117.21013 -54.273746 -3.6113296
117.2142 -54.323483 -3.6080689
117.21827 -54.373215 -3.6048088
117.22226 -54.42289 -3.6007543
117.22633 -54.472626 -3.5974936
117.23032 -54.522301 -3.5934391
117.23535 -54.572735 -3.5997052
117.07638 -54.503262 -1.9753814
117.07645 -54.550079 -1.9324276
117.07981 -54.599285 -1.9220225
117.08459 -54.649544 -1.9259068
117.08891 -54.699455 -1.9250278
117.09561 -54.751114 -1.9479649
117.09865 -54.800087 -1.934384
117.10287 -54.849937 -1.9327112
117.10679 -54.899559 -1.9278631
117.11046 -54.948997 -1.9206333
117.11429 -54.998558 -1.9149913
117.11916 -55.048874 -1.9196692
117.12331 -55.098667 -1.9172028
117.12994 -55.150269 -1.9393457
117.13385 -55.199886 -1.9344976
117.14071 -55.251663 -1.9590223
117.14686 -55.302917 -1.9764022
117.14877 -55.351074 -1.9517075
117.10686 -55.36718 -1.491183
117.1003 -55.409149 -1.3823391
117.10054 -55.456085 -1.3409734
117.10469 -55.505875 -1.3385068
117.10852 -55.555435 -1.3328648
117.11867 -55.609604 -1.3899375
117.12936 -55.664181 -1.4525676
117.13695 -55.716484 -1.484237
117.14716 -55.770714 -1.5421038
117.15555 -55.823601 -1.5817118
117.16673 -55.878529 -1.6491048
117.17662 -55.932526 -1.7037961
117.18764 -55.987339 -1.7696015
117.19738 -56.041214 -1.8227051
117.20935 -56.096729 -1.8980368
117.22365 -56.153934 -1.9963906
117.23499 -56.208981 -2.0653713
117.24712 -56.26461 -2.1422908
117.26149 -56.321877 -2.2414384
117.27737 -56.380249 -2.3556693
117.29031 -56.436462 -2.4405272
117.31027 -56.497814 -2.5952451
117.32911 -56.558346 -2.7388487
116.98503 -53.897598 -3.7140322
116.98431 -53.943829 -3.6631401
116.98758 -53.992981 -3.6519408
116.99141 -54.042538 -3.6462989
116.99564 -54.092388 -3.6446261
116.99971 -54.142124 -3.6413655
117.00387 -54.191914 -3.6388988
117.0077 -54.241474 -3.6332569
117.01192 -54.291325 -3.6315842
117.01591 -54.341 -3.6275301
117.01999 -54.390732 -3.624269
117.02398 -54.440407 -3.6202149
117.02821 -54.490257 -3.6185422
117.03148 -54.53941 -3.6073432
117.03563 -54.589203 -3.6048765
116.87897 -54.521423 -2.0035744
116.88049 -54.56929 -1.9749107
116.88384 -54.618496 -1.9645052
116.88863 -54.668755 -1.9683895
116.89414 -54.719543 -1.9794186
116.89758 -54.768806 -1.9698073
116.90164 -54.818542 -1.9665468
116.90611 -54.868568 -1.9672555
116.91074 -54.918709 -1.969552
116.91386 -54.967743 -1.9567652
116.91721 -55.016953 -1.9463601
116.91832 -55.064526 -1.9137268
116.92159 -55.113674 -1.9025275
116.92654 -55.164051 -1.9079995
116.93253 -55.215187 -1.9237916
116.95289 -55.276829 -2.0824788
116.95936 -55.328316 -2.103034
116.96494 -55.379158 -2.1148572
116.90889 -55.384933 -1.5138196
116.90259 -55.427078 -1.407357
116.90258 -55.473835 -1.3636097
116.90593 -55.523045 -1.3532045
116.91048 -55.573128 -1.3547072
116.91975 -55.626656 -1.4030477
116.92908 -55.680241 -1.4521818
116.93922 -55.734413 -1.5092547
116.94856 -55.787998 -1.5583892
116.95831 -55.841877 -1.6114928
116.96716 -55.895115 -1.655864
116.97771 -55.949577 -1.7169061
116.98952 -56.004974 -1.79065
116.9995 -56.059029 -1.8461353
117.01099 -56.114189 -1.9167038
117.02297 -56.169701 -1.9920356
117.03606 -56.226032 -2.0784812
117.04868 -56.282013 -2.1601639
117.06297 -56.339218 -2.2585175
117.0771 -56.396309 -2.3552835
117.09323 -56.454857 -2.4718959
117.11167 -56.515099 -2.6115305
117.13091 -56.575924 -2.7591033
117.14783 -56.635056 -2.8836546
116.78843 -53.916344 -3.7501638
116.78603 -53.961349 -3.6826005
116.78914 -54.010384 -3.6698139
116.79314 -54.060059 -3.6657596
116.79704 -54.109673 -3.6609113
116.80104 -54.159348 -3.6568568
116.80527 -54.209198 -3.6551843
116.80942 -54.258991 -3.6527176
116.81357 -54.308784 -3.6502509
116.81764 -54.358517 -3.6469903
116.6427 -54.27737 -1.8638942
116.82578 -54.457985 -3.6404693
116.82977 -54.50766 -3.636415
116.834 -54.55751 -3.6347423
116.68301 -54.493877 -2.0898046
116.68277 -54.540459 -2.0436754
116.68493 -54.588791 -2.0213625
116.68804 -54.637825 -2.0085754
116.69115 -54.686859 -1.9957888
116.69411 -54.735775 -1.9814143
116.69794 -54.785336 -1.9757723
116.70184 -54.834953 -1.970924
116.70663 -54.885212 -1.9748081
116.70983 -54.934303 -1.9628152
116.71374 -54.983917 -1.957967
116.71709 -55.033127 -1.9475619
116.72044 -55.082336 -1.9371567
116.72308 -55.13102 -1.9196064
116.72858 -55.181801 -1.9306355
116.73402 -55.232529 -1.9408708
116.75661 -55.295807 -2.1217859
116.76052 -55.345425 -2.1169376
116.76682 -55.396793 -2.1359053
116.71021 -55.402161 -1.5293109
116.70271 -55.443428 -1.4109404
116.70454 -55.491528 -1.3854518
116.70773 -55.540619 -1.3734589
116.71165 -55.590237 -1.3686109
116.7217 -55.644348 -1.4248898
116.73016 -55.697292 -1.4652915
116.73991 -55.751171 -1.5183952
116.74949 -55.804932 -1.5699111
116.75923 -55.85881 -1.6230147
116.76785 -55.911873 -1.6650044
116.77982 -55.967384 -1.7403359
116.79052 -56.021965 -1.8029659
116.80186 -56.077011 -1.8719468
116.81319 -56.132057 -1.9409276
116.8243 -56.186928 -2.0075269
116.83682 -56.242851 -2.0884156
116.84952 -56.298889 -2.1708922
116.86517 -56.357086 -2.2827413
116.87938 -56.414234 -2.3803012
116.89526 -56.472607 -2.4945321
116.91164 -56.531334 -2.6135261
116.9304 -56.591805 -2.756336
116.59055 -53.934155 -3.7735939
116.58871 -53.979568 -3.7115879
116.59102 -54.028019 -3.6908624
116.59453 -54.077343 -3.682045
116.59869 -54.127136 -3.6795781
116.60291 -54.176987 -3.6779056
116.60683 -54.226601 -3.6730571
116.61082 -54.276276 -3.669003
116.6152 -54.326244 -3.6689181
116.61928 -54.375977 -3.665657
116.62366 -54.425945 -3.6655726
116.62742 -54.475445 -3.6591363
116.63157 -54.525238 -3.6566696
116.63588 -54.575146 -3.6557908
116.48481 -54.511456 -2.1100593
116.48513 -54.558445 -2.0694873
116.48752 -54.606953 -2.0495558
116.4908 -54.656105 -2.0383565
116.49399 -54.705193 -2.0263636
116.49782 -54.754753 -2.0207217
116.50149 -54.804195 -2.0134919
116.50588 -54.854164 -2.0134068
116.50875 -54.903023 -1.9982383
116.51242 -54.952461 -1.9910085
116.51585 -55.001732 -1.9813972
116.51936 -55.051056 -1.9725797
116.52304 -55.100494 -1.9653497
116.52711 -55.15023 -1.9620895
116.53461 -55.202473 -1.9929649
116.54164 -55.254368 -2.0190773
116.55704 -55.312393 -2.128545
116.56208 -55.362823 -2.1348109
116.5667 -55.412968 -2.1371074
116.51249 -55.420086 -1.5543284
116.5081 -55.463634 -1.4669188
116.50618 -55.508987 -1.4041188
116.50969 -55.558311 -1.3953013
116.51369 -55.607986 -1.391247
116.52326 -55.661751 -1.4427629
116.533 -55.71563 -1.4958667
116.54091 -55.768166 -1.5307113
116.55096 -55.822277 -1.5869904
116.5603 -55.875862 -1.6361247
116.57076 -55.930267 -1.6963731
116.58202 -55.985256 -1.7645601
116.59184 -56.039192 -1.8184574
116.60206 -56.093422 -1.8763242
116.61331 -56.148407 -1.9445113
116.62505 -56.203747 -2.0174613
116.6387 -56.260487 -2.1094642
116.65172 -56.316757 -2.195116
116.66361 -56.372215 -2.2696538
116.68094 -56.431633 -2.3981743
116.69691 -56.490067 -2.5131991
116.71439 -56.54961 -2.6433072
116.73459 -56.611134 -2.8004065
116.7496 -56.668869 -2.9059048
116.39139 -53.997787 -3.7405748
116.39275 -54.045536 -3.7103233
116.39649 -54.095036 -3.7038875
116.40057 -54.144768 -3.7006269
116.40456 -54.194443 -3.6965723
116.40855 -54.244118 -3.6925182
116.41254 -54.293797 -3.6884637
116.41669 -54.34359 -3.6859972
116.42108 -54.393555 -3.6859121
116.42483 -54.443054 -3.6794763
116.42882 -54.492729 -3.6754217
116.43353 -54.542931 -3.6785121
116.43824 -54.593132 -3.6816027
116.28669 -54.529091 -2.1311078
116.28621 -54.575497 -2.0825973
116.28909 -54.624355 -2.0674291
116.293 -54.673973 -2.0625806
116.29635 -54.723179 -2.0521755
116.30002 -54.772621 -2.0449457
116.30457 -54.822708 -2.0464482
116.308 -54.871971 -2.0368371
116.31175 -54.921474 -2.0304008
116.31383 -54.969749 -2.0072939
116.31837 -55.019833 -2.0087967
116.32125 -55.068691 -1.9936283
116.32364 -55.117199 -1.9736967
116.32771 -55.166931 -1.9704361
116.33322 -55.217716 -1.9814651
116.33873 -55.268501 -1.9924941
116.36005 -55.330845 -2.1607075
116.36412 -55.380577 -2.1574471
116.36883 -55.430779 -2.1605377
116.31453 -55.43784 -1.5769651
116.30711 -55.479168 -1.4593885
116.30742 -55.526157 -1.4188166
116.31094 -55.575481 -1.4099991
116.31572 -55.62574 -1.4138833
116.32466 -55.679035 -1.4590484
116.33417 -55.732738 -1.5097703
116.34351 -55.786327 -1.5589046
116.35284 -55.839912 -1.6080389
116.36275 -55.893906 -1.6627302
116.37312 -55.948254 -1.7221849
116.38286 -56.002132 -1.7752883
116.3934 -56.056595 -1.8363305
116.40458 -56.111526 -1.9037237
116.41623 -56.166801 -1.97588
116.42813 -56.22226 -2.0504179
116.44074 -56.278236 -2.1321003
116.45304 -56.333984 -2.2106078
116.46677 -56.390781 -2.3034041
116.48218 -56.448803 -2.4128718
116.49775 -56.506943 -2.5239275
116.51451 -56.56596 -2.6468909
116.53239 -56.625793 -2.7809682
116.19302 -54.015247 -3.7592421
116.1943 -54.062939 -3.7281964
116.19813 -54.112495 -3.7225542
116.2022 -54.162228 -3.7192936
116.20603 -54.211788 -3.7136517
116.21034 -54.261696 -3.7127728
116.21442 -54.311432 -3.7095122
116.21832 -54.361046 -3.7046642
116.22256 -54.410896 -3.702991
116.22647 -54.460518 -3.6981435
116.2307 -54.510368 -3.6964703
116.23469 -54.560043 -3.692416
116.23956 -54.610359 -3.6970942
116.08337 -54.542931 -2.1005554
116.08498 -54.590855 -2.0726852
116.08824 -54.640007 -2.061486
116.09144 -54.689095 -2.0494931
116.09232 -54.736496 -2.0144782
116.10094 -54.789558 -2.056468
116.10493 -54.839233 -2.0524135
116.109 -54.888966 -2.0491529
116.11291 -54.938583 -2.0443048
116.11658 -54.988026 -2.037075
116.11977 -55.037117 -2.0250821
116.12321 -55.086384 -2.0154707
116.1272 -55.136059 -2.0114162
116.13167 -55.186085 -2.0121253
116.1371 -55.236809 -2.0223603
116.15546 -55.296993 -2.1612008
116.16129 -55.348011 -2.1754053
116.16551 -55.397865 -2.1737325
116.15649 -55.438023 -2.0402789
116.11449 -55.454071 -1.5789607
116.11217 -55.499138 -1.5121914
116.10946 -55.543907 -1.4414527
116.11249 -55.592884 -1.4278722
116.11672 -55.642735 -1.4261994
116.12726 -55.697197 -1.4872415
116.13541 -55.749908 -1.5244682
116.14426 -55.803146 -1.5688391
116.15456 -55.85743 -1.6274998
116.16463 -55.911545 -1.6837789
116.1734 -55.964722 -1.7273562
116.18466 -56.019707 -1.7955432
116.1952 -56.074173 -1.8565853
116.2043 -56.127583 -1.903338
116.21755 -56.184029 -1.9913715
116.22897 -56.239136 -2.0611463
116.24222 -56.295582 -2.1491799
116.25484 -56.351563 -2.2308621
116.26865 -56.408417 -2.3244526
116.28278 -56.465504 -2.4212186
116.29947 -56.524464 -2.5433884
116.31727 -56.584236 -2.676672
115.99546 -54.033291 -3.7858477
115.99602 -54.080456 -3.7476573
115.99969 -54.129898 -3.7404275
116.00385 -54.179688 -3.7379608
116.00791 -54.229424 -3.7347002
116.01206 -54.279217 -3.7322335
116.01589 -54.328773 -3.7265916
116.01997 -54.37851 -3.7233312
116.02412 -54.428299 -3.7208648
116.02811 -54.477974 -3.7168102
116.03226 -54.527767 -3.7143435
116.03633 -54.577503 -3.7110829
116.04079 -54.627525 -3.711792
115.88917 -54.563427 -2.1605031
115.88853 -54.609718 -2.1104047
115.89188 -54.658924 -2.0999999
115.89491 -54.707901 -2.0864189
115.89915 -54.757751 -2.0847461
115.90369 -54.807835 -2.0862489
115.90585 -54.856167 -2.0639358
115.91104 -54.906719 -2.0717893
115.91151 -54.953827 -2.032805
115.91711 -55.004669 -2.0446279
115.92213 -55.055103 -2.0508938
115.92445 -55.103554 -2.0301685
115.92804 -55.152939 -2.0221448
115.93147 -55.202202 -2.0125332
115.93929 -55.254681 -2.0465841
115.95862 -55.315563 -2.1949511
115.96284 -55.365414 -2.1932783
115.9666 -55.414917 -2.1868424
115.97115 -55.465 -2.1883452
115.94089 -55.489632 -1.8437247
115.91805 -55.519691 -1.572933
115.9111 -55.561371 -1.4601197
115.91437 -55.610519 -1.4489207
115.91828 -55.660137 -1.4440725
115.92898 -55.714714 -1.5067025
115.93672 -55.767136 -1.5399594
115.94702 -55.821423 -1.5986202
115.95493 -55.873959 -1.6334651
115.96498 -55.92807 -1.689744
115.97504 -55.982182 -1.7460232
115.9855 -56.036583 -1.8062713
115.99644 -56.091339 -1.8712829
116.0069 -56.145744 -1.9315313
116.01895 -56.201317 -2.0076571
116.03101 -56.256886 -2.0837827
116.04354 -56.312809 -2.1646709
116.05615 -56.36879 -2.2463541
116.06901 -56.424942 -2.3304179
116.08315 -56.482033 -2.4271839
116.10094 -56.541805 -2.5604675
116.11771 -56.600822 -2.6834309
116.13751 -56.662056 -2.836561
116.15987 -56.725159 -3.0150945
115.7829 -53.853333 -3.8381968
115.78394 -53.900848 -3.8047695
115.78984 -53.951927 -3.819768
115.79566 -54.002945 -3.833972
115.79838 -54.051685 -3.8172159
115.79838 -54.098442 -3.7734687
115.80157 -54.147533 -3.7614758
115.80556 -54.197208 -3.7574215
115.80956 -54.246883 -3.7533669
115.81371 -54.296677 -3.7509003
115.81761 -54.346294 -3.7460523
115.8216 -54.395969 -3.741998
115.82568 -54.445702 -3.7387376
115.82983 -54.495495 -3.7362704
115.83374 -54.545113 -3.7314224
115.83797 -54.594963 -3.7297497
115.8426 -54.645103 -3.7320461
115.68889 -54.579487 -2.1601171
115.68953 -54.626709 -2.1227207
115.6916 -54.674984 -2.0996139
115.69576 -54.724777 -2.097147
115.69926 -54.774101 -2.0883296
115.70309 -54.823662 -2.0826876
115.70717 -54.873394 -2.0794272
115.71307 -54.924469 -2.0944254
115.71451 -54.972279 -2.0649674
115.71779 -55.021427 -2.0537682
115.72489 -55.07338 -2.0806746
115.72824 -55.122589 -2.0702693
115.72688 -55.168354 -2.0130262
115.73479 -55.220886 -2.0478711
115.74022 -55.271614 -2.0581062
115.76105 -55.333607 -2.2215564
115.76416 -55.382641 -2.2087698
115.76855 -55.43261 -2.2086847
115.77135 -55.481407 -2.1927223
115.74197 -55.506683 -1.8568344
115.72017 -55.537502 -1.5963629
115.71274 -55.578831 -1.4787865
115.71537 -55.627514 -1.4612366
115.72112 -55.678471 -1.4746473
115.7299 -55.731651 -1.5182245
115.73733 -55.783836 -1.548306
115.74731 -55.837891 -1.6037912
115.75672 -55.891533 -1.6537194
115.76694 -55.945763 -1.7115862
115.77692 -55.999817 -1.7670715
115.78666 -56.053696 -1.8201749
115.79688 -56.107925 -1.8780417
115.8087 -56.163322 -1.9517858
115.81955 -56.218018 -2.0160036
115.83201 -56.27388 -2.0960984
115.8451 -56.330208 -2.182544
115.85756 -56.386074 -2.262639
115.87017 -56.442055 -2.3443215
115.88534 -56.499901 -2.4514077
115.90195 -56.5588 -2.5727835
115.91751 -56.61694 -2.6838388
115.93795 -56.678642 -2.8433199
115.5831 -53.869743 -3.8425741
115.58597 -53.918602 -3.8274059
115.59291 -53.970436 -3.8527241
115.59587 -54.019352 -3.8383496
115.5993 -54.068619 -3.8287382
115.60089 -54.116543 -3.8008683
115.60337 -54.165108 -3.7817307
115.6072 -54.214668 -3.7760882
115.61135 -54.264462 -3.7736216
115.61543 -54.314194 -3.7703614
115.61942 -54.363869 -3.7663069
115.62325 -54.413429 -3.7606649
115.6274 -54.463219 -3.7581983
115.63146 -54.512955 -3.7549376
115.63561 -54.562748 -3.752471
115.63992 -54.612656 -3.7515922
115.64352 -54.662041 -3.7435684
115.49541 -54.600506 -2.2272098
115.49461 -54.646683 -2.1755238
115.49628 -54.694664 -2.1484473
115.49987 -54.744049 -2.1404238
115.50322 -54.793255 -2.1300185
115.50562 -54.841763 -2.1100869
115.50929 -54.891205 -2.1028571
115.5144 -54.941696 -2.1099167
115.51863 -54.991547 -2.1082439
115.52126 -55.04023 -2.090694
115.52501 -55.089729 -2.0842581
115.53028 -55.140343 -2.0929055
115.53307 -55.18914 -2.0769432
115.5385 -55.239864 -2.0871787
115.53027 -55.280609 -1.9616634
115.56078 -55.349667 -2.2211709
115.56748 -55.401325 -2.2441077
115.57092 -55.450592 -2.2344966
115.57419 -55.499744 -2.2232974
115.54584 -55.525776 -1.8977293
115.52173 -55.554901 -1.6142361
115.51462 -55.596466 -1.499835
115.51773 -55.645496 -1.4870484
115.52284 -55.695992 -1.4941081
115.53114 -55.748817 -1.532922
115.54025 -55.802231 -1.579675
115.54903 -55.855408 -1.6232522
115.55828 -55.908936 -1.6715926
115.5685 -55.963165 -1.7294594
115.57761 -56.016575 -1.7762122
115.58854 -56.071331 -1.8412237
115.599 -56.125732 -1.9014719
115.60905 -56.179848 -1.957751
115.62096 -56.235298 -2.032289
115.63301 -56.290871 -2.1084146
115.64467 -56.346153 -2.1805708
115.65903 -56.403416 -2.2797182
115.67229 -56.459862 -2.3677516
115.68754 -56.517769 -2.4756317
115.70222 -56.575268 -2.5779548
115.71939 -56.634575 -2.7048874
115.73695 -56.694176 -2.8357892
115.76091 -56.758446 -3.0302
115.38234 -53.885452 -3.8374252
115.38657 -53.935303 -3.8357525
115.39192 -53.98597 -3.8451934
115.3979 -54.037106 -3.8609858
115.40206 -54.086899 -3.8585191
115.40669 -54.137039 -3.8608158
115.40677 -54.183853 -3.817862
115.40948 -54.232597 -3.801106
115.41331 -54.282154 -3.7954638
115.41722 -54.331772 -3.7906156
115.42113 -54.38139 -3.7857676
115.4252 -54.431122 -3.7825069
115.42904 -54.480682 -3.776865
115.43327 -54.530533 -3.7751923
115.4375 -54.580383 -3.7735195
115.4418 -54.630291 -3.7726405
115.44659 -54.68055 -3.7765248
115.29976 -54.619953 -2.2728677
115.29848 -54.665775 -2.2164187
115.29824 -54.712357 -2.1702895
115.30191 -54.761799 -2.1630597
115.3059 -54.811474 -2.1590054
115.30862 -54.860214 -2.1422493
115.31046 -54.908314 -2.1167607
115.31596 -54.959099 -2.1277895
115.32043 -55.009125 -2.1284986
