# .PCD v0.7 - Point Cloud Data file format
VERSION 0.7
FIELDS x y z
SIZE 4 4 4
TYPE F F F
COUNT 1 1 1
WIDTH 1655
HEIGHT 1
VIEWPOINT 0 0 0 1 0 0 0
POINTS 1655
DATA ascii
4.8554459 0.86542511 0.86080003
4.8054466 0.8660965 0.85519999
4.755455 0.86676025 0.83600003
4.7054596 0.86743164 0.77280003
4.6554642 0.86810303 0.7216
4.6054688 0.86876678 0.66720003
4.5554695 0.86943817 0.61519998
4.5054741 0.87010956 0.54960001
4.4554825 0.87077332 0.49759999
4.4054871 0.8714447 0.4224
4.3554916 0.87211609 0.35839999
4.3054924 0.87277985 0.3048
4.255497 0.87345123 0.18880001
4.2055016 0.87412262 0.1136
4.1555099 0.87478638 0.024
4.1055145 0.87545776 -0.066399999
4.0555153 0.87612915 -0.17200001
6.6079636 1.0419998 0.3344
6.55797 1.0426712 0.37200001
6.5079727 1.043335 0.44159999
6.4579773 1.0440063 0.4456
6.4079838 1.0446777 0.4368
6.3579865 1.0453491 0.43520001
6.307991 1.0460129 0.43759999
6.2579956 1.0466843 0.43920001
6.2080002 1.0473557 0.44
6.1580048 1.0480194 0.4368
6.1080093 1.0486908 0.4384
6.0580139 1.0493622 0.43360001
6.0080166 1.0500259 0.43200001
5.9580231 1.0506973 0.42879999
5.9080276 1.0513687 0.43279999
5.8580303 1.0520325 0.43200001
5.8080368 1.0527039 0.43200001
5.7580395 1.0533752 0.43520001
5.708046 1.054039 0.43200001
5.6580505 1.0547104 0.43599999
5.6080532 1.0553818 0.4368
5.5580597 1.0560455 0.43279999
5.5080624 1.0567169 0.43520001
5.4580669 1.0573883 0.43759999
5.4080734 1.0580521 0.44
5.3580761 1.0587234 0.44319999
5.3080807 1.0593948 0.44479999
5.2580853 1.0600586 0.45280001
5.2080898 1.06073 0.45680001
5.1580944 1.0614014 0.4648
5.108099 1.0620651 0.47839999
5.0581036 1.0627365 0.4808
5.0081081 1.0634079 0.72240001
4.9581127 1.0640793 0.74800003
4.9081173 1.064743 0.8592
4.8581219 1.0654144 0.8624
4.8081226 1.0660858 0.86400002
4.758131 1.0667496 0.84320003
4.7081356 1.067421 0.7784
4.6581402 1.0680923 0.72799999
4.6081448 1.0687561 0.67360002
4.5581455 1.0694275 0.62239999
4.5081501 1.0700989 0.56080002
4.4581585 1.0707626 0.4928
4.4081631 1.071434 0.43759999
4.3581676 1.0721054 0.3536
4.3081684 1.0727692 0.29280001
4.258173 1.0734406 0.19840001
4.2081776 1.0741119 0.12800001
4.158186 1.0747757 0.043200001
4.1081886 1.0754471 -0.059999999
4.0581894 1.0761185 -0.1768
4.008194 1.0767822 -0.29359999
3.9581985 1.0774536 -0.38159999
6.6106396 1.2419815 0.3224
6.5606461 1.2426529 0.3488
6.5106487 1.2433167 0.4208
6.4606533 1.243988 0.42719999
6.4106598 1.2446594 0.428
6.3606625 1.2453308 0.4224
6.310667 1.2459946 0.4296
6.2606716 1.246666 0.42879999
6.2106762 1.2473373 0.41839999
6.1606808 1.2480011 0.42160001
6.1106853 1.2486725 0.42160001
6.0606899 1.2493439 0.4192
6.0106926 1.2500076 0.41999999
5.9606991 1.250679 0.41600001
5.9107037 1.2513504 0.4136
5.8607063 1.2520142 0.41440001
5.8107128 1.2526855 0.41999999
5.7607155 1.2533569 0.41280001
5.710722 1.2540207 0.412
5.6607265 1.2546921 0.41999999
5.6107292 1.2553635 0.4224
5.5607357 1.2560272 0.41600001
5.5107384 1.2566986 0.41760001
5.460743 1.25737 0.43279999
5.4107494 1.2580338 0.43439999
5.3607521 1.2587051 0.43599999
5.3107567 1.2593765 0.4296
5.2607613 1.2600403 0.43279999
5.2107658 1.2607117 0.4472
5.1607704 1.2613831 0.456
5.110775 1.2620468 0.4576
5.0607796 1.2627182 0.47279999
5.0107841 1.2633896 0.71759999
4.9607887 1.264061 0.74879998
4.9107933 1.2647247 0.86159998
4.8607979 1.2653961 0.85680002
4.8107986 1.2660675 0.86320001
4.760807 1.2667313 0.83359998
4.7108116 1.2674026 0.7784
4.6608162 1.268074 0.71679997
4.6108208 1.2687378 0.6728
4.5608215 1.2694092 0.62080002
4.5108261 1.2700806 0.55839998
4.4608345 1.2707443 0.48640001
4.4108391 1.2714157 0.41839999
4.3608437 1.2720871 0.352
4.3108444 1.2727509 0.27520001
4.260849 1.2734222 0.19599999
4.2108536 1.2740936 0.1136
4.160862 1.2747574 0.022399999
4.1108665 1.2754288 -0.071999997
4.0608673 1.2761002 -0.1648
4.0108719 1.2767639 -0.24160001
6.6133156 1.4419556 0.308
6.5633221 1.442627 0.32640001
6.5133247 1.4432907 0.39680001
6.4633293 1.4439621 0.4104
6.4133358 1.4446335 0.40560001
6.3633385 1.4453049 0.40959999
6.313343 1.4459686 0.40560001
6.2633476 1.44664 0.40239999
6.2133522 1.4473114 0.40400001
6.1633568 1.4479752 0.3944
6.1133614 1.4486465 0.3976
6.0633659 1.4493179 0.40000001
6.0133686 1.4499817 0.40079999
5.9633751 1.4506531 0.3944
5.9133797 1.4513245 0.39840001
5.8633823 1.4519882 0.39199999
5.8133888 1.4526596 0.4048
5.7633915 1.453331 0.40079999
5.713398 1.4539948 0.40079999
5.6634026 1.4546661 0.39680001
5.6134052 1.4553375 0.39919999
5.5634117 1.4560013 0.40720001
5.5134144 1.4566727 0.4032
5.463419 1.4573441 0.40720001
5.4134254 1.4580078 0.40880001
5.3634281 1.4586792 0.412
5.3134327 1.4593506 0.41760001
5.2634373 1.4600143 0.42640001
5.2134418 1.4606857 0.43520001
5.1634464 1.4613571 0.43200001
5.113451 1.4620209 0.4456
5.0634556 1.4626923 0.4664
5.0134602 1.4633636 0.71679997
4.9634647 1.464035 0.7712
4.9134693 1.4646988 0.8592
4.8634739 1.4653702 0.85439998
4.8134747 1.4660416 0.85519999
4.763483 1.4667053 0.8272
4.7134876 1.4673767 0.76639998
4.6634922 1.4680481 0.71679997
4.6134968 1.4687119 0.6728
4.5634975 1.4693832 0.60640001
4.5135021 1.4700546 0.5456
4.4635105 1.4707184 0.48320001
4.4135151 1.4713898 0.41839999
4.3635197 1.4720612 0.352
4.3135204 1.4727249 0.28560001
4.263525 1.4733963 0.192
4.2135296 1.4740677 0.1192
4.163538 1.4747314 0.030400001
4.1135406 1.4754028 -0.082400002
4.0635414 1.4760742 -0.2032
4.013546 1.476738 -0.30559999
3.9635506 1.4774094 -0.45120001
3.913559 1.4780807 -0.59600002
6.6159916 1.6419449 0.30320001
6.5659981 1.6426163 0.33840001
6.5160007 1.64328 0.40239999
6.4660053 1.6439514 0.39919999
6.4160118 1.6446228 0.4048
6.3660145 1.6452942 0.40560001
6.3160191 1.6459579 0.40079999
6.2660236 1.6466293 0.40000001
6.2160282 1.6473007 0.38159999
6.1660328 1.6479645 0.38960001
6.1160374 1.6486359 0.39199999
6.0660419 1.6493073 0.39120001
6.0160446 1.649971 0.38640001
5.9660511 1.6506424 0.39039999
5.9160557 1.6513138 0.38800001
5.8660583 1.6519775 0.38319999
5.8160648 1.6526489 0.3856
5.7660675 1.6533203 0.38
5.716074 1.6539841 0.38319999
5.6660786 1.6546555 0.3944
5.6160812 1.6553268 0.39840001
5.5660877 1.6559906 0.3888
5.5160904 1.656662 0.40079999
5.466095 1.6573334 0.4048
5.4161015 1.6579971 0.40799999
5.3661041 1.6586685 0.4136
5.3161087 1.6593399 0.41760001
5.2661133 1.6600037 0.4152
5.2161179 1.660675 0.43040001
5.1661224 1.6613464 0.43040001
5.116127 1.6620102 0.44159999
5.0661316 1.6626816 0.44400001
5.0161362 1.663353 0.71439999
4.9661407 1.6640244 0.83200002
4.9161453 1.6646881 0.8624
4.8661499 1.6653595 0.86400002
4.8161507 1.6660309 0.85680002
4.7661591 1.6666946 0.82560003
4.7161636 1.667366 0.7784
4.6661682 1.6680374 0.72240001
4.6161728 1.6687012 0.66079998
4.5661736 1.6693726 0.61119998
4.5161781 1.6700439 0.55199999
4.4661865 1.6707077 0.4752
4.4161911 1.6713791 0.43040001
4.3661957 1.6720505 0.34959999
4.3161964 1.6727142 0.27759999
4.266201 1.6733856 0.19599999
4.2162056 1.674057 0.097599998
4.166214 1.6747208 0.0392
4.1162186 1.6753922 -0.069600001
4.0662193 1.6760635 -0.184
4.0162239 1.6767273 -0.2744
6.6186657 1.8419189 0.2816
6.5686722 1.8425903 0.30239999
6.5186749 1.8432541 0.37760001
6.4686794 1.8439255 0.384
6.4186859 1.8445969 0.38640001
6.3686886 1.8452682 0.38479999
6.3186932 1.845932 0.384
6.2686977 1.8466034 0.36880001
6.2187023 1.8472748 0.37599999
6.1687069 1.8479385 0.37279999
6.1187115 1.8486099 0.37279999
6.068716 1.8492813 0.368
6.0187187 1.8499451 0.368
5.9687252 1.8506165 0.36880001
5.9187298 1.8512878 0.368
5.8687325 1.8519516 0.37040001
5.8187389 1.852623 0.36719999
5.7687416 1.8532944 0.37360001
5.7187481 1.8539581 0.38
5.6687527 1.8546295 0.37279999
5.6187553 1.8553009 0.38
5.5687618 1.8559647 0.37920001
5.5187645 1.856636 0.3752
5.4687691 1.8573074 0.39359999
5.4187756 1.8579712 0.3944
5.3687782 1.8586426 0.39199999
5.3187828 1.859314 0.3976
5.2687874 1.8599777 0.40239999
5.218792 1.8606491 0.40720001
5.1687965 1.8613205 0.4152
5.1188011 1.8619843 0.42879999
5.0688057 1.8626556 0.42399999
5.0188103 1.863327 0.71920002
4.9688148 1.8639984 0.8416
4.9188194 1.8646622 0.86080003
4.868824 1.8653336 0.8592
4.8188248 1.8660049 0.85439998
4.7688332 1.8666687 0.82319999
4.7188377 1.8673401 0.7608
4.6688423 1.8680115 0.73760003
4.6188469 1.8686752 0.6688
4.5688477 1.8693466 0.60479999
4.5188522 1.870018 0.54159999
4.4688606 1.8706818 0.46799999
4.4188652 1.8713531 0.41999999
4.3688698 1.8720245 0.35120001
4.3188705 1.8726883 0.26640001
4.2688751 1.8733597 0.1944
4.2188797 1.8740311 0.097599998
4.1688881 1.8746948 0.0016
4.1188927 1.8753662 -0.0744
4.0688934 1.8760376 -0.21600001
4.018898 1.8767014 -0.3184
3.9689026 1.8773727 -0.46799999
6.6213417 2.0419083 0.2656
6.5713482 2.0425797 0.2816
6.5213509 2.0432434 0.3448
6.4713554 2.0439148 0.36399999
6.4213619 2.0445862 0.3664
6.3713646 2.0452576 0.3608
6.3213692 2.0459213 0.35600001
6.2713737 2.0465927 0.35600001
6.2213783 2.0472641 0.35679999
6.1713829 2.0479279 0.35839999
6.1213875 2.0485992 0.35679999
6.0713921 2.0492706 0.35679999
6.0213947 2.0499344 0.3592
5.9714012 2.0506058 0.35600001
5.9214058 2.0512772 0.34799999
5.8714085 2.0519409 0.35600001
5.8214149 2.0526123 0.35280001
5.7714176 2.0532837 0.34959999
5.7214241 2.0539474 0.35519999
5.6714287 2.0546188 0.36160001
5.6214314 2.0552902 0.36160001
5.5714378 2.055954 0.3608
5.5214405 2.0566254 0.3592
5.4714451 2.0572968 0.37200001
5.4214516 2.0579605 0.36399999
5.3714542 2.0586319 0.3768
5.3214588 2.0593033 0.38479999
5.2714634 2.059967 0.38479999
5.221468 2.0606384 0.396
5.1714725 2.0613098 0.40079999
5.1214771 2.0619736 0.41440001
5.0714817 2.062645 0.4048
5.0214863 2.0633163 0.71920002
4.9714909 2.0639877 0.84640002
4.9214954 2.0646515 0.85519999
4.8715 2.0653229 0.86000001
4.8215008 2.0659943 0.84560001
4.7715092 2.066658 0.81199998
4.7215137 2.0673294 0.7568
4.6715183 2.0680008 0.7112
4.6215229 2.0686646 0.67199999
4.5715237 2.0693359 0.59600002
4.5215282 2.0700073 0.53119999
4.4715366 2.0706711 0.46880001
4.4215412 2.0713425 0.4064
4.3715458 2.0720139 0.33520001
4.3215466 2.0726776 0.2472
4.2715511 2.073349 0.1752
4.2215557 2.0740204 0.092799999
4.1715641 2.0746841 0.0024000001
4.1215706 2.0753555 -0.087200001
4.0715714 2.0760269 -0.2272
4.0215759 2.0766907 -0.3312
3.9715805 2.0773621 -0.47040001
6.6240177 2.24189 0.25119999
6.5740242 2.2425613 0.2712
6.5240269 2.2432251 0.3136
6.4740314 2.2438965 0.3504
6.4240379 2.2445679 0.34560001
6.3740406 2.2452393 0.35440001
6.3240452 2.245903 0.34799999
6.2740498 2.2465744 0.3432
6.2240543 2.2472458 0.34720001
6.1740589 2.2479095 0.34639999
6.1240635 2.2485809 0.3432
6.0740681 2.2492523 0.34400001
6.0240707 2.2499161 0.34079999
5.9740772 2.2505875 0.33919999
5.9240818 2.2512589 0.34240001
5.8740845 2.2519226 0.34
5.824091 2.252594 0.34
5.7740936 2.2532654 0.34079999
5.7241001 2.2539291 0.3432
5.6741047 2.2546005 0.34079999
5.6241074 2.2552719 0.34639999
5.5741138 2.2559357 0.34959999
5.5241165 2.2566071 0.34959999
5.4741211 2.2572784 0.35679999
5.4241276 2.2579422 0.3576
5.3741302 2.2586136 0.35440001
5.3241348 2.259285 0.3664
5.2741394 2.2599487 0.36480001
5.224144 2.2606201 0.3768
5.1741486 2.2612915 0.37760001
5.1241531 2.2619553 0.39359999
5.0741577 2.2626266 0.68879998
5.0241623 2.263298 0.72000003
4.9741669 2.2639694 0.8448
4.9241714 2.2646332 0.85600001
4.874176 2.2653046 0.84799999
4.8241768 2.265976 0.85439998
4.7741852 2.2666397 0.80559999
4.7241898 2.2673111 0.75199997
4.6741943 2.2679825 0.69919997
4.6241989 2.2686462 0.63840002
4.5741997 2.2693176 0.57920003
4.5242043 2.269989 0.51279998
4.4742126 2.2706528 0.45280001
4.4242172 2.2713242 0.396
4.3742218 2.2719955 0.31760001
4.3242226 2.2726593 0.2464
4.2742271 2.2733307 0.1672
4.2242317 2.2740021 0.0744
4.1742401 2.2746658 -0.019200001
4.1242447 2.2753372 -0.116
4.0742455 2.2760086 -0.2368
4.02425 2.2766724 -0.3256
6.5767002 2.4425354 0.2536
6.5267029 2.4431992 0.30880001
6.4767075 2.4438705 0.336
6.4267139 2.4445419 0.33199999
6.3767166 2.4452133 0.33199999
6.3267212 2.4458771 0.3272
6.2767258 2.4465485 0.3328
6.2267303 2.4472198 0.33520001
6.1767349 2.4478836 0.32879999
6.1267395 2.448555 0.32319999
6.0767441 2.4492264 0.3312
6.0267467 2.4498901 0.3328
5.9767532 2.4505615 0.32879999
5.9267578 2.4512329 0.3272
5.8767605 2.4518967 0.33039999
5.826767 2.4525681 0.3272
5.7767696 2.4532394 0.32879999
5.7267761 2.4539032 0.3256
5.6767807 2.4545746 0.3256
5.6267834 2.455246 0.32879999
5.5767899 2.4559097 0.33680001
5.5267925 2.4565811 0.33680001
5.4767971 2.4572525 0.34400001
5.4268036 2.4579163 0.34
5.3768063 2.4585876 0.33840001
5.3268108 2.459259 0.3504
5.2768154 2.4599228 0.35280001
5.22682 2.4605942 0.3664
5.1768246 2.4612656 0.3696
5.1268291 2.4619293 0.3872
5.0768337 2.4626007 0.71600002
5.0268383 2.4632721 0.72399998
4.9768429 2.4639435 0.84799999
4.9268475 2.4646072 0.85600001
4.876852 2.4652786 0.85839999
4.8268528 2.46595 0.84960002
4.7768612 2.4666138 0.7992
4.7268658 2.4672852 0.73760003
4.6768703 2.4679565 0.68879998
4.6268749 2.4686203 0.63840002
4.5768757 2.4692917 0.5848
4.5268803 2.4699631 0.51599997
4.4768887 2.4706268 0.44800001
4.4268932 2.4712982 0.37599999
4.3768978 2.4719696 0.3184
4.3268986 2.4726334 0.23360001
4.2769032 2.4733047 0.148
4.2269077 2.4739761 0.0616
4.1769161 2.4746399 -0.0264
4.1269207 2.4753113 -0.1376
4.0769234 2.4759827 -0.24879999
4.0269279 2.4766464 -0.36000001
3.9769325 2.4773178 -0.51679999
6.6293697 2.6418533 0.2104
6.5793762 2.6425247 0.2472
6.5293789 2.6431885 0.30880001
6.4793835 2.6438599 0.3152
6.42939 2.6445313 0.31600001
6.3793926 2.6452026 0.31040001
6.3293972 2.6458664 0.31760001
6.2794018 2.6465378 0.31760001
6.2294064 2.6472092 0.3096
6.1794109 2.6478729 0.31600001
6.1294155 2.6485443 0.3096
6.0794201 2.6492157 0.3008
6.0294228 2.6498795 0.3048
5.9794292 2.6505508 0.3136
5.9294338 2.6512222 0.31200001
5.8794365 2.651886 0.3152
5.829443 2.6525574 0.3184
5.7794456 2.6532288 0.32159999
5.7294521 2.6538925 0.3152
5.6794567 2.6545639 0.31279999
5.6294594 2.6552353 0.32159999
5.5794659 2.655899 0.32159999
5.5294685 2.6565704 0.31999999
5.4794731 2.6572418 0.32480001
5.4294796 2.6579056 0.3272
5.3794823 2.658577 0.32879999
5.3294868 2.6592484 0.33680001
5.2794914 2.6599121 0.33840001
5.229496 2.6605835 0.3504
5.1795006 2.6612549 0.36320001
5.1295052 2.6619186 0.3608
5.0795097 2.66259 0.70480001
5.0295143 2.6632614 0.73280001
4.9795189 2.6639328 0.85839999
4.9295235 2.6645966 0.85280001
4.879528 2.6652679 0.85439998
4.8295288 2.6659393 0.83520001
4.7795372 2.6666031 0.7816
4.7295418 2.6672745 0.72079998
4.6795464 2.6679459 0.67519999
4.6295509 2.6686096 0.61680001
4.5795517 2.669281 0.55680001
4.5295563 2.6699524 0.50480002
4.4795647 2.6706161 0.43040001
4.4295692 2.6712875 0.36880001
4.3795738 2.6719589 0.29120001
4.3295746 2.6726227 0.21600001
4.2795792 2.6732941 0.1312
4.2295837 2.6739655 0.044
4.1795921 2.6746292 -0.058400001
4.1295967 2.6753006 -0.1608
6.5820522 2.8425064 0.21600001
6.5320549 2.8431702 0.28560001
6.4820595 2.8438416 0.29840001
6.432066 2.8445129 0.3064
6.3820686 2.8451843 0.3008
6.3320732 2.8458481 0.2976
6.2820778 2.8465195 0.2992
6.2320824 2.8471909 0.296
6.1820869 2.8478546 0.30000001
6.1320915 2.848526 0.29440001
6.0820961 2.8491974 0.2976
6.0320988 2.8498611 0.296
5.9821053 2.8505325 0.29679999
5.9321098 2.8512039 0.292
5.8821125 2.8518677 0.29280001
5.832119 2.8525391 0.2976
5.7821217 2.8532104 0.3064
5.7321281 2.8538742 0.30320001
5.6821327 2.8545456 0.30239999
5.6321354 2.855217 0.30320001
5.5821419 2.8558807 0.31200001
5.5321445 2.8565521 0.3096
5.4821491 2.8572235 0.31439999
5.4321556 2.8578873 0.31200001
5.3821583 2.8585587 0.3224
5.3321629 2.85923 0.32800001
5.2821674 2.8598938 0.32480001
5.232172 2.8605652 0.33520001
5.1821766 2.8612366 0.3448
5.1321812 2.8619003 0.35280001
5.0821857 2.8625717 0.72479999
5.0321903 2.8632431 0.80320001
4.9821949 2.8639145 0.85600001
4.9321995 2.8645782 0.85519999
4.8822041 2.8652496 0.85280001
4.8322048 2.865921 0.81840003
4.7822132 2.8665848 0.75919998
4.7322178 2.8672562 0.70880002
4.6822224 2.8679276 0.66079998
4.6322269 2.8685913 0.60159999
4.5822277 2.8692627 0.53759998
4.5322323 2.8699341 0.4912
4.4822407 2.8705978 0.41839999
4.4322453 2.8712692 0.3576
4.3822498 2.8719406 0.2744
4.3322506 2.8726044 0.1864
4.2822552 2.8732758 0.1048
4.2322598 2.8739471 0.030400001
4.1822681 2.8746109 -0.069600001
4.1322727 2.8752823 -0.17200001
4.0822716 2.8759537 -0.2976
4.0322762 2.8766174 -0.43920001
3.9822807 2.8772888 -0.54879999
6.6347218 3.0418167 0.1848
6.5847282 3.0424881 0.1944
6.5347309 3.0431519 0.2608
6.4847355 3.0438232 0.2832
6.434742 3.0444946 0.28960001
6.3847446 3.045166 0.28400001
6.3347492 3.0458298 0.2816
6.2847538 3.0465012 0.28400001
6.2347584 3.0471725 0.2784
6.184763 3.0478363 0.28400001
6.1347675 3.0485077 0.27680001
6.0847721 3.0491791 0.27919999
6.0347748 3.0498428 0.2744
5.9847813 3.0505142 0.27200001
5.9347858 3.0511856 0.2744
5.8847885 3.0518494 0.28240001
5.834795 3.0525208 0.28080001
5.7847977 3.0531921 0.28080001
5.7348042 3.0538559 0.28639999
5.6848087 3.0545273 0.28639999
5.6348114 3.0551987 0.2872
5.5848179 3.0558624 0.29280001
5.5348206 3.0565338 0.29280001
5.4848251 3.0572052 0.3008
5.4348316 3.057869 0.3048
5.3848343 3.0585403 0.3048
5.3348389 3.0592117 0.31600001
5.2848434 3.0598755 0.3168
5.234848 3.0605469 0.3312
5.1848526 3.0612183 0.33680001
5.1348572 3.061882 0.32080001
5.0848618 3.0625534 0.72799999
5.0348663 3.0632248 0.84960002
4.9848709 3.0638962 0.85680002
4.9348755 3.0645599 0.85600001
4.8848801 3.0652313 0.8448
4.8348808 3.0659027 0.80879998
4.7848892 3.0665665 0.76160002
4.7348938 3.0672379 0.7008
4.6848984 3.0679092 0.64240003
4.634903 3.068573 0.57840002
4.5849037 3.0692444 0.528
4.5349083 3.0699158 0.46880001
4.4849167 3.0705795 0.39199999
4.4349213 3.0712509 0.32159999
4.3849258 3.0719223 0.2448
4.3349266 3.0725861 0.1728
4.2849312 3.0732574 0.090400003
4.2349358 3.0739288 -0.0152
4.1849442 3.0745926 -0.1312
4.1349487 3.075264 -0.2464
4.0849495 3.0759354 -0.3624
6.5874043 3.2424698 0.184
6.5374069 3.2431335 0.25040001
6.4874115 3.2438049 0.26719999
6.437418 3.2444763 0.26640001
6.3874207 3.2451477 0.26719999
6.3374252 3.2458115 0.2656
6.2874298 3.2464828 0.27599999
6.2374344 3.2471542 0.26320001
6.187439 3.247818 0.26640001
6.1374435 3.2484894 0.26480001
6.0874481 3.2491608 0.2696
6.0374508 3.2498245 0.26640001
5.9874573 3.2504959 0.26640001
5.9374619 3.2511673 0.2608
5.8874645 3.2518311 0.26719999
5.837471 3.2525024 0.26640001
5.7874737 3.2531738 0.2712
5.7374802 3.2538376 0.2744
5.6874847 3.254509 0.27360001
5.6374874 3.2551804 0.2816
5.5874939 3.2558441 0.27599999
5.5374966 3.2565155 0.28560001
5.4875011 3.2571869 0.2976
5.4375076 3.2578506 0.28560001
5.3875103 3.258522 0.29519999
5.3375149 3.2591934 0.30320001
5.2875195 3.2598572 0.30880001
5.237524 3.2605286 0.3168
5.1875286 3.2612 0.31760001
5.1375332 3.2618637 0.70719999
5.0875378 3.2625351 0.73199999
5.0375423 3.2632065 0.84960002
4.9875469 3.2638779 0.85360003
4.9375515 3.2645416 0.85360003
4.8875561 3.265213 0.8488
4.8375568 3.2658844 0.78719997
4.7875652 3.2665482 0.73360002
4.7375698 3.2672195 0.68400002
4.6875744 3.2678909 0.62
4.637579 3.2685547 0.57279998
4.5875797 3.2692261 0.51440001
4.5375843 3.2698975 0.44
4.4875927 3.2705612 0.3752
4.4375973 3.2712326 0.3008
4.3876019 3.271904 0.2208
4.3376026 3.2725677 0.1408
4.2876072 3.2732391 0.054400001
4.2376118 3.2739105 -0.039999999
4.1876202 3.2745743 -0.14399999
6.6400719 3.4417801 0.1328
6.5900784 3.4424515 0.1576
6.540081 3.4431152 0.2168
6.4900856 3.4437866 0.2568
6.4400921 3.444458 0.25279999
6.3900948 3.4451294 0.25920001
6.3400993 3.4457932 0.252
6.2901039 3.4464645 0.252
6.2401085 3.4471359 0.252
6.1901131 3.4477997 0.25119999
6.1401176 3.4484711 0.25999999
6.0901222 3.4491425 0.25279999
6.0401249 3.4498062 0.2552
5.9901314 3.4504776 0.2568
5.940136 3.451149 0.2568
5.8901386 3.4518127 0.25600001
5.8401451 3.4524841 0.2608
5.7901478 3.4531555 0.2608
5.7401543 3.4538193 0.26480001
5.6901588 3.4544907 0.2624
5.6401615 3.455162 0.26480001
5.590168 3.4558258 0.26879999
5.5401707 3.4564972 0.26719999
5.4901752 3.4571686 0.27919999
5.4401817 3.4578323 0.28
5.3901844 3.4585037 0.2872
5.340189 3.4591751 0.2872
5.2901936 3.4598389 0.29519999
5.2401981 3.4605103 0.30559999
5.1902027 3.4611816 0.29679999
5.1402073 3.4618454 0.71280003
5.0902119 3.4625168 0.85439998
5.0402164 3.4631882 0.85119998
4.990221 3.4638596 0.85680002
4.9402256 3.4645233 0.85600001
4.8902302 3.4651947 0.81840003
4.8402309 3.4658661 0.77280003
4.7902393 3.4665298 0.71280003
4.7402439 3.4672012 0.66720003
4.6902485 3.4678726 0.6024
4.6402531 3.4685364 0.54159999
4.5902538 3.4692078 0.47119999
4.5402584 3.4698792 0.4152
4.4902668 3.4705429 0.35280001
4.4402714 3.4712143 0.27759999
4.390276 3.4718857 0.1936
4.3402767 3.4725494 0.112
4.2902813 3.4732208 0.0024000001
4.2402859 3.4738922 -0.068000004
4.1902943 3.474556 -0.1928
6.6427479 3.6417618 0.1184
6.5927544 3.6424332 0.1488
6.542757 3.6430969 0.1992
6.4927616 3.6437683 0.228
6.4427681 3.6444397 0.2352
6.3927708 3.6451111 0.23360001
6.3427753 3.6457748 0.2368
6.2927799 3.6464462 0.2376
6.2427845 3.6471176 0.23280001
6.1927891 3.6477814 0.2344
6.1427937 3.6484528 0.236
6.0927982 3.6491241 0.2304
6.0428009 3.6497879 0.2392
5.9928074 3.6504593 0.2368
5.942812 3.6511307 0.236
5.8928146 3.6517944 0.236
5.8428211 3.6524658 0.2368
5.7928238 3.6531372 0.2456
5.7428303 3.653801 0.25279999
5.6928349 3.6544724 0.248
5.6428375 3.6551437 0.2456
5.592844 3.6558075 0.25279999
5.5428467 3.6564789 0.25760001
5.4928513 3.6571503 0.25920001
5.4428577 3.657814 0.26480001
5.3928604 3.6584854 0.2728
5.342865 3.6591568 0.2728
5.2928696 3.6598206 0.28080001
5.2428741 3.6604919 0.292
5.1928787 3.6611633 0.71600002
5.1428833 3.6618271 0.72799999
5.0928879 3.6624985 0.85759997
5.0428925 3.6631699 0.85759997
4.992897 3.6638412 0.85360003
4.9429016 3.664505 0.84719998
4.8929062 3.6651764 0.80479997
4.842907 3.6658478 0.74479997
4.7929153 3.6665115 0.68400002
4.7429199 3.6671829 0.64560002
4.6929245 3.6678543 0.57679999
4.6429291 3.6685181 0.5104
4.5929298 3.6691895 0.45039999
4.5429344 3.6698608 0.3928
4.4929428 3.6705246 0.31920001
4.4429474 3.671196 0.2368
4.392952 3.6718674 0.1592
4.3429527 3.6725311 0.075999998
4.2929573 3.6732025 -0.0264
4.2429619 3.6738739 -0.1216
4.1929703 3.6745377 -0.2448
6.6454239 3.8417435 0.1064
6.5954304 3.8424149 0.1328
6.545433 3.8430786 0.18719999
6.4954376 3.84375 0.2216
6.4454441 3.8444214 0.22400001
6.3954468 3.8450928 0.21600001
6.3454514 3.8457565 0.21520001
6.2954559 3.8464279 0.2264
6.2454605 3.8470993 0.22400001
6.1954651 3.8477631 0.2272
6.1454697 3.8484344 0.22400001
6.0954742 3.8491058 0.22480001
6.0454769 3.8497696 0.2208
5.9954834 3.850441 0.22400001
5.945488 3.8511124 0.2256
5.8954906 3.8517761 0.2272
5.8454971 3.8524475 0.2296
5.7954998 3.8531189 0.23280001
5.7455063 3.8537827 0.2368
5.6955109 3.854454 0.23280001
5.6455135 3.8551254 0.2384
5.59552 3.8557892 0.24079999
5.5455227 3.8564606 0.244
5.4955273 3.857132 0.248
5.4455338 3.8577957 0.25760001
5.3955364 3.8584671 0.25920001
5.345541 3.8591385 0.27520001
5.2955456 3.8598022 0.27599999
5.2455502 3.8604736 0.28080001
5.1955547 3.861145 0.71359998
5.1455593 3.8618088 0.84320003
5.0955639 3.8624802 0.84960002
5.0455685 3.8631516 0.85280001
4.995573 3.8638229 0.86080003
4.9455776 3.8644867 0.82080001
4.8955822 3.8651581 0.77280003
4.845583 3.8658295 0.708
4.7955914 3.8664932 0.66479999
4.7455959 3.8671646 0.61040002
4.6956005 3.867836 0.5456
4.6456051 3.8684998 0.4752
4.5956059 3.8691711 0.43279999
4.5456104 3.8698425 0.3488
4.4956188 3.8705063 0.2784
4.4456234 3.8711777 0.20640001
4.395628 3.8718491 0.1136
4.3456287 3.8725128 0.028000001
4.2956333 3.8731842 -0.0656
6.6480999 4.0417328 0.084799998
6.5981064 4.0424042 0.1128
6.5481091 4.0430679 0.1952
6.4981136 4.0437393 0.20559999
6.4481201 4.0444107 0.212
6.3981228 4.0450821 0.20559999
6.3481274 4.0457458 0.2112
6.2981319 4.0464172 0.2096
6.2481365 4.0470886 0.20640001
6.1981411 4.0477524 0.208
6.1481457 4.0484238 0.20720001
6.0981503 4.0490952 0.2088
6.0481529 4.0497589 0.20479999
5.9981594 4.0504303 0.21520001
5.948164 4.0511017 0.2128
5.8981667 4.0517654 0.21439999
5.8481731 4.0524368 0.2128
5.7981758 4.0531082 0.22400001
5.7481823 4.053772 0.22
5.6981869 4.0544434 0.21600001
5.6481895 4.0551147 0.2288
5.598196 4.0557785 0.2296
5.5481987 4.0564499 0.2352
5.4982033 4.0571213 0.2368
5.4482098 4.057785 0.248
5.3982124 4.0584564 0.25279999
5.348217 4.0591278 0.25999999
5.2982216 4.0597916 0.27520001
5.2482262 4.060463 0.68559998
5.1982307 4.0611343 0.72719997
5.1482353 4.0617981 0.85439998
5.0982399 4.0624695 0.86000001
5.0482445 4.0631409 0.85360003
4.9982491 4.0638123 0.83920002
4.9482536 4.064476 0.80080003
4.8982582 4.0651474 0.73839998
4.848259 4.0658188 0.6904
4.7982674 4.0664825 0.64160001
4.7482719 4.0671539 0.58319998
4.6982765 4.0678253 0.5104
4.6482811 4.0684891 0.46000001
4.5982819 4.0691605 0.384
4.5482864 4.0698318 0.3064
4.4982948 4.0704956 0.2376
4.4482994 4.071167 0.15360001
4.398304 4.0718384 0.075199999
4.3483047 4.0725021 -0.012
4.2983093 4.0731735 -0.12639999
6.7007732 4.2410355 0.071199998
6.6507759 4.2417068 0.075999998
6.6007824 4.2423782 0.1408
6.5507851 4.243042 0.18000001
6.5007896 4.2437134 0.18799999
6.4507961 4.2443848 0.1928
6.4007988 4.2450562 0.18719999
6.3508034 4.2457199 0.19760001
6.300808 4.2463913 0.1992
6.2508125 4.2470627 0.1912
6.2008171 4.2477264 0.192
6.1508217 4.2483978 0.1928
6.1008263 4.2490692 0.1912
6.0508289 4.249733 0.1912
6.0008354 4.2504044 0.1952
5.95084 4.2510757 0.2
5.9008427 4.2517395 0.19760001
5.8508492 4.2524109 0.2024
5.8008518 4.2530823 0.2088
5.7508583 4.253746 0.204
5.7008629 4.2544174 0.21439999
5.6508656 4.2550888 0.2192
5.600872 4.2557526 0.2216
5.5508747 4.256424 0.2272
5.5008793 4.2570953 0.23119999
5.4508858 4.2577591 0.2352
5.4008884 4.2584305 0.2384
5.350893 4.2591019 0.24959999
5.3008976 4.2597656 0.25279999
5.2509022 4.260437 0.72320002
5.2009068 4.2611084 0.85280001
5.1509113 4.2617722 0.85759997
5.1009159 4.2624435 0.85839999
5.0509205 4.2631149 0.8488
5.0009251 4.2637863 0.81840003
4.9509296 4.2644501 0.76560003
4.9009342 4.2651215 0.7112
4.850935 4.2657928 0.65600002
4.8009434 4.2664566 0.61119998
4.750948 4.267128 0.5352
4.7009525 4.2677994 0.48559999
4.6509571 4.2684631 0.42320001
4.6009579 4.2691345 0.3416
4.5509624 4.2698059 0.2624
4.5009708 4.2704697 0.1832
4.4509754 4.2711411 0.098399997
4.40098 4.2718124 0.02
6.7534447 4.4403534 0.058400001
6.7034492 4.4410172 0.057599999
6.6534519 4.4416885 0.1136
6.6034584 4.4423599 0.1744
6.5534611 4.4430237 0.1744
6.5034657 4.4436951 0.1768
6.4534721 4.4443665 0.176
6.4034748 4.4450378 0.1768
6.3534794 4.4457016 0.1744
6.303484 4.446373 0.1776
6.2534885 4.4470444 0.18080001
6.2034931 4.4477081 0.1848
6.1534977 4.4483795 0.1776
6.1035023 4.4490509 0.1824
6.0535049 4.4497147 0.17839999
6.0035114 4.450386 0.18080001
5.953516 4.4510574 0.1904
5.9035187 4.4517212 0.1856
5.8535252 4.4523926 0.18880001
5.8035278 4.453064 0.1936
5.7535343 4.4537277 0.18880001
5.7035389 4.4543991 0.2016
5.6535416 4.4550705 0.2032
5.603548 4.4557343 0.212
5.5535507 4.4564056 0.2112
5.5035553 4.457077 0.2216
5.4535618 4.4577408 0.22480001
5.4035645 4.4584122 0.2352
5.353569 4.4590836 0.25279999
5.3035736 4.4597473 0.7184
5.2535782 4.4604187 0.74000001
5.2035828 4.4610901 0.85759997
5.1535873 4.4617538 0.85680002
5.1035919 4.4624252 0.85600001
5.0535965 4.4630966 0.8344
5.0036011 4.463768 0.7816
4.9536057 4.4644318 0.736
4.9036102 4.4651031 0.67360002
4.853611 4.4657745 0.62
4.8036194 4.4664383 0.5632
4.753624 4.4671097 0.4928
4.7036285 4.4677811 0.42879999
4.6536331 4.4684448 0.37599999
4.6036339 4.4691162 0.29679999
4.5536385 4.4697876 0.2184
4.5036469 4.4704514 0.1392
4.4536514 4.4711227 0.040800001
4.403656 4.4717941 -0.048
4.3536568 4.4724579 -0.1464
4.3036613 4.4731293 -0.26320001
4.2536659 4.4738007 -0.37920001
6.8061142 4.6396713 0.048799999
6.7561207 4.6403427 0.046399999
6.7061253 4.6410065 0.093599997
6.6561279 4.6416779 0.1664
6.6061344 4.6423492 0.16240001
6.5561371 4.643013 0.1728
6.5061417 4.6436844 0.168
6.4561481 4.6443558 0.1728
6.4061508 4.6450272 0.1696
6.3561554 4.6456909 0.1688
6.30616 4.6463623 0.168
6.2561646 4.6470337 0.17200001
6.2061691 4.6476974 0.17039999
6.1561737 4.6483688 0.1736
6.1061783 4.6490402 0.1696
6.056181 4.649704 0.176
6.0061874 4.6503754 0.17120001
5.956192 4.6510468 0.1744
5.9061947 4.6517105 0.176
5.8562012 4.6523819 0.17200001
5.8062038 4.6530533 0.1752
5.7562103 4.653717 0.1816
5.7062149 4.6543884 0.18719999
5.6562176 4.6550598 0.19599999
5.6062241 4.6557236 0.19840001
5.5562267 4.656395 0.2104
5.5062313 4.6570663 0.212
5.4562378 4.6577301 0.2184
5.4062405 4.6584015 0.236
5.356245 4.6590729 0.2288
5.3062496 4.6597366 0.73040003
5.2562542 4.660408 0.85439998
5.2062588 4.6610794 0.86000001
5.1562634 4.6617432 0.86320001
5.1062679 4.6624146 0.84640002
5.0562725 4.6630859 0.80320001
5.0062771 4.6637573 0.74479997
4.9562817 4.6644211 0.68480003
4.9062862 4.6650925 0.63279998
4.856287 4.6657639 0.5704
4.8062954 4.6664276 0.51520002
4.7563 4.667099 0.44080001
4.7063046 4.6677704 0.39120001
4.6563091 4.6684341 0.3136
4.6063099 4.6691055 0.248
4.5563145 4.6697769 0.1584
4.5063229 4.6704407 0.080799997
4.4563274 4.6711121 -0.0080000004
4.406332 4.6717834 -0.1216
6.908783 4.8383102 0.081600003
6.8587875 4.838974 0.0176
6.8087902 4.8396454 0.068800002
6.7587967 4.8403168 0.088799998
6.7088013 4.8409805 0.16240001
6.6588039 4.8416519 0.16
6.6088104 4.8423233 0.15360001
6.5588131 4.8429871 0.1696
6.5088177 4.8436584 0.1592
6.4588242 4.8443298 0.1648
6.4088268 4.8450012 0.16240001
6.3588314 4.845665 0.1608
6.308836 4.8463364 0.16
6.2588406 4.8470078 0.1592
6.2088451 4.8476715 0.16
6.1588497 4.8483429 0.1664
6.1088543 4.8490143 0.1664
6.058857 4.849678 0.16320001
6.0088634 4.8503494 0.17039999
5.958868 4.8510208 0.1688
5.9088707 4.8516846 0.17039999
5.8588772 4.852356 0.17039999
5.8088799 4.8530273 0.176
5.7588863 4.8536911 0.176
5.7088909 4.8543625 0.18000001
5.6588936 4.8550339 0.184
5.6089001 4.8556976 0.18960001
5.5589027 4.856369 0.192
5.5089073 4.8570404 0.1992
5.4589138 4.8577042 0.2128
5.4089165 4.8583755 0.21600001
5.3589211 4.8590469 0.72479999
5.3089256 4.8597107 0.84640002
5.2589302 4.8603821 0.85439998
5.2089348 4.8610535 0.85280001
5.1589394 4.8617172 0.84719998
5.1089439 4.8623886 0.79839998
5.0589485 4.86306 0.7608
5.0089531 4.8637314 0.69599998
4.9589577 4.8643951 0.63679999
4.9089622 4.8650665 0.58560002
4.858963 4.8657379 0.52719998
4.8089714 4.8664017 0.4752
4.758976 4.8670731 0.396
4.7089806 4.8677444 0.32640001
4.6589851 4.8684082 0.2536
4.6089859 4.8690796 0.18000001
4.5589905 4.869751 0.088799998
4.5089989 4.8704147 0.0031999999
4.4590034 4.8710861 -0.092799999
7.0114479 5.0369568 0.0744
6.9614525 5.0376282 0.02
6.9114571 5.0382996 0.044
6.8614616 5.0389633 0.085600004
6.8114662 5.0396347 0.16240001
6.7614708 5.0403061 0.1496
6.7114754 5.0409698 0.1576
6.6614799 5.0416412 0.1576
6.6114845 5.0423126 0.16320001
6.5614891 5.0429764 0.164
6.5114937 5.0436478 0.1576
6.4614983 5.0443192 0.16159999
6.4115028 5.0449905 0.16240001
6.3615074 5.0456543 0.1568
6.311512 5.0463257 0.156
6.2615166 5.0469971 0.156
6.2115211 5.0476608 0.156
6.1615257 5.0483322 0.1592
6.1115303 5.0490036 0.1608
6.0615311 5.0496674 0.1648
6.0115395 5.0503387 0.15440001
5.961544 5.0510101 0.1584
5.9115448 5.0516739 0.1648
5.8615532 5.0523453 0.17039999
5.811554 5.0530167 0.176
5.7615623 5.0536804 0.1728
5.7115669 5.0543518 0.1736
5.6615677 5.0550232 0.1744
5.6115761 5.055687 0.1824
5.5615768 5.0563583 0.1816
5.5115814 5.0570297 0.2024
5.4615898 5.0576935 0.2176
5.4115906 5.0583649 0.72399998
5.3615952 5.0590363 0.86080003
5.3115997 5.0597 0.85519999
5.2616043 5.0603714 0.86479998
5.2116089 5.0610428 0.84960002
5.1616135 5.0617065 0.80239999
5.111618 5.0623779 0.76480001
5.0616226 5.0630493 0.704
5.0116272 5.0637207 0.64960003
4.9616318 5.0643845 0.59280002
4.9116364 5.0650558 0.54079998
4.8616371 5.0657272 0.4648
4.8116455 5.066391 0.3976
4.7616501 5.0670624 0.3488
4.7116547 5.0677338 0.25839999
4.6616592 5.0683975 0.2024
4.61166 5.0690689 0.1048
4.5616646 5.0697403 0.0080000004
4.511673 5.0704041 -0.075999998
4.4616776 5.0710754 -0.2176
4.4116821 5.0717468 -0.3592
4.3616829 5.0724106 -0.50080001
4.3116875 5.073082 -0.64160001
4.261692 5.0737534 -0.78240001
4.2117004 5.0744171 -0.83679998
7.1141148 5.2356033 0.093599997
7.0641193 5.2362747 0.024800001
7.0141239 5.2369385 0.032000002
6.9641285 5.2376099 0.078400001
6.9141331 5.2382813 0.15360001
6.8641376 5.238945 0.1568
6.8141403 5.2396164 0.1512
6.7641468 5.2402878 0.148
6.7141514 5.2409515 0.1496
6.6641541 5.2416229 0.156
6.6141605 5.2422943 0.1568
6.5641632 5.2429581 0.1504
6.5141678 5.2436295 0.16
6.4641743 5.2443008 0.16
6.4141769 5.2449722 0.1512
6.3641815 5.245636 0.1504
6.3141861 5.2463074 0.15360001
6.2641907 5.2469788 0.1568
6.2141953 5.2476425 0.15279999
6.1641998 5.2483139 0.15360001
6.1142044 5.2489853 0.15440001
6.0642071 5.249649 0.15440001
6.0142136 5.2503204 0.1504
5.9642181 5.2509918 0.1552
5.9142208 5.2516556 0.1584
5.8642273 5.252327 0.16320001
5.81423 5.2529984 0.1648
5.7642365 5.2536621 0.1664
5.714241 5.2543335 0.164
5.6642437 5.2550049 0.1664
5.6142502 5.2556686 0.168
5.5642529 5.25634 0.1816
5.5142574 5.2570114 0.1992
5.4642639 5.2576752 0.7288
5.4142666 5.2583466 0.84799999
5.3642712 5.2590179 0.85519999
5.3142757 5.2596817 0.8592
5.2642803 5.2603531 0.85119998
5.2142849 5.2610245 0.8064
5.1642895 5.2616882 0.7712
5.1142941 5.2623596 0.70480001
5.0642986 5.263031 0.66079998
5.0143032 5.2637024 0.58560002
4.9643078 5.2643661 0.54640001
4.9143124 5.2650375 0.46959999
4.8643131 5.2657089 0.4016
4.8143215 5.2663727 0.34240001
4.7643261 5.2670441 0.2728
4.7143307 5.2677155 0.192
4.6643353 5.2683792 0.1128
4.614336 5.2690506 0.032000002
4.5643406 5.269722 -0.078400001
4.514349 5.2703857 -0.1648
7.2167816 5.4342422 0.054400001
7.1667862 5.434906 0.0152
7.1167908 5.4355774 0.048
7.0667953 5.4362488 0.1176
7.0167999 5.4369125 0.156
6.9668045 5.4375839 0.1552
6.9168091 5.4382553 0.156
6.8668137 5.4389191 0.1496
6.8168163 5.4395905 0.156
6.7668228 5.4402618 0.15279999
6.7168274 5.4409256 0.15440001
6.6668301 5.441597 0.1472
6.6168365 5.4422684 0.15360001
6.5668392 5.4429321 0.1504
6.5168438 5.4436035 0.1512
6.4668503 5.4442749 0.1576
6.416853 5.4449463 0.16
6.3668575 5.44561 0.1504
6.3168621 5.4462814 0.1488
6.2668667 5.4469528 0.1512
6.2168713 5.4476166 0.1576
6.1668758 5.448288 0.1568
6.1168804 5.4489594 0.15440001
6.0668831 5.4496231 0.1568
6.0168896 5.4502945 0.1496
5.9668941 5.4509659 0.15360001
5.9168968 5.4516296 0.1592
5.8669033 5.452301 0.1592
5.816906 5.4529724 0.1592
5.7669125 5.4536362 0.16240001
5.716917 5.4543076 0.1608
5.6669197 5.4549789 0.16
5.6169262 5.4556427 0.2
5.5669289 5.4563141 0.2128
5.5169334 5.4569855 0.7256
5.4669399 5.4576492 0.85439998
5.4169426 5.4583206 0.85839999
5.3669472 5.458992 0.85680002
5.3169518 5.4596558 0.8448
5.2669563 5.4603271 0.80239999
5.2169609 5.4609985 0.75279999
5.1669655 5.4616623 0.70480001
5.1169701 5.4623337 0.64960003
5.0669746 5.4630051 0.5984
5.0169792 5.4636765 0.5352
4.9669838 5.4643402 0.48640001
4.9169884 5.4650116 0.40959999
4.8669891 5.465683 0.34400001
4.8169975 5.4663467 0.28
4.7670021 5.4670181 0.1952
4.7170067 5.4676895 0.1144
4.6670113 5.4683533 0.025599999
4.617012 5.4690247 -0.068000004
4.5670166 5.469696 -0.192
7.3694439 5.632225 -0.90079999
7.3194485 5.6328888 0.0232
7.269453 5.6335602 0.048
7.2194576 5.6342316 0.088799998
7.1694622 5.6348953 0.1584
7.1194668 5.6355667 0.15440001
7.0694714 5.6362381 0.15279999
7.0194759 5.6369019 0.1568
6.9694805 5.6375732 0.1552
6.9194851 5.6382446 0.15360001
6.8694897 5.6389084 0.15360001
6.8194923 5.6395798 0.1512
6.7694988 5.6402512 0.15360001
6.7195034 5.6409149 0.15360001
6.6695061 5.6415863 0.152
6.6195126 5.6422577 0.1512
6.5695152 5.6429214 0.1488
6.5195198 5.6435928 0.1472
6.4695263 5.6442642 0.15360001
6.419529 5.6449356 0.15360001
6.3695335 5.6455994 0.1496
6.3195381 5.6462708 0.148
6.2695427 5.6469421 0.152
6.2195473 5.6476059 0.15279999
6.1695518 5.6482773 0.1512
6.1195564 5.6489487 0.1512
6.0695591 5.6496124 0.152
6.0195656 5.6502838 0.15279999
5.9695702 5.6509552 0.1512
5.9195728 5.651619 0.15440001
5.8695793 5.6522903 0.1584
5.819582 5.6529617 0.1568
5.7695885 5.6536255 0.1568
5.719593 5.6542969 0.1552
5.6695957 5.6549683 0.1744
5.6196022 5.655632 0.1904
5.5696049 5.6563034 0.73680001
5.5196095 5.6569748 0.85839999
5.4696159 5.6576385 0.86159998
5.4196186 5.6583099 0.85680002
5.3696232 5.6589813 0.84240001
5.3196278 5.6596451 0.80239999
5.2696323 5.6603165 0.74000001
5.2196369 5.6609879 0.69840002
5.1696415 5.6616516 0.63919997
5.1196461 5.662323 0.57679999
5.0696507 5.6629944 0.52880001
5.0196552 5.6636658 0.472
4.9696598 5.6643295 0.3928
4.9196644 5.6650009 0.34959999
4.8696651 5.6656723 0.264
4.8196735 5.6663361 0.1864
4.7696781 5.6670074 0.090400003
4.7196827 5.6676788 0.0176
4.6696873 5.6683426 -0.082400002
7.5721016 5.8295288 0.1064
7.5221062 5.8302002 0.040800001
7.4721127 5.830864 0.0096000005
7.4221153 5.8315353 0.059999999
7.3721199 5.8322067 0.148
7.3221245 5.8328705 0.1696
7.2721291 5.8335419 0.1576
7.2221336 5.8342133 0.1568
7.1721382 5.834877 0.16
7.1221428 5.8355484 0.1552
7.0721474 5.8362198 0.1576
7.0221519 5.8368835 0.16159999
6.9721565 5.8375549 0.1576
6.9221611 5.8382263 0.15440001
6.8721657 5.8388901 0.156
6.8221684 5.8395615 0.152
6.7721748 5.8402328 0.1584
6.7221794 5.8408966 0.15360001
6.6721821 5.841568 0.15360001
6.6221886 5.8422394 0.1568
6.5721912 5.8429031 0.1504
6.5221958 5.8435745 0.1504
6.4722023 5.8442459 0.1504
6.422205 5.8449173 0.1504
6.3722095 5.8455811 0.152
6.3222141 5.8462524 0.1488
6.2722187 5.8469238 0.1512
6.2222233 5.8475876 0.148
6.1722279 5.848259 0.15440001
6.1222324 5.8489304 0.16
6.0722351 5.8495941 0.1504
6.0222416 5.8502655 0.1488
5.9722462 5.8509369 0.1488
5.9222488 5.8516006 0.1552
5.8722553 5.852272 0.1496
5.822258 5.8529434 0.152
5.7722645 5.8536072 0.14480001
5.7222691 5.8542786 0.2016
5.6722717 5.85495 0.71600002
5.6222782 5.8556137 0.74000001
5.5722809 5.8562851 0.85839999
5.5222855 5.8569565 0.86400002
5.4722919 5.8576202 0.85839999
5.4222946 5.8582916 0.83759999
5.3722992 5.858963 0.78640002
5.3223038 5.8596268 0.73199999
5.2723083 5.8602982 0.68800002
5.2223129 5.8609695 0.63520002
5.1723175 5.8616333 0.5704
5.1223221 5.8623047 0.51840001
5.0723267 5.8629761 0.45280001
5.0223312 5.8636475 0.38319999
4.9723358 5.8643112 0.30880001
4.9223404 5.8649826 0.24959999
4.8723412 5.865654 0.17120001
4.8223495 5.8663177 0.080799997
7.7747612 6.0268326 -0.93199998
7.7247658 6.027504 0.051199999
7.6747684 6.0281754 0.0184
7.6247749 6.0288391 0.055199999
7.5747776 6.0295105 0.092799999
7.5247822 6.0301819 0.1672
7.4747887 6.0308456 0.1568
7.4247913 6.031517 0.16320001
7.3747959 6.0321884 0.1608
7.3248005 6.0328522 0.16
7.2748051 6.0335236 0.1552
7.2248096 6.0341949 0.1608
7.1748142 6.0348587 0.1576
7.1248188 6.0355301 0.15440001
7.0748234 6.0362015 0.156
7.024828 6.0368652 0.1576
6.9748325 6.0375366 0.1552
6.9248371 6.038208 0.1552
6.8748417 6.0388718 0.16240001
6.8248444 6.0395432 0.168
6.7748508 6.0402145 0.1576
6.7248554 6.0408783 0.1568
6.6748581 6.0415497 0.15360001
6.6248646 6.0422211 0.1576
6.5748672 6.0428848 0.1568
6.5248718 6.0435562 0.152
6.4748783 6.0442276 0.15279999
6.424881 6.044899 0.152
6.3748856 6.0455627 0.152
6.3248901 6.0462341 0.148
6.2748947 6.0469055 0.1488
6.2248993 6.0475693 0.148
6.1749039 6.0482407 0.152
6.1249084 6.048912 0.148
6.0749111 6.0495758 0.15440001
6.0249176 6.0502472 0.1488
5.9749222 6.0509186 0.152
5.9249249 6.0515823 0.1512
5.8749313 6.0522537 0.152
5.824934 6.0529251 0.1504
5.7749405 6.0535889 0.22400001
5.7249451 6.0542603 0.72719997
5.6749477 6.0549316 0.8696
5.6249542 6.0555954 0.8664
5.5749569 6.0562668 0.86799997
5.5249615 6.0569382 0.852
5.474968 6.0576019 0.82639998
5.4249706 6.0582733 0.77600002
5.3749752 6.0589447 0.72320002
5.3249798 6.0596085 0.66640002
5.2749844 6.0602798 0.61040002
5.2249889 6.0609512 0.55680001
5.1749935 6.061615 0.49599999
5.1249981 6.0622864 0.44639999
5.0750027 6.0629578 0.3856
5.0250072 6.0636292 0.29679999
4.9750118 6.0642929 0.2256
4.9250164 6.0649643 0.1392
4.8750172 6.0656357 0.0528
8.0774097 6.2228012 0.2008
8.0274143 6.2234726 0.1464
7.9774189 6.2241364 0.0656
7.9274235 6.2248077 0.048799999
7.8774281 6.2254791 0.024800001
7.8274307 6.2261429 0.0704
7.7774372 6.2268143 0.1408
7.7274418 6.2274857 0.152
7.6774445 6.228157 0.14480001
7.6274509 6.2288208 0.15279999
7.5774536 6.2294922 0.16159999
7.5274582 6.2301636 0.16159999
7.4774647 6.2308273 0.1608
7.4274673 6.2314987 0.1672
7.3774719 6.2321701 0.1608
7.3274765 6.2328339 0.16
7.2774811 6.2335052 0.16159999
7.2274857 6.2341766 0.1608
7.1774902 6.2348404 0.156
7.1274948 6.2355118 0.1568
7.0774994 6.2361832 0.1608
7.027504 6.2368469 0.1584
6.9775085 6.2375183 0.16159999
6.9275131 6.2381897 0.1552
6.8775177 6.2388535 0.16320001
6.8275204 6.2395248 0.16
6.7775269 6.2401962 0.1576
6.7275314 6.24086 0.156
6.6775341 6.2415314 0.15360001
6.6275406 6.2422028 0.16
6.5775433 6.2428665 0.1512
6.5275478 6.2435379 0.1568
6.4775543 6.2442093 0.15279999
6.427557 6.2448807 0.15279999
6.3775616 6.2455444 0.15279999
6.3275661 6.2462158 0.1488
6.2775707 6.2468872 0.1488
6.2275753 6.247551 0.148
6.1775799 6.2482224 0.156
6.1275845 6.2488937 0.152
6.0775871 6.2495575 0.1568
6.0275936 6.2502289 0.15440001
5.9775982 6.2509003 0.14560001
5.9276009 6.251564 0.1392
5.8776073 6.2522354 0.2024
5.82761 6.2529068 0.73119998
5.7776165 6.2535706 0.73839998
5.7276211 6.2542419 0.86320001
5.6776237 6.2549133 0.86879998
5.6276302 6.2555771 0.8592
5.5776329 6.2562485 0.8488
5.5276375 6.2569199 0.80479997
5.477644 6.2575836 0.7432
5.4276466 6.258255 0.69999999
5.3776512 6.2589264 0.6408
5.3276558 6.2595901 0.58960003
5.2776604 6.2602615 0.53039998
5.2276649 6.2609329 0.47119999
5.1776695 6.2615967 0.41600001
5.1276741 6.2622681 0.352
5.0776787 6.2629395 0.26879999
5.0276833 6.2636108 0.21520001
4.9776878 6.2642746 0.1256
4.9276924 6.264946 0.028000001
8.3300629 6.4194336 -1.4471999
8.2800674 6.4200974 0.049600001
8.2300739 6.4207687 0.045600001
8.1800766 6.4214401 0.039999999
8.1300812 6.4221039 0.0031999999
8.0800858 6.4227753 0.064800002
8.0300903 6.4234467 0.1392
7.9800949 6.4241104 0.1416
7.9300995 6.4247818 0.148
7.8801041 6.4254532 0.152
7.8301067 6.4261169 0.14560001
7.7801132 6.4267883 0.1488
7.7301178 6.4274597 0.1472
7.6801205 6.4281311 0.15279999
7.630127 6.4287949 0.1488
7.5801296 6.4294662 0.16320001
7.5301342 6.4301376 0.164
7.4801407 6.4308014 0.16159999
7.4301434 6.4314728 0.1608
7.3801479 6.4321442 0.1584
7.3301525 6.4328079 0.16159999
7.2801571 6.4334793 0.15440001
7.2301617 6.4341507 0.156
7.1801662 6.4348145 0.16320001
7.1301708 6.4354858 0.1576
7.0801754 6.4361572 0.1576
7.03018 6.436821 0.1552
6.9801846 6.4374924 0.1568
6.9301891 6.4381638 0.1568
6.8801937 6.4388275 0.1584
6.8301964 6.4394989 0.1512
6.7802029 6.4401703 0.15279999
6.7302074 6.440834 0.1504
6.6802101 6.4415054 0.1504
6.6302166 6.4421768 0.156
6.5802193 6.4428406 0.1512
6.5302238 6.443512 0.1504
6.4802303 6.4441833 0.148
6.430233 6.4448547 0.1464
6.3802376 6.4455185 0.15360001
6.3302422 6.4461899 0.1552
6.2802467 6.4468613 0.15279999
6.2302513 6.447525 0.1504
6.1802559 6.4481964 0.15440001
6.1302605 6.4488678 0.152
6.0802631 6.4495316 0.1496
6.0302696 6.4502029 0.14399999
5.9802742 6.4508743 0.1744
5.9302769 6.4515381 0.27680001
5.8802834 6.4522095 0.72799999
5.830286 6.4528809 0.86080003
5.7802925 6.4535446 0.86080003
5.7302971 6.454216 0.86720002
5.6802998 6.4548874 0.85759997
5.6303062 6.4555511 0.82639998
5.5803089 6.4562225 0.76719999
5.5303135 6.4568939 0.73119998
5.48032 6.4575577 0.67040002
5.4303226 6.4582291 0.62400001
5.3803272 6.4589005 0.55440003
5.3303318 6.4595642 0.50480002
5.2803364 6.4602356 0.456
5.230341 6.460907 0.3856
5.1803455 6.4615707 0.3184
5.1303501 6.4622421 0.2536
5.0803547 6.4629135 0.1736
5.0303593 6.4635849 0.073600002
8.7327042 6.6140671 0.1856
8.6827049 6.6147385 -1.2632
8.6327133 6.6154099 0.046399999
8.5827141 6.6160736 0.0504
8.5327187 6.616745 0.052000001
8.4827271 6.6174164 0.035999998
8.4327278 6.6180801 0.02
8.3827324 6.6187515 0.076800004
8.332737 6.6194229 0.1328
8.2827415 6.6200867 0.1512
8.2327499 6.6207581 0.15279999
8.1827507 6.6214294 0.152
8.1327553 6.6220932 0.14560001
8.0827599 6.6227646 0.1488
8.0327644 6.623436 0.1496
7.982769 6.6240997 0.14560001
7.9327736 6.6247711 0.1504
7.8827782 6.6254425 0.1496
7.8327827 6.6261063 0.15279999
7.7827873 6.6267776 0.15279999
7.7327919 6.627449 0.1504
7.6827965 6.6281204 0.1568
7.6328011 6.6287842 0.15440001
7.5828056 6.6294556 0.1592
7.5328102 6.630127 0.16
7.4828148 6.6307907 0.16
7.4328194 6.6314621 0.16159999
7.3828239 6.6321335 0.1584
7.3328285 6.6327972 0.1576
7.2828331 6.6334686 0.15440001
7.2328377 6.63414 0.1568
7.1828423 6.6348038 0.1576
7.1328468 6.6354752 0.156
7.0828514 6.6361465 0.15279999
7.032856 6.6368103 0.1584
6.9828606 6.6374817 0.1576
6.9328651 6.6381531 0.15440001
6.8828697 6.6388168 0.15360001
6.8328705 6.6394882 0.15440001
6.7828789 6.6401596 0.1504
6.7328835 6.6408234 0.1472
6.6828842 6.6414948 0.1472
6.6328926 6.6421661 0.15279999
6.5828934 6.6428299 0.148
6.5328979 6.6435013 0.1472
6.4829063 6.6441727 0.1496
6.4329071 6.6448441 0.1512
6.3829117 6.6455078 0.1488
6.3329163 6.6461792 0.15279999
6.2829208 6.6468506 0.1488
6.2329254 6.6475143 0.1496
6.18293 6.6481857 0.1488
6.1329346 6.6488571 0.1384
6.0829391 6.6495209 0.14
6.0329437 6.6501923 0.204
5.9829483 6.6508636 0.71920002
5.9329529 6.6515274 0.84719998
5.8829575 6.6521988 0.8624
5.832962 6.6528702 0.86479998
5.7829666 6.6535339 0.85759997
5.7329712 6.6542053 0.84079999
5.6829758 6.6548767 0.80239999
5.6329803 6.6555405 0.74400002
5.5829849 6.6562119 0.69840002
5.5329895 6.6568832 0.64719999
5.4829941 6.657547 0.5952
5.4329987 6.6582184 0.53280002
5.3830032 6.6588898 0.46720001
5.3330078 6.6595535 0.40560001
5.2830124 6.6602249 0.3448
5.233017 6.6608963 0.27520001
5.1830215 6.6615601 0.20640001
5.1330261 6.6622314 0.1416
5.0830307 6.6629028 0.0416
5.0330353 6.6635742 -0.067199998
4.9830399 6.664238 -0.1768
4.9330444 6.6649094 -0.2872
4.8830452 6.6655807 -0.39680001
4.8330536 6.6662445 -0.5072
9.1853371 6.8080292 0.1776
9.1353416 6.8087006 0.1488
9.0853462 6.8093643 0.1208
9.0353508 6.8100357 0.060800001
8.9853554 6.8107071 0.059999999
8.93536 6.8113785 0.059999999
8.8853645 6.8120422 0.044799998
8.8353672 6.8127136 0.036800001
8.7853737 6.813385 0.0208
8.7353783 6.8140488 0.12639999
8.6853809 6.8147202 0.1568
8.6353874 6.8153915 0.1576
8.5853901 6.8160553 0.15440001
8.5353947 6.8167267 0.15360001
8.4854012 6.8173981 0.156
8.4354038 6.8180618 0.15279999
8.3854084 6.8187332 0.15360001
8.335413 6.8194046 0.152
8.2854176 6.8200684 0.1496
8.235424 6.8207397 0.1488
8.1854267 6.8214111 0.15279999
8.1354313 6.8220749 0.1552
8.0854359 6.8227463 0.15279999
8.0354404 6.8234177 0.1504
7.985445 6.8240814 0.1512
7.9354496 6.8247528 0.1592
7.8854542 6.8254242 0.1512
7.8354568 6.826088 0.1568
7.7854633 6.8267593 0.1584
7.7354679 6.8274307 0.1568
7.6854706 6.8281021 0.152
7.6354771 6.8287659 0.1608
7.5854797 6.8294373 0.16159999
7.5354843 6.8301086 0.1656
7.4854908 6.8307724 0.1584
7.4354935 6.8314438 0.1688
7.385498 6.8321152 0.1576
7.3355026 6.8327789 0.15279999
7.2855072 6.8334503 0.16159999
7.2355118 6.8341217 0.1576
7.1855164 6.8347855 0.16320001
7.1355209 6.8354568 0.1488
7.0855255 6.8361282 0.16
7.0355301 6.836792 0.15279999
6.9855347 6.8374634 0.1488
6.9355392 6.8381348 0.16240001
6.8855438 6.8387985 0.15279999
6.8355465 6.8394699 0.1496
6.785553 6.8401413 0.1488
6.7355576 6.8408051 0.1512
6.6855602 6.8414764 0.1472
6.6355667 6.8421478 0.1488
6.5855694 6.8428116 0.1512
6.535574 6.843483 0.1504
6.4855804 6.8441544 0.1504
6.4355831 6.8448257 0.1568
6.3855877 6.8454895 0.152
6.3355923 6.8461609 0.1504
6.2855968 6.8468323 0.1504
6.2356014 6.847496 0.148
6.185606 6.8481674 0.13519999
6.1356106 6.8488388 0.23119999
6.0856133 6.8495026 0.7216
6.0356197 6.850174 0.74239999
5.9856243 6.8508453 0.86879998
5.935627 6.8515091 0.86000001
5.8856335 6.8521805 0.8664
