# .PCD v0.7 - Point Cloud Data file format
VERSION 0.7
FIELDS x y z
SIZE 4 4 4
TYPE F F F
COUNT 1 1 1
WIDTH 1503
HEIGHT 1
VIEWPOINT 0 0 0 1 0 0 0
POINTS 1503
DATA ascii
124.84016 -54.797359 -1.1738738
124.84927 -54.853771 -1.2658038
124.8573 -54.909363 -1.3458103
124.8677 -54.966755 -1.4520489
124.87745 -55.023655 -1.5511332
124.88878 -55.081749 -1.6677058
124.90083 -55.140392 -1.7922274
124.91833 -55.203171 -1.9771624
124.63943 -53.066498 -1.4836373
124.63438 -53.112183 -1.4189696
124.62949 -53.157978 -1.3558918
124.61345 -53.195339 -1.1696026
124.61329 -53.244728 -1.1589891
124.61313 -53.294117 -1.1483755
124.61289 -53.343449 -1.1369671
124.61359 -53.393494 -1.1358924
124.61365 -53.443043 -1.1276635
124.61111 -53.490635 -1.0908179
124.60844 -53.538116 -1.0523823
124.60634 -53.586037 -1.0203061
124.60697 -53.636024 -1.0184367
124.61105 -53.688625 -1.054723
124.61404 -53.74041 -1.0790856
124.61842 -53.793224 -1.1185515
124.61961 -53.843647 -1.1230413
124.62204 -53.894997 -1.1410445
124.61858 -53.941879 -1.0938649
124.61971 -53.992249 -1.0975599
124.5845 -54.015076 -0.69902909
124.57587 -54.058041 -0.5946157
124.57182 -54.104488 -0.5410769
124.57195 -54.154095 -0.53364301
124.57294 -54.204353 -0.53574795
124.57924 -54.25864 -0.59667665
124.58447 -54.312111 -0.64568144
124.58969 -54.365582 -0.69468647
124.59492 -54.419052 -0.74369127
124.60115 -54.473286 -0.80382484
124.60674 -54.527031 -0.85680431
124.61383 -54.581917 -0.92647696
124.61992 -54.63604 -0.98502082
124.62701 -54.690926 -1.0546933
124.63382 -54.745594 -1.1211865
124.64199 -54.801296 -1.2027826
124.64951 -54.85651 -1.2772248
124.65977 -54.913788 -1.3818735
124.66779 -54.969383 -1.46188
124.67827 -55.026829 -1.5689135
124.69139 -55.086288 -1.7053587
124.70272 -55.144382 -1.8219312
124.717 -55.204712 -1.971095
124.43848 -52.969318 -1.4995921
124.43774 -53.018269 -1.4826193
124.43909 -53.068802 -1.4886988
124.43412 -53.11454 -1.4248263
124.42563 -53.157616 -1.3220026
124.4147 -53.198841 -1.1921523
124.41446 -53.248177 -1.1807438
124.41459 -53.297779 -1.1733098
124.41486 -53.347496 -1.1674658
124.41463 -53.396828 -1.1560572
124.41346 -53.445457 -1.134315
124.41509 -53.496208 -1.1435742
124.41177 -53.543198 -1.0979846
124.41032 -53.591606 -1.0730624
124.41368 -53.643661 -1.1013997
124.41933 -53.69746 -1.155174
124.4196 -53.747177 -1.1493299
124.42038 -53.797272 -1.1490502
124.42101 -53.84726 -1.1471807
124.42242 -53.897842 -1.1540554
124.42399 -53.94854 -1.1625196
124.41069 -53.987968 -1.0064371
124.38445 -54.017597 -0.70727021
124.37596 -54.060669 -0.60444677
124.37343 -54.108261 -0.56760114
124.37341 -54.157761 -0.5585773
124.3744 -54.208019 -0.56068248
124.37984 -54.261654 -0.61207205
124.38593 -54.315777 -0.67061597
124.39123 -54.369301 -0.72041559
124.39703 -54.42321 -0.77577984
124.40168 -54.476246 -0.81842542
124.40749 -54.530151 -0.87378967
124.41335 -54.58411 -0.92994869
124.42038 -54.638943 -0.99882644
124.42696 -54.693451 -1.0629346
124.43391 -54.748226 -1.1310173
124.44252 -54.804253 -1.2173833
124.45076 -54.860012 -1.2997744
124.459 -54.915768 -1.3821656
124.46876 -54.972668 -1.4812499
124.47872 -55.029732 -1.582719
124.48898 -55.087013 -1.6873679
124.5034 -55.147449 -1.8381217
124.51961 -55.209251 -2.0087481
124.24143 -53.023621 -1.532196
124.23761 -53.070236 -1.4810419
124.23644 -53.118862 -1.4592997
124.23154 -53.164658 -1.3962218
124.21479 -53.201473 -1.2019835
124.2142 -53.250534 -1.1866004
124.21475 -53.300465 -1.1839359
124.21503 -53.350182 -1.178092
124.21443 -53.399242 -1.1627088
124.21471 -53.448959 -1.1568649
124.21576 -53.499271 -1.1597646
124.21589 -53.548878 -1.1523308
124.21781 -53.599846 -1.1647696
124.2188 -53.650105 -1.1668748
124.22166 -53.701778 -1.1896476
124.22034 -53.750298 -1.1663153
124.21925 -53.798977 -1.145368
124.22182 -53.850433 -1.164961
124.22066 -53.899059 -1.1432188
124.22258 -53.950027 -1.1556575
124.22034 -53.997837 -1.1219916
124.1852 -54.020718 -0.72425556
124.17606 -54.063301 -0.61427802
124.17367 -54.111 -0.57902217
124.17372 -54.160553 -0.57079327
124.17529 -54.21125 -0.57925767
124.18073 -54.264885 -0.6306473
124.18517 -54.317757 -0.67090821
124.19104 -54.371716 -0.72706717
124.1972 -54.425896 -0.78640592
124.20242 -54.479366 -0.83541083
124.20815 -54.533218 -0.88998008
124.21445 -54.587505 -0.95090872
124.22155 -54.642391 -1.0205812
124.2285 -54.697166 -1.0886641
124.2348 -54.751457 -1.1495926
124.24268 -54.806938 -1.2280093
124.25143 -54.863075 -1.3159648
124.26039 -54.91938 -1.4063052
124.26928 -54.975624 -1.4958507
124.28061 -55.033722 -1.6124229
124.29108 -55.091167 -1.7194566
124.30428 -55.150681 -1.8566968
124.03584 -53.071449 -1.4702051
124.03532 -53.120567 -1.4556171
124.02898 -53.165276 -1.3766409
124.01617 -53.205082 -1.2261229
124.01515 -53.253819 -1.2059703
124.01485 -53.303097 -1.1937668
124.01476 -53.352539 -1.1839483
124.01468 -53.401981 -1.1741295
124.01495 -53.451698 -1.1682856
124.01565 -53.50174 -1.1672108
124.017 -53.552269 -1.1732905
124.01755 -53.602203 -1.170626
124.01926 -53.653008 -1.1806803
124.02075 -53.703648 -1.1883497
124.019 -53.751839 -1.1602479
124.02158 -53.803295 -1.1798412
124.02192 -53.853065 -1.1747919
124.02226 -53.902832 -1.1697428
124.02447 -53.954018 -1.1853614
124.02036 -54.000412 -1.1310276
123.98687 -54.024544 -0.75157464
123.97787 -54.067238 -0.64318687
123.97506 -54.114613 -0.60316151
123.97469 -54.163837 -0.59016305
123.97588 -54.21426 -0.59465301
123.98032 -54.267132 -0.63491386
123.98669 -54.321472 -0.69663733
123.99149 -54.374619 -0.74087268
123.99729 -54.428524 -0.79623687
124.00323 -54.48254 -0.8531909
124.0081 -54.53574 -0.89822125
124.01491 -54.590408 -0.96471423
124.02158 -54.644966 -1.0296173
124.02853 -54.699745 -1.0977001
124.03555 -54.754578 -1.1665777
124.04329 -54.809952 -1.2434046
124.05153 -54.865707 -1.3257958
124.0607 -54.922173 -1.4185209
124.06995 -54.978691 -1.5120409
124.08071 -55.036354 -1.6222539
124.09032 -55.093143 -1.7197486
124.10474 -55.153584 -1.8705022
123.84001 -53.126678 -1.5163227
123.83245 -53.170464 -1.423833
123.81728 -53.208473 -1.2470827
123.81303 -53.254761 -1.1911592
123.81071 -53.302517 -1.1566982
123.81263 -53.353485 -1.1691372
123.81491 -53.404724 -1.1855506
123.81554 -53.454712 -1.1836811
123.81768 -53.50584 -1.1985047
123.8196 -53.556808 -1.2109436
123.81908 -53.605923 -1.1963556
123.81863 -53.655094 -1.1825624
123.81711 -53.703449 -1.1568455
123.81709 -53.752945 -1.1478217
123.82002 -53.804672 -1.1713893
123.82001 -53.854172 -1.1623656
123.81977 -53.903503 -1.1509572
123.82529 -53.957195 -1.2031417
123.82562 -54.006966 -1.1980925
123.78725 -54.027393 -0.76458544
123.77956 -54.071068 -0.67050606
123.77566 -54.117626 -0.6185571
123.77557 -54.167068 -0.6087383
123.77663 -54.217384 -0.61163843
123.78214 -54.271072 -0.66382295
123.78687 -54.324158 -0.70726341
123.7923 -54.377792 -0.75865299
123.79703 -54.430885 -0.80209345
123.80405 -54.485718 -0.8709712
123.80899 -54.538971 -0.91679639
123.81601 -54.5938 -0.98567414
123.82167 -54.647598 -1.0394485
123.82934 -54.702919 -1.1154804
123.83722 -54.758404 -1.193897
123.84431 -54.81329 -1.2635697
123.85148 -54.868233 -1.3340371
123.86108 -54.925022 -1.4315317
123.8707 -54.981812 -1.5290263
123.88081 -55.038986 -1.6320851
123.89178 -55.096809 -1.7446831
123.90519 -55.156487 -1.8843081
123.91796 -55.215672 -2.0167787
123.63982 -53.129093 -1.522974
123.62343 -53.16618 -1.3327103
123.61235 -53.207294 -1.20127
123.6119 -53.256466 -1.1874768
123.61195 -53.306019 -1.1792479
123.61417 -53.357201 -1.1948665
123.61623 -53.408279 -1.2088952
123.61671 -53.458157 -1.2054358
123.61835 -53.508907 -1.2146952
123.61963 -53.559383 -1.2199798
123.62019 -53.609314 -1.2173153
123.61995 -53.658649 -1.2059069
123.61993 -53.708145 -1.1968832
123.62093 -53.758408 -1.1989882
123.62371 -53.810028 -1.2209661
123.62441 -53.860069 -1.2198915
123.62598 -53.910763 -1.2283558
123.62825 -53.962002 -1.2447692
123.61617 -54.002354 -1.1022002
123.58814 -54.030624 -0.78316069
123.58374 -54.076801 -0.72564715
123.57654 -54.120853 -0.63713217
123.57631 -54.170189 -0.62572366
123.57759 -54.220665 -0.63100827
123.58267 -54.274029 -0.67842352
123.58811 -54.32766 -0.72981298
123.59334 -54.381134 -0.77881801
123.59827 -54.434387 -0.82464314
123.60415 -54.488346 -0.88080227
123.61009 -54.542362 -0.9377563
123.61654 -54.596756 -1.0002747
123.62328 -54.651371 -1.0659728
123.62936 -54.705498 -1.1245165
123.63746 -54.761143 -1.205318
123.64441 -54.815922 -1.2734007
123.65302 -54.871948 -1.3597666
123.66119 -54.92765 -1.4413627
123.67172 -54.985153 -1.5491912
123.68162 -55.04216 -1.6498654
123.69238 -55.099823 -1.7600785
123.70515 -55.159008 -1.8925493
123.71957 -55.219444 -2.0433028
123.4622 -53.099102 -1.7882516
123.43906 -53.131073 -1.5232662
123.43265 -53.175724 -1.4434952
123.41884 -53.214771 -1.2818482
123.41774 -53.263451 -1.2609007
123.41801 -53.313168 -1.2550566
123.41814 -53.36277 -1.2476228
123.41891 -53.412868 -1.2473431
123.4189 -53.462364 -1.2383194
123.41902 -53.511971 -1.2308854
123.41943 -53.561794 -1.2266312
123.41934 -53.611237 -1.2168125
123.42285 -53.663403 -1.2467395
123.42305 -53.713066 -1.2401005
123.42397 -53.763268 -1.2414105
123.42374 -53.812603 -1.2300022
123.42551 -53.863461 -1.2408512
123.4265 -53.913719 -1.2429564
123.42857 -53.964798 -1.2569849
123.42065 -54.008305 -1.1605209
123.38931 -54.034069 -0.80491531
123.38097 -54.077255 -0.70368165
123.37729 -54.123974 -0.65411747
123.37741 -54.17358 -0.64668345
123.37847 -54.223896 -0.64958352
123.3837 -54.277367 -0.69858843
123.38928 -54.331108 -0.75156784
123.39408 -54.384254 -0.79580313
123.40002 -54.438271 -0.85275722
123.40532 -54.491795 -0.90255702
123.41127 -54.545807 -0.95951098
123.4167 -54.599442 -1.0109007
123.42402 -54.654491 -1.082958
123.43104 -54.709324 -1.1518357
123.43871 -54.764645 -1.2278676
123.44645 -54.820023 -1.3046944
123.4539 -54.875179 -1.3783416
123.46293 -54.931534 -1.4694768
123.47282 -54.988544 -1.570151
123.48272 -55.045551 -1.6708251
123.49297 -55.102833 -1.775474
123.50546 -55.1618 -1.9047651
123.51923 -55.221748 -2.0483646
123.53659 -55.28442 -2.2317095
123.23416 -53.030899 -1.4955009
123.26265 -53.102005 -1.8020574
123.24052 -53.134735 -1.5482007
123.23325 -53.178734 -1.4588907
123.21958 -53.217892 -1.2988336
123.21913 -53.267063 -1.2850404
123.21854 -53.316124 -1.2696573
123.21938 -53.366272 -1.2701726
123.21851 -53.415119 -1.2516098
123.21906 -53.46505 -1.2489455
123.22077 -53.515854 -1.2589996
123.22112 -53.565624 -1.2539504
123.22066 -53.614796 -1.2401572
123.22057 -53.664238 -1.2303386
123.22134 -53.714333 -1.2300589
123.22255 -53.764755 -1.2345486
123.22304 -53.814636 -1.2310894
123.22467 -53.865383 -1.2403486
123.22458 -53.914825 -1.23053
123.22845 -53.967262 -1.2644315
123.21485 -54.006474 -1.1051693
123.18991 -54.037083 -0.82031083
123.18358 -54.081791 -0.74133486
123.17796 -54.127041 -0.67030793
123.17887 -54.177246 -0.67161793
123.17821 -54.226254 -0.65544015
123.18422 -54.280323 -0.71318907
123.18916 -54.333576 -0.75901431
123.19504 -54.387535 -0.81517333
123.20048 -54.44117 -0.8665629
123.20621 -54.495026 -0.92113221
123.21129 -54.548386 -0.96854728
123.21824 -54.603161 -1.03663
123.22555 -54.658211 -1.1086874
123.23142 -54.712173 -1.1648465
123.23901 -54.767441 -1.2400835
123.24619 -54.82238 -1.310551
123.255 -54.878571 -1.3993015
123.2636 -54.934601 -1.4856672
123.27314 -54.991341 -1.5823669
123.28403 -55.04911 -1.6941698
123.29321 -55.105576 -1.786895
123.30706 -55.165577 -1.9312894
123.31767 -55.223129 -2.0399127
123.04312 -53.139271 -1.5858536
123.03636 -53.183655 -1.502108
123.02046 -53.221123 -1.3174086
123.01987 -53.270184 -1.3020256
123.01942 -53.319351 -1.2882323
123.0202 -53.36945 -1.2879527
123.02019 -53.418945 -1.2789289
123.02225 -53.470024 -1.2929577
123.0228 -53.519955 -1.2902932
123.02272 -53.569397 -1.2804745
123.02406 -53.61993 -1.2865541
123.02419 -53.669537 -1.2791202
123.02467 -53.719414 -1.2756609
123.02552 -53.769566 -1.276176
123.02644 -53.819771 -1.2774863
123.02879 -53.871063 -1.2946945
123.02756 -53.919636 -1.2721574
123.02517 -53.967339 -1.2369015
123.02695 -54.018196 -1.2477505
122.99094 -54.040421 -0.84047568
122.98547 -54.085781 -0.77103853
122.97899 -54.130379 -0.69047272
122.97882 -54.179768 -0.67985904
122.97989 -54.230083 -0.68275917
122.98576 -54.284042 -0.73891824
122.99041 -54.337078 -0.78156382
122.99435 -54.389568 -0.81626022
123.00114 -54.444237 -0.88275319
123.00645 -54.497765 -0.93255293
123.01211 -54.551559 -0.98632735
123.01862 -54.60601 -1.0496407
123.02536 -54.660625 -1.1153388
123.03195 -54.71513 -1.1794469
123.03933 -54.770233 -1.2522991
123.04585 -54.824684 -1.3156126
123.05481 -54.880985 -1.4059528
123.06406 -54.937504 -1.4994727
123.07417 -54.994675 -1.6025318
123.08263 -55.050598 -1.6873076
123.09568 -55.110001 -1.8229581
123.10694 -55.168045 -1.9387356
122.84227 -53.190693 -1.5763272
122.82301 -53.225601 -1.3542669
122.82098 -53.273575 -1.3229856
122.82132 -53.323345 -1.3179364
122.82195 -53.373329 -1.316067
122.82143 -53.422447 -1.3014789
122.82271 -53.472923 -1.3067634
122.82298 -53.52264 -1.3009195
122.82375 -53.572735 -1.3006396
122.82495 -53.623158 -1.3051295
122.82565 -53.673203 -1.3040549
122.82542 -53.722534 -1.2926464
122.82641 -53.772793 -1.2947514
122.82718 -53.822891 -1.2944717
122.82716 -53.872387 -1.2854481
122.83088 -53.924713 -1.3177596
122.83165 -53.974812 -1.31748
122.83171 -54.024361 -1.3092512
122.79226 -54.043976 -0.86382061
122.7865 -54.089119 -0.79120374
122.77915 -54.133064 -0.70109892
122.77985 -54.183105 -0.70002437
122.78012 -54.232822 -0.69418013
122.78549 -54.2864 -0.744775
122.79115 -54.340199 -0.79854923
122.79652 -54.393776 -0.84914404
122.8019 -54.447357 -0.89973867
122.80669 -54.500504 -0.94397408
122.81349 -54.555168 -1.0104671
122.82059 -54.610054 -1.0801396
122.82531 -54.663147 -1.1235802
122.83305 -54.718521 -1.2004069
122.84029 -54.773518 -1.2716695
122.84666 -54.827858 -1.3333929
122.8544 -54.883232 -1.4102198
122.86459 -54.94046 -1.5140736
122.87455 -54.997524 -1.6155427
122.88452 -55.054588 -1.7170118
122.89463 -55.111759 -1.8200707
122.90689 -55.170563 -1.9469771
122.62033 -52.929073 -1.3864437
122.61952 -52.97797 -1.3686761
122.62346 -53.03046 -1.4033724
122.62653 -53.082298 -1.42853
122.62709 -53.132233 -1.4258654
122.62721 -53.181839 -1.4184316
122.62561 -53.230137 -1.3919199
122.62208 -53.27697 -1.3439454
122.62156 -53.326084 -1.3293573
122.62154 -53.37558 -1.3203335
122.62124 -53.424862 -1.3081301
122.62108 -53.474251 -1.2975165
122.62242 -53.52478 -1.3035963
122.62219 -53.574116 -1.2921877
122.62361 -53.624702 -1.2990621
122.62539 -53.67556 -1.3099113
122.62717 -53.726418 -1.3207604
122.62715 -53.775917 -1.3117366
122.62849 -53.826447 -1.3178163
122.62984 -53.876976 -1.3238959
122.63126 -53.927563 -1.3307703
122.63226 -53.977821 -1.3328754
122.63145 -54.026722 -1.3151076
122.59243 -54.046661 -0.87444645
122.5904 -54.094635 -0.84316504
122.58105 -54.137054 -0.73080266
122.58139 -54.186829 -0.72575355
122.58195 -54.236759 -0.72308898
122.58574 -54.289143 -0.75619578
122.59168 -54.343155 -0.81314969
122.59612 -54.396027 -0.8534106
122.60256 -54.450424 -0.9159289
122.608 -54.504059 -0.96731859
122.61359 -54.5578 -1.020298
122.62061 -54.612633 -1.0891757
122.6272 -54.667137 -1.153284
122.63358 -54.721481 -1.2150073
122.64096 -54.776585 -1.2878597
122.64748 -54.831036 -1.3511729
122.65687 -54.887661 -1.4462829
122.66525 -54.943527 -1.5302638
122.67415 -54.999775 -1.6198093
122.68526 -55.057709 -1.733997
122.69537 -55.114883 -1.8370559
122.70699 -55.173195 -1.9568081
122.72321 -55.234993 -2.1274345
122.45299 -53.104908 -1.7300941
122.44521 -53.148525 -1.6352197
122.43751 -53.1922 -1.5411403
122.4298 -53.23587 -1.4470609
122.42713 -53.283356 -1.4086255
122.42453 -53.330894 -1.3709849
122.42164 -53.378212 -1.3301647
122.4209 -53.427166 -1.3131919
122.42139 -53.477043 -1.3097324
122.42281 -53.52763 -1.316607
122.42294 -53.577236 -1.309173
122.4245 -53.62793 -1.3176374
122.4257 -53.678352 -1.3221271
122.42446 -53.726925 -1.2995899
122.42552 -53.777237 -1.3024899
122.42852 -53.829021 -1.3268526
122.43044 -53.87999 -1.3392915
122.42992 -53.929108 -1.3247032
122.43034 -53.978928 -1.3204489
122.43076 -54.028755 -1.3161948
122.39339 -54.049946 -0.89381659
122.39114 -54.097755 -0.8601504
122.38129 -54.139797 -0.74222368
122.38127 -54.189293 -0.73319995
122.38126 -54.238792 -0.72417617
122.38676 -54.29248 -0.77636075
122.39199 -54.345951 -0.82536554
122.39808 -54.400074 -0.88390952
122.40424 -54.454254 -0.94324815
122.40882 -54.507233 -0.9850989
122.41418 -54.560814 -1.0356936
122.42107 -54.615536 -1.1029814
122.42766 -54.67004 -1.1670897
122.4336 -54.724056 -1.2240436
122.44141 -54.779488 -1.3016654
122.44916 -54.834862 -1.3784921
122.45725 -54.890511 -1.4592937
122.46513 -54.945995 -1.5377102
122.47488 -55.002895 -1.6367946
122.48363 -55.059032 -1.7247503
122.49748 -55.119034 -1.8691447
122.50903 -55.177296 -1.9881018
122.52258 -55.23708 -2.1293163
122.53952 -55.299423 -2.3078923
122.56112 -55.365307 -2.538137
122.2466 -53.152138 -1.6593591
122.25319 -53.206642 -1.7234674
122.2276 -53.236763 -1.4314547
122.23183 -53.289471 -1.4693308
122.22951 -53.337227 -1.43487
122.22611 -53.384163 -1.3884853
122.22287 -53.431213 -1.3436905
122.22105 -53.479347 -1.3147938
122.22017 -53.528191 -1.2962313
122.22102 -53.578342 -1.2967465
122.22373 -53.629906 -1.3179294
122.22493 -53.680332 -1.3224192
122.22722 -53.731571 -1.3388326
122.22763 -53.781395 -1.3345784
122.22934 -53.832199 -1.3446326
122.22767 -53.880444 -1.3173258
122.23081 -53.932335 -1.3432782
122.23373 -53.984062 -1.3668458
122.23236 -54.032528 -1.3427188
122.19427 -54.053177 -0.91239154
122.19167 -54.100712 -0.87475085
122.18239 -54.143188 -0.76318341
122.18208 -54.192467 -0.75098002
122.1825 -54.242294 -0.74672562
122.18765 -54.295708 -0.79493576
122.19288 -54.349178 -0.84394056
122.19861 -54.40303 -0.89850992
122.2039 -54.456558 -0.9483096
122.20949 -54.5103 -1.0012891
122.21429 -54.563446 -1.0455245
122.22181 -54.618656 -1.1199666
122.22855 -54.673271 -1.1856647
122.23528 -54.727882 -1.2513626
122.24216 -54.782608 -1.3186506
122.24932 -54.837547 -1.389118
122.2572 -54.893032 -1.4675348
122.26667 -54.949715 -1.5634394
122.27499 -55.005524 -1.6466255
122.28596 -55.063351 -1.7592235
122.29607 -55.120522 -1.8622824
122.30833 -55.179329 -1.9891888
122.32339 -55.240257 -2.1470966
122.03499 -53.145893 -1.5396196
122.03519 -53.195557 -1.5329806
122.03539 -53.245216 -1.5263416
122.03501 -53.294441 -1.5133433
122.03104 -53.340942 -1.4605994
122.02887 -53.388809 -1.4277283
122.02692 -53.436836 -1.3972418
122.02596 -53.485626 -1.3778841
122.02523 -53.53458 -1.3609115
122.02693 -53.585381 -1.3709655
122.0275 -53.635315 -1.3683012
122.02776 -53.685028 -1.362457
122.02875 -53.735291 -1.364562
122.02966 -53.785496 -1.3658721
122.03008 -53.83532 -1.361618
122.03064 -53.88525 -1.3589535
122.03113 -53.935127 -1.355494
122.03082 -53.984409 -1.3432907
122.03281 -54.035431 -1.3565246
121.99545 -54.056625 -0.9341464
121.99421 -54.105194 -0.91160905
121.98342 -54.146526 -0.78334844
121.98398 -54.196461 -0.78068399
121.98396 -54.245956 -0.77166021
121.98854 -54.298939 -0.81351101
121.99333 -54.352081 -0.8577463
121.99971 -54.406425 -0.91946989
122.00465 -54.459679 -0.96529502
122.00995 -54.513203 -1.0150948
122.01589 -54.567219 -1.0720489
122.02226 -54.621559 -1.1337724
122.02922 -54.676338 -1.2018552
122.03616 -54.731113 -1.2699379
122.04362 -54.786274 -1.3435851
122.05043 -54.840942 -1.410078
122.0568 -54.895283 -1.4718016
122.06784 -54.953163 -1.5851943
122.07703 -55.009628 -1.6779194
122.08555 -55.065601 -1.7634902
122.09767 -55.124298 -1.8888068
122.10994 -55.183102 -2.0157132
122.12321 -55.242668 -2.153748
122.13863 -55.303871 -2.3156307
121.85324 -53.211792 -1.7415396
121.85092 -53.259548 -1.7070787
121.83568 -53.297508 -1.5295335
121.82999 -53.342705 -1.4577117
121.82832 -53.390949 -1.4304049
121.82794 -53.440174 -1.4174067
121.82807 -53.48978 -1.4099727
121.8282 -53.539387 -1.4025389
121.82811 -53.588829 -1.3927201
121.82428 -53.635441 -1.3415661
121.82527 -53.685703 -1.3436711
121.82806 -53.73732 -1.365649
121.82739 -53.786331 -1.3494711
121.82903 -53.837078 -1.3587303
121.82844 -53.886139 -1.3433473
121.83223 -53.938522 -1.3764539
121.83271 -53.9884 -1.3729944
121.8299 -54.035774 -1.3329692
121.79684 -54.060234 -0.95828575
121.79481 -54.108208 -0.92700434
121.78459 -54.149975 -0.80510306
121.78458 -54.199471 -0.79607934
121.78484 -54.249187 -0.79023516
121.79 -54.302605 -0.83844531
121.79508 -54.355965 -0.8858602
121.79951 -54.408836 -0.92612123
121.80553 -54.462906 -0.98386997
121.81126 -54.516758 -1.0384393
121.81635 -54.570122 -1.0858543
121.82336 -54.624954 -1.154732
121.82938 -54.679024 -1.212481
121.83676 -54.734127 -1.2853332
121.844 -54.78912 -1.3565958
121.8503 -54.843407 -1.4175241
121.85912 -54.899601 -1.5062748
121.86801 -54.955849 -1.5958202
121.8769 -55.012093 -1.6853656
121.88658 -55.068939 -1.783655
121.8982 -55.127254 -1.9034072
121.90982 -55.18557 -2.0231593
121.92402 -55.245842 -2.1715281
121.93679 -55.305031 -2.3039989
121.63441 -53.299103 -1.5242614
121.63268 -53.347294 -1.4961598
121.63014 -53.394886 -1.4593141
121.62819 -53.442913 -1.4288278
121.62767 -53.492031 -1.4142394
121.62628 -53.540493 -1.3901125
121.62634 -53.590046 -1.3818836
121.62632 -53.639542 -1.37286
121.62796 -53.690292 -1.3821192
121.62959 -53.741043 -1.3913784
121.63072 -53.791409 -1.3950733
121.63049 -53.840744 -1.3836648
121.63198 -53.891384 -1.3913343
121.63326 -53.94186 -1.3966188
121.63317 -53.991302 -1.3868003
121.63315 -54.040802 -1.3777765
121.5975 -54.063301 -0.97447628
121.59512 -54.111 -0.93922031
121.58612 -54.153694 -0.83083248
121.58539 -54.202648 -0.81385964
121.58588 -54.252525 -0.81040019
121.5901 -54.305233 -0.84827644
121.59561 -54.358921 -0.90046084
121.60127 -54.41272 -0.95423537
121.60571 -54.465591 -0.99449611
121.61272 -54.520424 -1.0633738
121.61766 -54.573677 -1.109199
121.62383 -54.627853 -1.1685379
121.6302 -54.682198 -1.2302613
121.63629 -54.73632 -1.288805
121.64474 -54.79224 -1.3735812
121.65141 -54.846802 -1.4384842
121.65951 -54.902451 -1.5192857
121.66926 -54.959347 -1.6183699
121.6765 -55.014343 -1.6896324
121.68819 -55.072712 -1.8101794
121.69852 -55.130051 -1.9156231
121.71135 -55.189289 -2.0488887
121.72656 -55.250324 -2.2083864
121.73991 -55.309948 -2.3472166
121.43307 -53.300644 -1.5181941
121.43269 -53.349873 -1.5051957
121.43196 -53.398823 -1.4882228
121.43079 -53.447449 -1.4664806
121.42704 -53.494118 -1.4161212
121.42566 -53.54258 -1.3919944
121.42234 -53.589573 -1.3464046
121.4221 -53.638908 -1.334996
121.42554 -53.691017 -1.3641281
121.43055 -53.744324 -1.4107482
121.42974 -53.793224 -1.3929806
121.43116 -53.843811 -1.399855
121.43323 -53.894886 -1.4138838
121.43299 -53.944218 -1.4024752
121.43047 -53.991814 -1.3656296
121.43153 -54.042126 -1.3685296
121.40536 -54.071808 -1.0701578
121.39709 -54.115047 -0.96971893
121.38687 -54.156815 -0.84781766
121.38628 -54.205879 -0.83243465
121.38755 -54.256355 -0.8377192
121.39105 -54.308517 -0.86764628
121.39714 -54.36264 -0.92619008
121.401 -54.415077 -0.96009171
121.40673 -54.468933 -1.0146608
121.41203 -54.522457 -1.0644608
121.41826 -54.576691 -1.1245944
121.42413 -54.63065 -1.1807535
121.43073 -54.685154 -1.2448617
121.43811 -54.740257 -1.3177139
121.44484 -54.794872 -1.383412
121.45201 -54.849812 -1.4538795
121.46011 -54.90546 -1.534681
121.46857 -54.96138 -1.6194568
121.47853 -55.018444 -1.7209259
121.48792 -55.075073 -1.8160357
121.49883 -55.132843 -1.9278388
121.51087 -55.191483 -2.0523603
121.524 -55.250942 -2.1888056
121.54137 -55.313614 -2.3721509
121.23374 -53.303711 -1.5343845
121.23228 -53.352119 -1.5094626
121.23134 -53.400909 -1.4901049
121.22881 -53.448502 -1.4532592
121.22642 -53.496204 -1.4180033
121.22489 -53.544556 -1.3922865
121.22509 -53.594219 -1.3856475
121.22867 -53.646439 -1.4163694
121.23116 -53.697838 -1.4351676
121.23222 -53.748154 -1.4380676
121.23357 -53.798683 -1.4441471
121.23341 -53.848072 -1.4335337
121.23225 -53.896698 -1.4117913
121.23144 -53.945599 -1.3940234
121.22897 -53.993244 -1.3579726
121.22752 -54.041653 -1.3330507
121.22966 -54.092785 -1.3478744
121.19811 -54.118385 -0.98988402
121.18782 -54.160099 -0.8671878
121.18752 -54.209381 -0.8549844
121.18765 -54.258984 -0.84755039
121.19115 -54.31115 -0.87747753
121.19702 -54.365108 -0.93363649
121.20232 -54.418633 -0.98343641
121.20827 -54.472649 -1.0403903
121.2132 -54.525902 -1.0862155
121.21929 -54.580025 -1.1447594
121.22581 -54.634476 -1.2080727
121.23168 -54.688438 -1.2642319
121.23834 -54.742996 -1.3291348
121.2458 -54.798157 -1.4027822
121.2534 -54.853424 -1.478019
121.25977 -54.907764 -1.5397427
121.26974 -54.964828 -1.6412117
121.27863 -55.021076 -1.7307571
121.28831 -55.077919 -1.8290466
121.29935 -55.135799 -1.9424394
121.31147 -55.194496 -2.0677559
121.32561 -55.254715 -2.2153299
121.03528 -53.30743 -1.5601139
121.03253 -53.354862 -1.5208836
121.03 -53.402451 -1.4840379
121.02984 -53.451843 -1.4734243
121.0286 -53.500412 -1.450887
121.03009 -53.551052 -1.4585565
121.03172 -53.601803 -1.4678156
121.03156 -53.651192 -1.4572022
121.0322 -53.70118 -1.4553326
121.0316 -53.75024 -1.4399496
121.03108 -53.799355 -1.4253615
121.03308 -53.85038 -1.4385953
121.03141 -53.898621 -1.4112886
121.03233 -53.94883 -1.4125986
121.02994 -53.996529 -1.3773428
121.03078 -54.046677 -1.377858
120.99916 -54.072227 -1.0190729
120.99872 -54.121399 -1.0052795
120.98864 -54.163273 -0.8849681
120.98841 -54.212608 -0.87355965
120.98889 -54.262486 -0.8701002
120.99139 -54.313889 -0.88889855
120.99683 -54.367523 -0.94028801
121.00357 -54.422138 -1.0059862
121.00887 -54.475662 -1.0557859
121.01453 -54.529457 -1.1095603
121.01917 -54.582497 -1.1522058
121.02519 -54.636562 -1.2099547
121.033 -54.691994 -1.2875766
121.0388 -54.745903 -1.3429406
121.04683 -54.801495 -1.4229472
121.05321 -54.855835 -1.4846706
121.0613 -54.911484 -1.5654721
121.07034 -54.967842 -1.6566073
121.07951 -55.024307 -1.7493323
121.08812 -55.080334 -1.8356981
121.10196 -55.140335 -1.9800925
121.11272 -55.197998 -2.0903058
121.12549 -55.257187 -2.2227764
121.14048 -55.318058 -2.3798895
120.83524 -53.260456 -1.5773787
120.83221 -53.307667 -1.5349687
120.83155 -53.356674 -1.5187908
120.83182 -53.406387 -1.5129467
120.83173 -53.455833 -1.5031281
120.83157 -53.505222 -1.4925144
120.83119 -53.554447 -1.4795163
120.83182 -53.604431 -1.4776466
120.83216 -53.654202 -1.4725975
120.83128 -53.703049 -1.4540348
120.83314 -53.75396 -1.4656788
120.83347 -53.80373 -1.4606297
120.83425 -53.853825 -1.4603499
120.83488 -53.903812 -1.4584804
120.83486 -53.953308 -1.4494566
120.8342 -54.002319 -1.4332787
120.83411 -54.051758 -1.42346
120.7999 -54.075348 -1.0360581
120.7996 -54.124626 -1.0238545
120.78917 -54.166229 -0.89956856
120.78922 -54.215782 -0.89133972
120.78957 -54.265553 -0.88629037
120.79407 -54.318481 -0.92734635
120.79794 -54.370914 -0.96124774
120.80359 -54.424713 -1.0150223
120.8091 -54.478401 -1.0672066
120.81483 -54.532253 -1.1217759
120.82042 -54.585999 -1.1747553
120.82715 -54.64061 -1.2404535
120.83295 -54.694515 -1.2958176
120.83997 -54.749348 -1.3646952
120.84678 -54.804016 -1.4311883
120.85387 -54.858902 -1.5008608
120.86205 -54.914604 -1.5824573
120.87108 -54.970963 -1.6735924
120.87997 -55.027206 -1.7631378
120.89037 -55.084599 -1.8693764
120.90062 -55.141876 -1.9740252
120.91102 -55.199268 -2.0802639
120.925 -55.25938 -2.2262478
120.94287 -55.322433 -2.4151576
120.96153 -55.386082 -2.6128111
120.64461 -53.270107 -1.6897537
120.63605 -53.313129 -1.5861354
120.6343 -53.36132 -1.5580337
120.63378 -53.410435 -1.5434456
120.63283 -53.459225 -1.524088
120.63274 -53.508667 -1.5142694
120.63215 -53.557732 -1.4988863
120.63192 -53.607063 -1.4874778
120.63226 -53.656834 -1.4824287
120.63303 -53.706932 -1.4821489
120.63323 -53.756592 -1.47551
120.63371 -53.806469 -1.4720507
120.63514 -53.857056 -1.4789252
120.63519 -53.906605 -1.4706963
120.63647 -53.957085 -1.475981
120.63724 -54.007179 -1.4757013
120.6373 -54.056732 -1.4674724
120.60812 -54.084129 -1.1357143
120.60092 -54.128181 -1.0471992
120.59084 -54.170059 -0.92688775
120.58954 -54.218578 -0.90355563
120.59081 -54.269054 -0.90884018
120.5941 -54.321056 -0.93638253
120.59846 -54.373871 -0.97584838
120.60477 -54.428162 -1.036777
120.60934 -54.48114 -1.0786277
120.61572 -54.535484 -1.1403512
120.62138 -54.589279 -1.1941255
120.62725 -54.643242 -1.2502847
120.63384 -54.697746 -1.3143928
120.64014 -54.752033 -1.3753214
120.64731 -54.806973 -1.445789
120.65455 -54.861969 -1.5170513
120.66257 -54.917564 -1.5970579
120.6701 -54.972775 -1.6715
120.67999 -55.029785 -1.7721741
120.6909 -55.087555 -1.8839771
120.70043 -55.144291 -1.9806768
120.71355 -55.203751 -2.1171222
120.72532 -55.262173 -2.2384639
120.74369 -55.325607 -2.4329379
120.43851 -53.317554 -1.6221983
120.43548 -53.364769 -1.5797883
120.43373 -53.412956 -1.5516868
120.43307 -53.461964 -1.5355089
120.43291 -53.511353 -1.5248952
120.43232 -53.560417 -1.5095122
120.43259 -53.61013 -1.5036681
120.43243 -53.659519 -1.4930545
120.43285 -53.709343 -1.4888003
120.43383 -53.759602 -1.4909053
120.43539 -53.810295 -1.4993696
120.43674 -53.860828 -1.5054493
120.43514 -53.909126 -1.4789375
120.43864 -53.961292 -1.5088644
120.43985 -54.011715 -1.5133541
120.43954 -54.060997 -1.5011507
120.4095 -54.087738 -1.1598537
120.40108 -54.130867 -1.0578251
120.39165 -54.173233 -0.94466782
120.39114 -54.222351 -0.9300797
120.39112 -54.271851 -0.92105591
120.39412 -54.323631 -0.9454186
120.40071 -54.378136 -1.0095267
120.40522 -54.431065 -1.0505826
120.41045 -54.484535 -1.0995874
120.41574 -54.538059 -1.1493871
120.42162 -54.592022 -1.2055463
120.42813 -54.646469 -1.2688596
120.43307 -54.699722 -1.3146849
120.44118 -54.755371 -1.3954861
120.44698 -54.80928 -1.4508505
120.45601 -54.865635 -1.5419855
120.46295 -54.92041 -1.6100686
120.47214 -54.976875 -1.7027935
120.48124 -55.033287 -1.7947236
120.49027 -55.089642 -1.8858589
120.50131 -55.147522 -1.9992517
120.51315 -55.206001 -2.1213884
120.5262 -55.265404 -2.2570388
120.54321 -55.327801 -2.4364095
120.56079 -55.390633 -2.6221392
120.23746 -53.319317 -1.619311
120.23457 -53.366634 -1.5784907
120.2334 -53.41526 -1.5567484
120.23345 -53.464813 -1.5485196
120.2338 -53.514584 -1.5434704
120.2337 -53.564026 -1.5336518
120.23369 -53.613525 -1.5246279
120.23317 -53.66264 -1.5100398
120.23358 -53.712463 -1.5057857
120.235 -53.76305 -1.5126601
120.23592 -53.813255 -1.5139704
120.23526 -53.862263 -1.4977924
120.23509 -53.911652 -1.4871788
120.23824 -53.963543 -1.5131311
120.24095 -54.015106 -1.5343142
120.23534 -54.06036 -1.4632871
120.2356 -54.110077 -1.4574432
120.20262 -54.134586 -1.0835545
120.19218 -54.176193 -0.95926851
120.19145 -54.225143 -0.94229567
120.19165 -54.274807 -0.93565655
120.19558 -54.327297 -0.97035313
120.20059 -54.380604 -1.0169731
120.20575 -54.434021 -1.0651833
120.21054 -54.487167 -1.1094186
120.21642 -54.541126 -1.1655777
120.22308 -54.595684 -1.2304808
120.22794 -54.648884 -1.2755111
120.23532 -54.703987 -1.3483634
120.24149 -54.758167 -1.4077021
120.24908 -54.813435 -1.4829392
120.25517 -54.867558 -1.5414829
120.26405 -54.923805 -1.6310284
120.27309 -54.98016 -1.7221636
120.28162 -55.036133 -1.8077345
120.29173 -55.093307 -1.9107934
120.30062 -55.149551 -2.000339
120.31361 -55.2089 -2.1351943
120.32551 -55.267433 -2.258126
120.34482 -55.331573 -2.4629338
120.05619 -53.237049 -1.8530717
120.04144 -53.275387 -1.681091
120.03848 -53.322655 -1.6394758
120.03632 -53.370518 -1.6066047
120.03378 -53.41811 -1.569759
120.03406 -53.467827 -1.563915
120.03389 -53.517212 -1.5533013
120.03395 -53.566765 -1.5450726
120.03293 -53.615501 -1.52492
120.03435 -53.666084 -1.5317945
120.03447 -53.715694 -1.5243607
120.03575 -53.766171 -1.5296453
120.03702 -53.816647 -1.53493
120.03837 -53.86718 -1.5410097
120.03907 -53.917221 -1.5399351
120.04164 -53.968678 -1.5595281
120.04321 -54.019371 -1.5679924
120.04311 -54.068813 -1.5581738
120.01214 -54.094852 -1.2065428
120.00343 -54.137764 -1.1013346
119.99257 -54.179039 -0.97227907
119.99248 -54.228485 -0.96246046
119.99297 -54.278362 -0.959001
119.99625 -54.330364 -0.98654336
120.00155 -54.383888 -1.0363431
120.00685 -54.437412 -1.086143
120.01179 -54.490665 -1.1319681
120.0168 -54.543976 -1.1785883
120.02318 -54.598316 -1.2403119
120.02934 -54.652493 -1.2996505
120.03607 -54.707108 -1.3653486
120.04195 -54.76107 -1.4215076
120.04889 -54.815845 -1.4895905
120.05728 -54.871712 -1.5735714
120.06487 -54.926979 -1.6488085
120.07426 -54.983604 -1.7439182
120.08179 -55.038818 -1.8183603
120.09168 -55.095829 -1.9190346
120.10294 -55.15387 -2.034812
120.1142 -55.211914 -2.1505897
119.85508 -53.189259 -1.8584131
119.84652 -53.232277 -1.7547948
119.8373 -53.274807 -1.6440222
119.83499 -53.322563 -1.6095613
119.83376 -53.371136 -1.5870241
119.83359 -53.420525 -1.5764105
119.83443 -53.470673 -1.5769258
119.83471 -53.52039 -1.5710816
119.83584 -53.570759 -1.5747766
119.8356 -53.62009 -1.5633681
119.83595 -53.669861 -1.5583189
119.83586 -53.719303 -1.5485003
119.83541 -53.768475 -1.5347071
119.83784 -53.819824 -1.5527103
119.83947 -53.870571 -1.5619695
119.83895 -53.919685 -1.5473814
119.84008 -53.970055 -1.5510762
119.84438 -54.02282 -1.5897473
119.84472 -54.07259 -1.5846981
119.82344 -54.105972 -1.3403804
119.80345 -54.140339 -1.1103709
119.79382 -54.182541 -0.99482888
119.79301 -54.231441 -0.97706109
119.79392 -54.281647 -0.97837108
119.79692 -54.333427 -1.0027339
119.80222 -54.386955 -1.0525335
119.80745 -54.440426 -1.1015385
119.81167 -54.493134 -1.1394145
119.81776 -54.547256 -1.1979585
119.82413 -54.601601 -1.2596819
119.83051 -54.655941 -1.3214054
119.83652 -54.710011 -1.3791543
119.84348 -54.76479 -1.447237
119.84956 -54.818913 -1.5057809
119.85738 -54.874344 -1.5834026
119.86583 -54.930264 -1.6681787
119.87494 -54.986671 -1.7601087
119.88103 -55.040798 -1.8186526
119.89243 -55.098949 -1.9360199
119.90211 -55.155796 -2.0343094
119.91566 -55.21558 -2.1755242
119.92872 -55.274982 -2.3111744
119.65209 -53.189548 -1.8340631
119.64848 -53.236324 -1.7852937
119.63676 -53.276947 -1.6466992
119.63595 -53.325848 -1.6289315
119.63579 -53.375237 -1.618318
119.63534 -53.424408 -1.6045247
119.63561 -53.474121 -1.5986806
119.63452 -53.522804 -1.5777332
119.63443 -53.572243 -1.5679146
119.63657 -53.623375 -1.5827382
119.63828 -53.674179 -1.5927923
119.63625 -53.722153 -1.561511
119.63651 -53.771866 -1.5556669
119.63736 -53.822018 -1.5561821
119.63985 -53.873421 -1.5749805
119.6407 -53.923569 -1.5754957
119.64326 -53.975029 -1.5950887
119.64325 -54.024525 -1.5860649
119.64432 -54.074837 -1.5889649
119.62806 -54.112034 -1.4002911
119.60513 -54.144165 -1.1376901
119.59406 -54.18528 -1.0062499
119.59411 -54.234833 -0.99802107
119.59467 -54.284767 -0.9953565
119.59652 -54.335678 -1.0070007
119.60303 -54.390129 -1.0703138
119.60733 -54.442894 -1.1089849
119.61298 -54.496689 -1.1627593
119.61814 -54.550106 -1.2109692
119.62379 -54.603905 -1.2647436
119.63154 -54.659279 -1.3415704
119.63791 -54.713623 -1.4032938
119.64357 -54.767418 -1.4570682
119.65138 -54.822849 -1.53469
119.65898 -54.878117 -1.6099269
119.66621 -54.933113 -1.6811895
119.67374 -54.988323 -1.7556314
119.68306 -55.044899 -1.8499464
119.69073 -55.10022 -1.9259783
119.70436 -55.160057 -2.0679879
119.71634 -55.218643 -2.1917148
119.7291 -55.277832 -2.3241854
119.74446 -55.338978 -2.4852729
119.45959 -53.197784 -1.92577
119.45174 -53.241348 -1.8301008
119.43513 -53.278275 -1.6374522
119.43591 -53.328369 -1.6371726
119.43588 -53.377865 -1.6281488
119.43565 -53.4272 -1.6167405
119.43549 -53.476589 -1.6061268
119.43626 -53.526684 -1.6058471
119.43639 -53.57629 -1.5984132
119.43552 -53.625134 -1.5798504
119.43657 -53.675449 -1.5827504
119.43605 -53.724564 -1.5681623
119.43776 -53.775368 -1.5782166
119.43767 -53.82481 -1.5683979
119.43909 -53.875397 -1.5752724
119.44058 -53.926037 -1.5829418
119.44279 -53.977222 -1.5985603
119.44357 -54.027321 -1.5982807
119.44463 -54.077633 -1.6011806
119.44324 -54.126095 -1.5770537
119.40602 -54.147396 -1.156265
119.39573 -54.18911 -1.0335689
119.39521 -54.238228 -1.0189807
119.39526 -54.287777 -1.0107517
119.39755 -54.339016 -1.0271654
119.40378 -54.39325 -1.087299
119.40858 -54.446396 -1.1315346
119.41438 -54.500301 -1.1868986
119.4196 -54.553772 -1.2359035
119.42548 -54.607731 -1.2920625
119.43106 -54.661476 -1.345042
119.43873 -54.716797 -1.4210739
119.44389 -54.770214 -1.4692838
119.45155 -54.825535 -1.5453159
119.45828 -54.88015 -1.6110139
119.46703 -54.936287 -1.6989696
119.47499 -54.991825 -1.7781811
119.48388 -55.048073 -1.8677264
119.4937 -55.105026 -1.9676057
119.5046 -55.162796 -2.0794086
119.51442 -55.219749 -2.1792879
119.52934 -55.280571 -2.3356061
119.26575 -52.907951 -2.0557213
119.26788 -52.95908 -2.0705452
119.2701 -53.010265 -2.0861635
119.27216 -53.06134 -2.1001923
119.27437 -53.112526 -2.1158109
119.2765 -53.163654 -2.1306345
119.26133 -53.201668 -1.9538841
119.25859 -53.249096 -1.9146538
119.23164 -53.278183 -1.6075377
119.22889 -53.325611 -1.5683074
119.22837 -53.374725 -1.5537193
119.23625 -53.430214 -1.632136
119.23681 -53.480145 -1.6294715
119.23686 -53.529697 -1.6212426
119.23584 -53.57843 -1.6010902
119.23633 -53.628311 -1.5976307
119.23731 -53.67857 -1.5997359
119.23909 -53.729427 -1.610585
119.23987 -53.779526 -1.6103053
119.24036 -53.829403 -1.6068459
119.24113 -53.879498 -1.6065662
119.23988 -53.92807 -1.584029
119.23936 -53.977188 -1.5694407
119.23971 -54.026955 -1.5643916
119.2379 -54.075092 -1.535495
119.2419 -54.12764 -1.5709865
119.20676 -54.150517 -1.1732504
119.19705 -54.192665 -1.0569136
119.19603 -54.241402 -1.036761
119.19586 -54.290791 -1.0261474
119.1985 -54.3423 -1.0465355
119.20424 -54.396152 -1.1011047
119.20982 -54.449898 -1.1540843
119.21483 -54.503204 -1.2007043
119.22113 -54.557491 -1.2616329
119.22629 -54.610909 -1.3098428
119.23324 -54.665684 -1.3779258
119.23767 -54.718555 -1.4181865
119.2457 -54.774151 -1.4981929
119.25093 -54.827621 -1.5471979
119.2591 -54.883324 -1.6287942
119.26662 -54.938538 -1.7032363
119.27602 -54.995163 -1.798346
119.28541 -55.051792 -1.8934559
119.29552 -55.108963 -1.9965148
119.3047 -55.165428 -2.0892401
119.31854 -55.225433 -2.2336345
119.32887 -55.282768 -2.3390779
119.34486 -55.344402 -2.5073199
119.06265 -53.205223 -1.9772286
119.05933 -53.252216 -1.931639
119.05299 -53.296925 -1.8526629
119.03603 -53.333576 -1.6560398
119.03486 -53.382202 -1.6342975
119.03542 -53.432137 -1.631633
119.03461 -53.481033 -1.6138653
119.0356 -53.531296 -1.6159703
119.03867 -53.58313 -1.6411278
119.04052 -53.634045 -1.6527717
119.04072 -53.683704 -1.6461327
119.0407 -53.7332 -1.637109
119.0404 -53.782482 -1.6249057
119.04081 -53.832306 -1.6206515
119.03979 -53.881039 -1.6004989
119.04135 -53.931732 -1.6089633
119.0404 -53.980522 -1.5896056
119.04017 -54.029858 -1.5781971
119.04123 -54.080173 -1.5810971
119.03403 -54.124226 -1.4925822
119.00787 -54.153912 -1.1942102
118.99715 -54.195297 -1.0667446
118.99627 -54.244141 -1.0481818
118.99712 -54.294292 -1.048697
118.99961 -54.345695 -1.0674952
119.00562 -54.399765 -1.1252441
119.00984 -54.452473 -1.1631203
119.01421 -54.505291 -1.2025862
119.02094 -54.559906 -1.2682842
119.02711 -54.614082 -1.3276229
119.03269 -54.667824 -1.3806024
119.03864 -54.72184 -1.4375565
119.04544 -54.776508 -1.5040493
119.05239 -54.831287 -1.5721322
119.06013 -54.886662 -1.6489589
119.06794 -54.942093 -1.7265809
119.07619 -54.997849 -1.8089719
119.08543 -55.054367 -1.9024919
119.09447 -55.110725 -1.9936272
119.10623 -55.169147 -2.1149693
119.11677 -55.226646 -2.2227974
119.13126 -55.28714 -2.374346
119.14539 -55.347359 -2.5219202
118.86454 -53.209217 -2.0069327
118.86101 -53.256046 -1.9589581
118.85416 -53.300373 -1.8744178
118.83978 -53.338982 -1.7064115
118.83733 -53.386627 -1.6703608
118.83608 -53.4352 -1.6478236
118.83636 -53.484917 -1.6419795
118.83763 -53.535393 -1.647264
118.83948 -53.586304 -1.6589081
118.84055 -53.63662 -1.661808
118.84052 -53.686115 -1.6527843
118.84072 -53.735779 -1.6461453
118.84157 -53.785927 -1.6466606
118.84212 -53.835861 -1.6439961
118.8434 -53.886337 -1.6492808
118.84187 -53.934692 -1.623564
118.84308 -53.985115 -1.6280537
118.84285 -54.034447 -1.6166451
118.84225 -54.083511 -1.6012621
118.83427 -54.126965 -1.5040033
118.80853 -54.156975 -1.2104007
118.79868 -54.199017 -1.092474
118.79744 -54.247589 -1.0699368
118.79764 -54.297249 -1.0632976
118.7992 -54.347946 -1.0717621
118.80622 -54.402775 -1.1406397
118.81174 -54.456463 -1.1928244
118.81617 -54.509338 -1.233085
118.82204 -54.563297 -1.2892442
118.82691 -54.616493 -1.3342745
118.83479 -54.671982 -1.4126911
118.83959 -54.725124 -1.4569266
118.84612 -54.779575 -1.5202398
118.85356 -54.834732 -1.5938871
118.86051 -54.889511 -1.6619698
118.8689 -54.945374 -1.7459509
118.87635 -55.000534 -1.819598
118.88582 -55.057217 -1.9155028
118.89578 -55.114281 -2.0169718
118.90683 -55.172157 -2.1303647
118.91823 -55.230312 -2.2477322
118.92928 -55.288193 -2.3611248
118.94484 -55.349503 -2.5245972
118.6825 -53.076855 -2.240973
118.67566 -53.121178 -2.1564326
118.68591 -53.178459 -2.2610815
118.69157 -53.232258 -2.3148558
118.66074 -53.258404 -1.9648145
118.64729 -53.297722 -1.8071421
118.64246 -53.343575 -1.7448593
118.63885 -53.39035 -1.69609
118.63741 -53.438759 -1.671168
118.63731 -53.488201 -1.6613493
118.63795 -53.538189 -1.6594797
118.64073 -53.589809 -1.6814578
118.64056 -53.639198 -1.6708441
118.64055 -53.688694 -1.6618203
118.64003 -53.737808 -1.6472322
118.6426 -53.789268 -1.6668253
118.64488 -53.840508 -1.6832389
118.64508 -53.890167 -1.6765999
118.64398 -53.938847 -1.6556524
118.64648 -53.99025 -1.6744505
118.64833 -54.041161 -1.6860945
118.64853 -54.090824 -1.6794555
118.63709 -54.131664 -1.5440408
118.60935 -54.160152 -1.2281808
118.59899 -54.201813 -1.1046896
118.59847 -54.250927 -1.0901015
118.59846 -54.300423 -1.0810777
118.60045 -54.351448 -1.0943116
118.60632 -54.405407 -1.1504706
118.61105 -54.458496 -1.1939112
118.61699 -54.512512 -1.2508651
118.622 -54.565819 -1.2974854
118.62766 -54.619617 -1.3512597
118.63382 -54.673794 -1.4105984
118.64034 -54.728245 -1.4739118
118.647 -54.782806 -1.5388148
118.65373 -54.837418 -1.6045129
118.66075 -54.89225 -1.6733905
118.669 -54.948006 -1.7557819
118.67724 -55.003765 -1.8381729
118.6857 -55.059685 -1.922949
118.69566 -55.116749 -2.0244181
118.70577 -55.17392 -2.1274772
118.71732 -55.232182 -2.2464342
118.73217 -55.292946 -2.4019573
118.74667 -55.353439 -2.5535059
118.76511 -55.416924 -2.7487748
118.47222 -53.170639 -2.1182895
118.46689 -53.21611 -2.0504422
118.46127 -53.26136 -1.9794152
118.45436 -53.305634 -1.8940799
118.44363 -53.347019 -1.7666142
118.44025 -53.393959 -1.7202296
118.43556 -53.439919 -1.6595365
118.43727 -53.490723 -1.6695907
118.44099 -53.543053 -1.7019023
118.44154 -53.592983 -1.6992381
118.44246 -53.643188 -1.7005481
118.44409 -53.693935 -1.7098073
118.44372 -53.743164 -1.6968091
118.44492 -53.793587 -1.7012988
118.44576 -53.843735 -1.7018141
118.44438 -53.892197 -1.6776869
118.44466 -53.941914 -1.6718428
118.44629 -53.992661 -1.681102
118.44699 -54.042706 -1.6800275
118.44784 -54.092854 -1.6805427
118.42275 -54.123356 -1.3940946
118.41052 -54.163597 -1.2499356
118.4006 -54.205585 -1.1312139
118.39935 -54.254158 -1.1086767
118.39898 -54.303383 -1.0956783
118.40134 -54.354675 -1.1128869
118.40678 -54.40831 -1.1642764
118.41164 -54.46151 -1.2093067
118.41751 -54.515469 -1.2654657
118.42382 -54.569756 -1.3263943
118.42876 -54.623009 -1.3722196
118.43484 -54.677132 -1.4307635
118.44108 -54.731365 -1.4908972
118.44803 -54.786144 -1.5589797
118.45425 -54.840378 -1.6191136
118.46222 -54.895916 -1.698325
118.46844 -54.95015 -1.7584589
118.4782 -55.00705 -1.8575431
118.48766 -55.063728 -1.9534478
118.49626 -55.119759 -2.0398135
118.50666 -55.177151 -2.1460524
118.51756 -55.234921 -2.2578552
118.53162 -55.295086 -2.4046342
118.5464 -55.355797 -2.5593626
118.31805 -53.257442 -2.6254561
118.2952 -53.289631 -2.3636503
118.25632 -53.309681 -1.9245788
118.23756 -53.344971 -1.7080829
118.23294 -53.390984 -1.6481848
118.23436 -53.44157 -1.6550592
118.23822 -53.494007 -1.6889608
118.24309 -53.547203 -1.733991
118.24271 -53.596428 -1.7209928
118.24277 -53.645981 -1.7127639
118.24153 -53.694553 -1.6902267
118.2446 -53.746391 -1.7153842
118.24631 -53.797195 -1.7254384
118.24579 -53.846313 -1.7108502
118.24584 -53.895863 -1.7026215
118.24669 -53.946014 -1.7031367
118.24495 -53.994202 -1.675035
118.24989 -54.047459 -1.7208602
118.25368 -54.099838 -1.7539668
118.25417 -54.149719 -1.7505076
118.21184 -54.167152 -1.2732804
118.20234 -54.209465 -1.1593281
118.19981 -54.257061 -1.1224825
118.20044 -54.307045 -1.1206129
118.20186 -54.357632 -1.1274874
118.20773 -54.411591 -1.1836464
118.21267 -54.464844 -1.2294718
118.21854 -54.518806 -1.2856308
118.22398 -54.572441 -1.3370204
118.22893 -54.625694 -1.3828456
118.23559 -54.680252 -1.4477489
118.24218 -54.734756 -1.511857
118.24877 -54.789265 -1.5759652
118.25522 -54.843658 -1.6384838
118.26238 -54.898602 -1.7089511
118.27077 -54.954468 -1.7929323
118.2785 -55.009842 -1.8697591
118.28769 -55.066307 -1.9624841
118.29751 -55.12326 -2.0623634
118.30755 -55.180378 -2.1646276
118.31974 -55.239128 -2.2907388
118.33164 -55.297661 -2.4136705
118.34686 -55.3587 -2.5731683
118.18309 -53.061737 -3.398212
118.1848 -53.112541 -3.4082661
118.186 -53.162964 -3.412756
118.18671 -53.213005 -3.4116812
118.12104 -53.212753 -2.6761074
118.1216 -53.262684 -2.6734428
118.08681 -53.285839 -2.2796814
118.03709 -53.297668 -1.7205782
118.04118 -53.350269 -1.7568645
118.04353 -53.401562 -1.7740729
118.04387 -53.451332 -1.7690238
118.04385 -53.500828 -1.76
118.04506 -53.55125 -1.7644897
118.04346 -53.599552 -1.737978
118.04495 -53.650192 -1.7456473
118.0455 -53.700123 -1.7429829
118.0442 -53.748642 -1.7196507
118.04425 -53.798195 -1.711422
118.04488 -53.848183 -1.7095525
118.04443 -53.89735 -1.6957593
118.04837 -53.949844 -1.7304558
118.03937 -53.992535 -1.6220678
118.05149 -54.051231 -1.7473843
118.05284 -54.101765 -1.753464
118.04111 -54.142387 -1.6148696
118.01215 -54.169949 -1.285496
118.00208 -54.211826 -1.1651845
118.00092 -54.260452 -1.1434422
118.0009 -54.309952 -1.1344184
118.00275 -54.360863 -1.1460624
118.00926 -54.415314 -1.2093756
118.01413 -54.468513 -1.2544061
118.01921 -54.521873 -1.301821
118.02509 -54.575836 -1.3579803
118.03125 -54.630013 -1.4173189
118.03648 -54.683483 -1.4663239
118.04328 -54.738152 -1.5328169
118.04937 -54.792274 -1.5913606
118.05661 -54.847271 -1.662623
118.06348 -54.901993 -1.7299109
118.07014 -54.956551 -1.7948141
118.07925 -55.012962 -1.8867441
118.08829 -55.069321 -1.9778794
118.09832 -55.126438 -2.0801435
118.10843 -55.183609 -2.1832023
118.12084 -55.242523 -2.3116987
118.13476 -55.302578 -2.4568877
118.14989 -55.363564 -2.6155906
117.97768 -52.565094 -3.4354823
117.97954 -52.616009 -3.4471264
117.98038 -52.666161 -3.4476414
117.98173 -52.71669 -3.453721
117.98228 -52.766624 -3.4510565
117.9827 -52.816448 -3.4468026
117.98369 -52.866707 -3.4489074
117.98446 -52.916801 -3.4486277
117.98473 -52.966518 -3.4427838
117.9855 -53.016613 -3.4425039
117.98556 -53.066166 -3.4342752
117.98611 -53.116096 -3.4316106
117.98631 -53.16576 -3.4249716
117.98695 -53.215744 -3.4231021
117.98736 -53.265568 -3.418848
117.92241 -53.265862 -2.6912231
117.92261 -53.315521 -2.6845841
117.84674 -53.307537 -1.8361328
117.84105 -53.352737 -1.764311
117.83974 -53.401253 -1.7409788
117.84152 -53.45211 -1.751828
117.84244 -53.502316 -1.7531381
117.84328 -53.552467 -1.7536532
117.84499 -53.603271 -1.7637074
117.84605 -53.653584 -1.7666073
117.84538 -53.702591 -1.7504294
117.84566 -53.752308 -1.7445853
117.84766 -53.803329 -1.7578192
117.8467 -53.852119 -1.7384615
117.84396 -53.899548 -1.6992311
117.84509 -53.949913 -1.702926
117.84657 -54.000553 -1.7105954
117.85245 -54.054516 -1.7667544
117.85186 -54.103577 -1.7513714
117.84286 -54.146271 -1.6429837
117.81268 -54.172905 -1.3000966
117.80354 -54.215492 -1.190119
117.80137 -54.263355 -1.1572479
117.802 -54.313343 -1.1553783
117.8037 -54.364147 -1.1654326
117.80914 -54.417778 -1.2168221
117.81451 -54.471359 -1.267417
117.81931 -54.524506 -1.3116522
117.82576 -54.578899 -1.3741707
