# .PCD v0.7 - Point Cloud Data file format
VERSION 0.7
FIELDS x y z
SIZE 4 4 4
TYPE F F F
COUNT 1 1 1
WIDTH 1602
HEIGHT 1
VIEWPOINT 0 0 0 1 0 0 0
POINTS 1602
DATA ascii
3.1281853 -22.468513 0.6376
3.0783405 -22.464588 0.5848
3.0284939 -22.460663 0.52880001
2.9786491 -22.456738 0.45280001
2.9288025 -22.452812 0.3944
2.8789577 -22.448891 0.3168
2.8291111 -22.444965 0.2392
2.7792664 -22.44104 0.16
2.7294197 -22.437115 0.072800003
2.679575 -22.433193 -0.0296
2.6297283 -22.429268 -0.1384
4.3900261 -22.367241 0.043200001
4.3401814 -22.363316 0.075199999
4.2903366 -22.35939 0.1176
4.24049 -22.355465 0.148
4.1906433 -22.35154 0.1512
4.1407986 -22.347618 0.14560001
4.0909538 -22.343693 0.15279999
4.0411072 -22.339767 0.14560001
3.9912605 -22.335842 0.14480001
3.9414158 -22.331921 0.14480001
3.8915691 -22.327995 0.1496
3.8417244 -22.32407 0.1504
3.7918777 -22.320145 0.15279999
3.742033 -22.316223 0.16
3.6921864 -22.312298 0.15279999
3.6423416 -22.308372 0.1488
3.592495 -22.304447 0.1416
3.5426502 -22.300526 0.7464
3.4928036 -22.2966 0.87199998
3.4429569 -22.292675 0.89279997
3.3931122 -22.28875 0.89120001
3.3432674 -22.284828 0.87040001
3.2934208 -22.280903 0.80879998
3.2435741 -22.276978 0.7536
3.1937294 -22.273052 0.69999999
3.1438828 -22.269131 0.64880002
3.094038 -22.265205 0.5848
3.0441914 -22.26128 0.5248
2.9943466 -22.257355 0.46239999
2.9445 -22.253429 0.3976
2.8946552 -22.249508 0.32800001
2.8448086 -22.245583 0.24879999
2.7949638 -22.241657 0.1576
2.7451172 -22.237732 0.079999998
2.6952724 -22.23381 -0.028000001
2.6454258 -22.229885 -0.1504
4.4057245 -22.167854 -0.019200001
4.3558798 -22.163933 0.071199998
4.3060341 -22.160007 0.116
4.2561884 -22.156082 0.1496
4.2063417 -22.152157 0.152
4.156496 -22.148235 0.1512
4.1066513 -22.14431 0.15279999
4.0568056 -22.140385 0.152
4.006959 -22.136459 0.152
3.9571133 -22.132538 0.156
3.9072676 -22.128613 0.152
3.8574228 -22.124687 0.152
3.8075762 -22.120762 0.1512
3.7577305 -22.11684 0.15360001
3.7078848 -22.112915 0.15360001
3.6580391 -22.10899 0.1568
3.6081934 -22.105064 0.1472
3.5583477 -22.101143 0.74800003
3.508502 -22.097218 0.86400002
3.4586554 -22.093292 0.88800001
3.4088097 -22.089367 0.89120001
3.3589649 -22.085445 0.87360001
3.3091192 -22.08152 0.8064
3.2592726 -22.077595 0.76880002
3.2094269 -22.073669 0.708
3.1595812 -22.069748 0.64480001
3.1097364 -22.065823 0.59119999
3.0598898 -22.061897 0.5248
3.0100441 -22.057972 0.46079999
2.9601984 -22.054047 0.3944
2.9103527 -22.050125 0.32480001
2.860507 -22.0462 0.2448
2.8106613 -22.042274 0.1768
2.7608156 -22.038349 0.0792
2.7109699 -22.034428 -0.0088
2.6611233 -22.030502 -0.1376
4.421422 -21.968468 0.022399999
4.3715773 -21.964546 0.068800002
4.3217316 -21.960621 0.1216
4.2718859 -21.956696 0.1464
4.2220392 -21.95277 0.1464
4.1721935 -21.948849 0.1504
4.1223488 -21.944923 0.15279999
4.0725031 -21.940998 0.1512
4.0226564 -21.937073 0.15279999
3.9728107 -21.933151 0.152
3.922965 -21.929226 0.15440001
3.8731203 -21.925301 0.1496
3.8232737 -21.921375 0.1552
3.773428 -21.917454 0.15440001
3.7235823 -21.913528 0.15279999
3.6737366 -21.909603 0.1552
3.6238909 -21.905678 0.14480001
3.5740452 -21.901756 0.76719999
3.5241995 -21.897831 0.85519999
3.4743528 -21.893906 0.88639998
3.4245071 -21.88998 0.89120001
3.3746624 -21.886059 0.87360001
3.3248167 -21.882133 0.8168
3.2749701 -21.878208 0.76560003
3.2251244 -21.874283 0.71039999
3.1752787 -21.870361 0.65679997
3.1254339 -21.866436 0.6024
3.0755873 -21.862511 0.5248
3.0257416 -21.858585 0.46560001
2.9758959 -21.85466 0.40720001
2.9260502 -21.850739 0.33360001
2.8762045 -21.846813 0.24959999
2.8263588 -21.842888 0.1688
2.7765131 -21.838963 0.075199999
2.7266674 -21.835041 -0.0184
2.6768208 -21.831116 -0.156
4.4371195 -21.769089 -0.096799999
4.3872747 -21.765167 0.058400001
4.337429 -21.761242 0.1184
4.2875834 -21.757317 0.148
4.2377367 -21.753391 0.152
4.187891 -21.74947 0.1496
4.1380463 -21.745544 0.15440001
4.0882006 -21.741619 0.1504
4.0383539 -21.737694 0.15279999
3.9885082 -21.733772 0.15440001
3.9386625 -21.729847 0.152
3.8888178 -21.725922 0.1512
3.8389711 -21.721996 0.15279999
3.7891254 -21.718075 0.1552
3.7392797 -21.714149 0.1576
3.6894341 -21.710224 0.1592
3.6395884 -21.706299 0.14480001
3.5897427 -21.702377 0.49599999
3.539897 -21.698452 0.82800001
3.4900503 -21.694527 0.89039999
3.4402046 -21.690601 0.89200002
3.3903599 -21.68668 0.89279997
3.3405142 -21.682755 0.81599998
3.2906675 -21.678829 0.76959997
3.2408218 -21.674904 0.70719999
3.1909761 -21.670982 0.64880002
3.1411314 -21.667057 0.60399997
3.0912848 -21.663132 0.53439999
3.0414391 -21.659206 0.46799999
2.9915934 -21.655281 0.4032
2.9417477 -21.65136 0.32800001
2.891902 -21.647434 0.26320001
2.8420563 -21.643509 0.17839999
2.7922106 -21.639584 0.088799998
2.7423649 -21.635662 -0.0144
2.6925182 -21.631737 -0.1256
2.6426735 -21.627811 -0.19679999
4.4029722 -21.565784 0.052000001
4.3531265 -21.561859 0.1192
4.3032808 -21.557934 0.1504
4.2534342 -21.554008 0.1488
4.2035885 -21.550087 0.1488
4.1537437 -21.546162 0.1464
4.103898 -21.542236 0.148
4.0540514 -21.538311 0.15279999
4.0042057 -21.534389 0.1552
3.95436 -21.530464 0.152
3.9045153 -21.526539 0.15440001
3.8546686 -21.522614 0.1504
3.8048229 -21.518692 0.15279999
3.7549772 -21.514767 0.15360001
3.7051315 -21.510841 0.1584
3.6552858 -21.506916 0.1408
3.6054401 -21.502995 0.74479997
3.5555944 -21.499069 0.81199998
3.5057478 -21.495144 0.88639998
3.4559021 -21.491219 0.89600003
3.4060574 -21.487297 0.88239998
3.3562117 -21.483372 0.81840003
3.306365 -21.479446 0.76480001
3.2565193 -21.475521 0.7184
3.2066736 -21.4716 0.66079998
3.1568289 -21.467674 0.60479999
3.1069822 -21.463749 0.53680003
3.0571365 -21.459824 0.47839999
3.0072908 -21.455898 0.40079999
2.9574451 -21.451977 0.3328
2.9075994 -21.448051 0.2536
2.8577538 -21.444126 0.1688
2.8079081 -21.440201 0.085600004
2.7580624 -21.436279 -0.0104
2.7082157 -21.432354 -0.12
2.658371 -21.428429 -0.20479999
4.4186697 -21.366402 0.063199997
4.368824 -21.362476 0.1144
4.3189783 -21.358551 0.152
4.2691317 -21.354626 0.1488
4.219286 -21.350704 0.15279999
4.1694412 -21.346779 0.1488
4.1195955 -21.342854 0.152
4.0697489 -21.338928 0.148
4.0199032 -21.335007 0.156
3.9700575 -21.331081 0.1496
3.9202127 -21.327156 0.148
3.8703661 -21.323231 0.1488
3.8205204 -21.319309 0.1496
3.7706747 -21.315384 0.15279999
3.720829 -21.311459 0.1552
3.6709833 -21.307533 0.1392
3.6211376 -21.303612 0.75440001
3.5712919 -21.299686 0.8064
3.5214453 -21.295761 0.88639998
3.4715996 -21.291836 0.89279997
3.4217548 -21.287914 0.88880002
3.3719091 -21.283989 0.82319999
3.3220625 -21.280064 0.77600002
3.2722168 -21.276138 0.71600002
3.2223711 -21.272217 0.67040002
3.1725264 -21.268291 0.60079998
3.1226797 -21.264366 0.53759998
3.072834 -21.260441 0.47279999
3.0229883 -21.256516 0.41119999
2.9731426 -21.252594 0.3272
2.9232969 -21.248669 0.264
2.8734512 -21.244743 0.1752
2.8236055 -21.240818 0.091200002
2.7737598 -21.236897 -0.012
2.7239132 -21.232971 -0.1176
2.6740685 -21.229046 -0.1992
4.4343681 -21.167015 0.059999999
4.3845215 -21.16309 0.092
4.3346767 -21.159164 0.14560001
4.2848301 -21.155239 0.148
4.2349834 -21.151318 0.1504
4.1851387 -21.147392 0.1552
4.135294 -21.143467 0.148
4.0854473 -21.139542 0.1512
4.0356007 -21.13562 0.1496
3.9857559 -21.131695 0.1496
3.9359112 -21.127769 0.1496
3.8860645 -21.123844 0.152
3.8362179 -21.119923 0.15360001
3.7863731 -21.115997 0.1504
3.7365265 -21.112072 0.15360001
3.6866817 -21.108147 0.13680001
3.6368351 -21.104225 0.74479997
3.5869904 -21.1003 0.77600002
3.5371437 -21.096375 0.88959998
3.4872971 -21.092449 0.88639998
3.4374523 -21.088528 0.88800001
3.3876076 -21.084602 0.83999997
3.3377609 -21.080677 0.77280003
3.2879143 -21.076752 0.72000003
3.2380695 -21.07283 0.66240001
3.1882248 -21.068905 0.6056
3.1383781 -21.06498 0.55440003
3.0885315 -21.061054 0.47839999
3.0386868 -21.057129 0.4104
2.9888401 -21.053207 0.3344
2.9389954 -21.049282 0.26640001
2.8891487 -21.045357 0.1832
2.839304 -21.041431 0.1008
2.7894573 -21.03751 0
2.7396107 -21.033585 -0.1016
2.6897659 -21.029659 -0.2088
4.4500656 -20.967632 0.0616
4.4002199 -20.963707 0.1032
4.3503742 -20.959782 0.14560001
4.3005276 -20.955856 0.15279999
4.2506819 -20.951935 0.1464
4.2008371 -20.948009 0.1464
4.1509914 -20.944084 0.1488
4.1011448 -20.940159 0.1496
4.0512991 -20.936237 0.1464
4.0014534 -20.932312 0.1512
3.9516087 -20.928387 0.1512
3.901762 -20.924461 0.148
3.8519163 -20.92054 0.14560001
3.8020706 -20.916615 0.1488
3.7522249 -20.912689 0.15440001
3.7023792 -20.908764 0.1256
3.6525335 -20.904842 0.12720001
3.6026878 -20.900917 0.77200001
3.5528412 -20.896992 0.88480002
3.5029955 -20.893066 0.88880002
3.4531507 -20.889145 0.88239998
3.4033051 -20.88522 0.8312
3.3534584 -20.881294 0.78320003
3.3036127 -20.877369 0.73040003
3.253767 -20.873447 0.66079998
3.2039223 -20.869522 0.6128
3.1540756 -20.865597 0.5456
3.1042299 -20.861671 0.48559999
3.0543842 -20.857746 0.41679999
3.0045385 -20.853825 0.33520001
2.9546928 -20.849899 0.27360001
2.9048471 -20.845974 0.1944
2.8550014 -20.842049 0.1008
2.8051558 -20.838127 0.0176
2.7553091 -20.834202 -0.092
2.7054644 -20.830276 -0.2104
4.4657631 -20.768253 0.048
4.4159164 -20.764328 0.1024
4.3660717 -20.760403 0.1472
4.3162251 -20.756477 0.148
4.2663784 -20.752556 0.1472
4.2165337 -20.748631 0.148
4.1666889 -20.744705 0.1496
4.1168423 -20.74078 0.1496
4.0669956 -20.736858 0.1464
4.0171509 -20.732933 0.148
3.9673061 -20.729008 0.1488
3.9174595 -20.725082 0.1472
3.8676128 -20.721161 0.1488
3.8177681 -20.717236 0.152
3.7679214 -20.71331 0.152
3.7180767 -20.709385 0.1312
3.6682301 -20.705463 0.1304
3.6183853 -20.701538 0.78399998
3.5685387 -20.697613 0.88
3.518692 -20.693687 0.88639998
3.4688473 -20.689766 0.88239998
3.4190025 -20.685841 0.83039999
3.3691559 -20.681915 0.7784
3.3193092 -20.67799 0.74000001
3.2694645 -20.674068 0.67360002
3.2196198 -20.670143 0.60000002
3.1697731 -20.666218 0.5528
3.1199265 -20.662292 0.48800001
3.0700817 -20.658367 0.42320001
3.0202351 -20.654446 0.33840001
2.9703903 -20.65052 0.2832
2.9205437 -20.646595 0.18799999
2.8706989 -20.64267 0.1
2.8208523 -20.638748 0.0128
2.7710056 -20.634823 -0.1
2.7211609 -20.630898 -0.2032
4.4814606 -20.568871 0.043200001
4.4316149 -20.564945 0.088
4.3817692 -20.56102 0.1384
4.3319225 -20.557095 0.15279999
4.2820768 -20.553173 0.1488
4.2322321 -20.549248 0.1488
4.1823864 -20.545322 0.1464
4.1325397 -20.541397 0.1464
4.0826941 -20.537476 0.14560001
4.0328484 -20.53355 0.1432
3.9830036 -20.529625 0.14480001
3.933157 -20.5257 0.14480001
3.8833113 -20.521778 0.1464
3.8334656 -20.517853 0.1488
3.7836199 -20.513927 0.15440001
3.7337742 -20.510002 0.1424
3.6839285 -20.506081 0.12800001
3.6340828 -20.502155 0.75599998
3.5842361 -20.49823 0.884
3.5343904 -20.494305 0.88160002
3.4845457 -20.490383 0.88080001
3.4347 -20.486458 0.83039999
3.3848534 -20.482533 0.78240001
3.3350077 -20.478607 0.73280001
3.285162 -20.474686 0.67119998
3.2353172 -20.47076 0.60640001
3.1854706 -20.466835 0.55760002
3.1356249 -20.46291 0.49520001
3.0857792 -20.458984 0.42640001
3.0359335 -20.455063 0.34799999
2.9860878 -20.451138 0.27680001
2.9362421 -20.447212 0.1912
2.8863964 -20.443287 0.1048
2.8365507 -20.439365 0.0040000002
2.7867041 -20.43544 -0.081600003
2.7368593 -20.431515 -0.2016
4.4971581 -20.369484 0.045600001
4.4473124 -20.365559 0.1032
4.3974667 -20.361633 0.152
4.34762 -20.357708 0.1464
4.2977743 -20.353786 0.1424
4.2479296 -20.349861 0.1472
4.1980839 -20.345936 0.1488
4.1482372 -20.34201 0.1512
4.0983915 -20.338089 0.152
4.0485458 -20.334164 0.15440001
3.9987011 -20.330238 0.148
3.9488544 -20.326313 0.1504
3.8990088 -20.322392 0.1504
3.8491631 -20.318466 0.1512
3.7993174 -20.314541 0.15440001
3.7494717 -20.310616 0.14399999
3.699626 -20.306694 0.1288
3.6497803 -20.302769 0.76639998
3.5999336 -20.298843 0.88800001
3.5500879 -20.294918 0.88
3.5002432 -20.290997 0.88480002
3.4503975 -20.287071 0.83279997
3.4005508 -20.283146 0.79759997
3.3507051 -20.279221 0.73439997
3.3008595 -20.275299 0.67040002
3.2510147 -20.271374 0.61839998
3.2011681 -20.267448 0.5632
3.1513224 -20.263523 0.48879999
3.1014767 -20.259598 0.42160001
3.051631 -20.255676 0.3448
3.0017853 -20.251751 0.28799999
2.9519396 -20.247826 0.1912
2.9020939 -20.2439 0.1128
2.8522482 -20.239979 0.034400001
2.8024015 -20.236053 -0.0792
2.7525568 -20.232128 -0.204
4.5128555 -20.170101 0.044
4.4630098 -20.166176 0.092
4.4131641 -20.162251 0.14560001
4.3633175 -20.158325 0.1496
4.3134718 -20.154404 0.1408
4.2636271 -20.150478 0.1488
4.2137814 -20.146553 0.1552
4.1639347 -20.142628 0.15440001
4.114089 -20.138706 0.1464
4.0642433 -20.134781 0.1512
4.0143986 -20.130856 0.1512
3.9645519 -20.12693 0.1472
3.9147062 -20.123009 0.1512
3.8648605 -20.119083 0.1504
3.8150148 -20.115158 0.1504
3.7651691 -20.111233 0.1432
3.7153234 -20.107311 0.1248
3.6654778 -20.103386 0.76560003
3.6156311 -20.099461 0.88160002
3.5657854 -20.095535 0.88880002
3.5159407 -20.091614 0.88880002
3.466095 -20.087688 0.83679998
3.4162483 -20.083763 0.78399998
3.3664026 -20.079838 0.7432
3.3165569 -20.075916 0.67360002
3.2667122 -20.071991 0.61360002
3.2168655 -20.068066 0.55199999
3.1670198 -20.06414 0.49200001
3.1171741 -20.060215 0.4208
3.0673285 -20.056293 0.35679999
3.0174828 -20.052368 0.27039999
2.9676371 -20.048443 0.1952
2.9177914 -20.044518 0.1088
2.8679457 -20.040596 0.0232
2.818099 -20.036671 -0.068800002
2.7682543 -20.032745 -0.1992
4.528553 -19.970718 0.042399999
4.4787083 -19.966793 0.1024
4.4288616 -19.962868 0.14399999
4.379015 -19.958942 0.152
4.3291702 -19.955021 0.1488
4.2793255 -19.951096 0.148
4.2294788 -19.94717 0.1512
4.1796322 -19.943245 0.1504
4.1297874 -19.939323 0.15279999
4.0799408 -19.935398 0.1512
4.0300961 -19.931473 0.148
3.9802494 -19.927547 0.1512
3.9304047 -19.923626 0.1504
3.880558 -19.919701 0.15279999
3.8307133 -19.915775 0.1592
3.7808666 -19.91185 0.156
3.7310219 -19.907928 0.1328
3.6811752 -19.904003 0.75840002
3.6313286 -19.900078 0.87919998
3.5814838 -19.896152 0.88800001
3.5316391 -19.892231 0.8944
3.4817924 -19.888306 0.8448
3.4319458 -19.88438 0.78640002
3.3821011 -19.880455 0.7432
3.3322544 -19.876534 0.69120002
3.2824097 -19.872608 0.61519998
3.232563 -19.868683 0.56800002
3.1827183 -19.864758 0.4984
3.1328716 -19.860832 0.43599999
3.0830269 -19.856911 0.35839999
3.0331802 -19.852985 0.28799999
2.9833355 -19.84906 0.21439999
2.9334888 -19.845135 0.112
2.8836441 -19.841213 0.0272
2.8337975 -19.837288 -0.1064
2.7839527 -19.833363 -0.204
2.7341061 -19.829437 -0.1912
4.5442505 -19.771339 0.040800001
4.4944048 -19.767414 0.092799999
4.4445591 -19.763489 0.1488
4.3947124 -19.759563 0.1488
4.3448668 -19.755642 0.1416
4.295022 -19.751717 0.14480001
4.2451763 -19.747791 0.1496
4.1953297 -19.743866 0.1464
4.145484 -19.739944 0.1496
4.0956383 -19.736019 0.15440001
4.0457935 -19.732094 0.14560001
3.9959469 -19.728168 0.15360001
3.9461012 -19.724247 0.148
3.8962555 -19.720322 0.16
3.8464098 -19.716396 0.15279999
3.7965641 -19.712471 0.1552
3.7467184 -19.708549 0.1328
3.6968727 -19.704624 0.75840002
3.6470261 -19.700699 0.88080001
3.5971804 -19.696774 0.89520001
3.5473356 -19.692852 0.88959998
3.4974899 -19.688927 0.85600001
3.4476433 -19.685001 0.78640002
3.3977976 -19.681076 0.7392
3.3479519 -19.677155 0.68959999
3.2981071 -19.673229 0.63599998
3.2482605 -19.669304 0.57440001
3.1984148 -19.665379 0.49759999
3.1485691 -19.661453 0.43279999
3.0987234 -19.657532 0.3592
3.0488777 -19.653606 0.2976
2.999032 -19.649681 0.21359999
2.9491863 -19.645756 0.1424
2.8993406 -19.641834 0.032000002
2.849494 -19.637909 -0.064000003
2.7996492 -19.633984 -0.192
4.5599484 -19.571953 0.039999999
4.5101032 -19.568027 0.088799998
4.4602566 -19.564102 0.1408
4.4104099 -19.560177 0.1464
4.3605652 -19.556255 0.1488
4.3107204 -19.55233 0.1512
4.2608738 -19.548405 0.16
4.2110271 -19.544479 0.15360001
4.1611824 -19.540558 0.15440001
4.1113358 -19.536633 0.1512
4.061491 -19.532707 0.15440001
4.0116444 -19.528782 0.1488
3.9617996 -19.52486 0.1512
3.911953 -19.520935 0.15279999
3.8621082 -19.51701 0.15279999
3.8122616 -19.513084 0.1568
3.7624168 -19.509163 0.1296
3.7125702 -19.505238 0.75599998
3.6627235 -19.501312 0.88480002
3.6128788 -19.497387 0.88639998
3.5630341 -19.493465 0.88800001
3.5131874 -19.48954 0.852
3.4633408 -19.485615 0.80879998
3.413496 -19.481689 0.73199999
3.3636494 -19.477768 0.68959999
3.3138046 -19.473843 0.62879997
3.263958 -19.469917 0.56160003
3.2141132 -19.465992 0.51920003
3.1642666 -19.462067 0.4488
3.1144218 -19.458145 0.3624
3.0645752 -19.45422 0.2832
3.0147305 -19.450294 0.2024
2.9648838 -19.446369 0.13519999
2.9150391 -19.442448 0.048799999
2.8651924 -19.438522 -0.075999998
2.8153477 -19.434597 -0.192
4.5756464 -19.37257 0.043200001
4.5258007 -19.368645 0.079999998
4.475955 -19.364719 0.1336
4.4261084 -19.360794 0.148
4.3762627 -19.356873 0.148
4.3264179 -19.352947 0.152
4.2765722 -19.349022 0.1512
4.2267256 -19.345097 0.1496
4.1768799 -19.341175 0.15279999
4.1270342 -19.33725 0.148
4.0771894 -19.333324 0.1464
4.0273428 -19.329399 0.1488
3.9774971 -19.325478 0.1512
3.9276514 -19.321552 0.15360001
3.8778057 -19.317627 0.152
3.82796 -19.313702 0.152
3.7781143 -19.30978 0.13680001
3.7282686 -19.305855 0.75040001
3.678422 -19.301929 0.884
3.6285763 -19.298004 0.88880002
3.5787315 -19.294083 0.89200002
3.5288858 -19.290157 0.85280001
3.4790392 -19.286232 0.78960001
3.4291935 -19.282307 0.7392
3.3793478 -19.278385 0.69599998
3.3295031 -19.27446 0.61839998
3.2796564 -19.270535 0.57279998
3.2298107 -19.266609 0.5104
3.179965 -19.262684 0.43360001
3.1301193 -19.258762 0.3752
3.0802736 -19.254837 0.292
3.0304279 -19.250912 0.21520001
2.9805822 -19.246986 0.13680001
2.9307365 -19.243065 0.044799998
2.8808899 -19.23914 -0.058400001
2.8310452 -19.235214 -0.1912
4.5913439 -19.173187 0.048
4.5414982 -19.169262 0.081600003
4.4916525 -19.165337 0.14399999
4.4418058 -19.161411 0.14480001
4.3919601 -19.15749 0.14560001
4.3421154 -19.153564 0.15440001
4.2922697 -19.149639 0.1496
4.2424231 -19.145714 0.1512
4.1925774 -19.141792 0.15440001
4.1427317 -19.137867 0.15279999
4.0928869 -19.133942 0.1552
4.0430403 -19.130016 0.15279999
3.9931946 -19.126095 0.1512
3.9433489 -19.122169 0.148
3.8935032 -19.118244 0.15279999
3.8436575 -19.114319 0.16
3.7938118 -19.110397 0.1296
3.7439661 -19.106472 0.75040001
3.6941195 -19.102547 0.88639998
3.6442738 -19.098621 0.89200002
3.594429 -19.0947 0.88880002
3.5445833 -19.090775 0.8488
3.4947367 -19.086849 0.80080003
3.444891 -19.082924 0.73439997
3.3950453 -19.079002 0.69599998
3.3452005 -19.075077 0.63840002
3.2953539 -19.071152 0.57599998
3.2455082 -19.067226 0.51440001
3.1956625 -19.063301 0.44960001
3.1458168 -19.05938 0.38
3.0959711 -19.055454 0.2976
3.0461254 -19.051529 0.2208
2.9962797 -19.047604 0.12800001
2.946434 -19.043682 0.044799998
2.8965874 -19.039757 -0.0744
2.8467426 -19.035831 -0.18000001
4.6070414 -18.973804 0.032000002
4.5571957 -18.969879 0.0656
4.50735 -18.965954 0.13519999
4.4575033 -18.962029 0.14480001
4.4076576 -18.958107 0.1488
4.3578129 -18.954182 0.1496
4.3079672 -18.950256 0.156
4.2581205 -18.946331 0.1496
4.2082748 -18.94241 0.1496
4.1584291 -18.938484 0.15279999
4.1085844 -18.934559 0.15279999
4.0587378 -18.930634 0.1512
4.0088921 -18.926712 0.15360001
3.9590464 -18.922787 0.1512
3.9092007 -18.918861 0.15360001
3.859355 -18.914936 0.1568
3.8095093 -18.911015 0.1408
3.7596636 -18.907089 0.75199997
3.7098169 -18.903164 0.8696
3.6599712 -18.899239 0.88800001
3.6101265 -18.895317 0.88239998
3.5602808 -18.891392 0.86159998
3.5104342 -18.887466 0.80800003
3.4605885 -18.883541 0.73839998
3.4107428 -18.87962 0.69520003
3.360898 -18.875694 0.63919997
3.3110514 -18.871769 0.57200003
3.2612057 -18.867844 0.50800002
3.21136 -18.863918 0.44960001
3.1615143 -18.859997 0.3856
3.1116686 -18.856071 0.29440001
3.0618229 -18.852146 0.2208
3.0119772 -18.848221 0.1304
2.9621315 -18.844299 0.042399999
2.9122849 -18.840374 -0.045600001
2.8624401 -18.836449 -0.1664
4.6227388 -18.774422 0.031199999
4.5728931 -18.770496 0.079999998
4.5230474 -18.766571 0.1232
4.4732008 -18.762646 0.1488
4.4233551 -18.758724 0.1584
4.3735104 -18.754799 0.17039999
4.3236647 -18.750874 0.18080001
4.273818 -18.746948 0.14560001
4.2239723 -18.743027 0.15440001
4.1741266 -18.739101 0.1496
4.1242819 -18.735176 0.15279999
4.0744352 -18.731251 0.1488
4.0245895 -18.727329 0.1504
3.9747438 -18.723404 0.15279999
3.9248981 -18.719479 0.1576
3.8750525 -18.715553 0.156
3.8252068 -18.711632 0.14480001
3.7753611 -18.707706 0.74879998
3.7255144 -18.703781 0.87279999
3.6756687 -18.699856 0.8944
3.625824 -18.695934 0.89279997
3.5759783 -18.692009 0.85360003
3.5261316 -18.688084 0.80159998
3.4762859 -18.684158 0.75199997
3.4264402 -18.680237 0.70240003
3.3765955 -18.676311 0.63200003
3.3267488 -18.672386 0.58719999
3.2769032 -18.668461 0.52560002
3.2270575 -18.664536 0.456
3.1772118 -18.660614 0.38080001
3.1273661 -18.656689 0.29840001
3.0775204 -18.652763 0.2296
3.0276747 -18.648838 0.148
2.977829 -18.644917 0.059999999
2.9279823 -18.640991 -0.0272
2.8781376 -18.637066 -0.1752
4.6384363 -18.575039 0.038400002
4.5885906 -18.571114 0.071199998
4.5387449 -18.567188 0.1248
4.4888983 -18.563263 0.1512
4.4390526 -18.559341 0.14560001
4.3892078 -18.555416 0.1504
4.3393621 -18.551491 0.1488
4.2895155 -18.547565 0.1568
4.2396698 -18.543644 0.15279999
4.1898241 -18.539719 0.1496
4.1399794 -18.535793 0.152
4.0901327 -18.531868 0.15360001
4.040287 -18.527946 0.1512
3.9904413 -18.524021 0.1504
3.9405956 -18.520096 0.15360001
3.8907499 -18.516171 0.1592
3.8409042 -18.512249 0.14
3.7910585 -18.508324 0.7464
3.7412119 -18.504398 0.87199998
3.6913662 -18.500473 0.88639998
3.6415215 -18.496552 0.89600003
3.5916758 -18.492626 0.86799997
3.5418291 -18.488701 0.80400002
3.4919834 -18.484776 0.7536
3.4421377 -18.480854 0.70240003
3.392293 -18.476929 0.63840002
3.3424463 -18.473003 0.5848
3.2926006 -18.469078 0.52319998
3.2427549 -18.465153 0.46000001
3.1929092 -18.461231 0.3856
3.1430635 -18.457306 0.31600001
3.0932178 -18.453381 0.23999999
3.0433722 -18.449455 0.1472
2.9935265 -18.445534 0.051199999
2.9436798 -18.441608 -0.032000002
2.8938351 -18.437683 -0.1576
4.6541343 -18.375656 0.032000002
4.6042886 -18.371731 0.0592
4.5544429 -18.367805 0.1136
4.5045967 -18.36388 0.14560001
4.4547501 -18.359959 0.15279999
4.4049053 -18.356033 0.1472
4.3550606 -18.352108 0.1472
4.3052139 -18.348183 0.1464
4.2553673 -18.344261 0.148
4.2055225 -18.340336 0.1576
4.1556778 -18.336411 0.152
4.1058311 -18.332485 0.15279999
4.0559845 -18.328564 0.15440001
4.0061398 -18.324638 0.15360001
3.9562931 -18.320713 0.152
3.9064484 -18.316788 0.156
3.8566017 -18.312866 0.1488
3.806757 -18.308941 0.75840002
3.7569103 -18.305016 0.87279999
3.7070637 -18.30109 0.88319999
3.6572189 -18.297169 0.8872
3.6073742 -18.293243 0.86320001
3.5575275 -18.289318 0.8096
3.5076809 -18.285393 0.75919998
3.4578362 -18.281471 0.69919997
3.4079914 -18.277546 0.65280002
3.3581448 -18.273621 0.58399999
3.3082981 -18.269695 0.52319998
3.2584534 -18.26577 0.46079999
3.2086067 -18.261848 0.38159999
3.158762 -18.257923 0.31439999
3.1089153 -18.253998 0.2272
3.0590706 -18.250072 0.1584
3.0092239 -18.246151 0.064800002
2.9593773 -18.242226 -0.028000001
2.9095325 -18.2383 -0.132
4.6199865 -18.172348 0.075199999
4.5701408 -18.168423 0.1288
4.5202942 -18.164497 0.1424
4.4704485 -18.160576 0.1496
4.4206038 -18.156651 0.15279999
4.3707581 -18.152725 0.1496
4.3209114 -18.1488 0.1512
4.2710657 -18.144878 0.15279999
4.22122 -18.140953 0.1512
4.1713753 -18.137028 0.1512
4.1215286 -18.133102 0.1464
4.0716829 -18.129181 0.15360001
4.0218372 -18.125256 0.152
3.9719915 -18.12133 0.1496
3.9221458 -18.117405 0.1664
3.8723001 -18.113483 0.1432
3.8224545 -18.109558 0.75199997
3.7726078 -18.105633 0.8696
3.7227621 -18.101707 0.88
3.6729174 -18.097786 0.89120001
3.6230717 -18.093861 0.86879998
3.573225 -18.089935 0.81279999
3.5233793 -18.08601 0.75520003
3.4735336 -18.082088 0.69840002
3.4236889 -18.078163 0.64480001
3.3738422 -18.074238 0.57999998
3.3239965 -18.070313 0.51999998
3.2741508 -18.066387 0.4664
3.2243052 -18.062466 0.39039999
3.1744595 -18.05854 0.32480001
3.1246138 -18.054615 0.236
3.0747681 -18.05069 0.1736
3.0249224 -18.046768 0.073600002
2.9750757 -18.042843 -0.02
2.925231 -18.038918 -0.1488
4.635684 -17.972961 0.075999998
4.5858383 -17.969036 0.112
4.5359917 -17.965111 0.1504
4.486146 -17.961189 0.1512
4.4363012 -17.957264 0.15360001
4.3864555 -17.953339 0.14480001
4.3366089 -17.949413 0.152
4.2867632 -17.945492 0.148
4.2369175 -17.941566 0.15279999
4.1870728 -17.937641 0.1496
4.1372261 -17.933716 0.1552
4.0873804 -17.929794 0.15360001
4.0375347 -17.925869 0.15279999
3.987689 -17.921944 0.15279999
3.9378433 -17.918018 0.152
3.8879976 -17.914097 0.1392
3.8381519 -17.910172 0.7464
3.7883053 -17.906246 0.86879998
3.7384596 -17.902321 0.89120001
3.6886148 -17.898399 0.88800001
3.6387691 -17.894474 0.87440002
3.5889225 -17.890549 0.81840003
3.5390768 -17.886623 0.75840002
3.4892311 -17.882702 0.71439999
3.4393864 -17.878777 0.65679997
3.3895397 -17.874851 0.59680003
3.339694 -17.870926 0.53680003
3.2898483 -17.867001 0.46160001
3.2400026 -17.863079 0.3928
3.1901569 -17.859154 0.33039999
3.1403112 -17.855228 0.252
3.0904655 -17.851303 0.1696
3.0406199 -17.847382 0.0656
2.9907732 -17.843456 -0.0264
2.9409285 -17.839531 -0.12639999
4.6513815 -17.773582 0.0568
4.6015358 -17.769657 0.1192
4.5516891 -17.765732 0.1488
4.5018435 -17.76181 0.1496
4.4519987 -17.757885 0.1512
4.402153 -17.75396 0.1512
4.3523064 -17.750034 0.1576
4.3024607 -17.746113 0.15279999
4.252615 -17.742188 0.15440001
4.2027702 -17.738262 0.15440001
4.1529236 -17.734337 0.1488
4.1030779 -17.730415 0.15279999
4.0532322 -17.72649 0.152
4.0033865 -17.722565 0.15279999
3.9535408 -17.718639 0.15360001
3.9036951 -17.714718 0.14
3.8538494 -17.710793 0.74720001
3.8040028 -17.706867 0.84960002
3.7541571 -17.702942 0.88559997
3.7043123 -17.69902 0.88559997
3.6544666 -17.695095 0.88800001
3.60462 -17.69117 0.8136
3.5547743 -17.687244 0.764
3.5049286 -17.683323 0.71039999
3.4550838 -17.679398 0.65679997
3.4052372 -17.675472 0.59280002
3.3553915 -17.671547 0.5352
3.3055458 -17.667622 0.47600001
3.2557001 -17.6637 0.4032
3.2058544 -17.659775 0.32480001
3.1560087 -17.655849 0.2376
3.106163 -17.651924 0.1672
3.0563173 -17.648003 0.075199999
3.0064707 -17.644077 -0.016799999
2.9566259 -17.640152 -0.13600001
2.9067802 -17.636227 -0.19760001
4.667079 -17.5742 0.060800001
4.6172333 -17.570274 0.1248
4.5673866 -17.566349 0.148
4.5175409 -17.562428 0.1512
4.4676962 -17.558502 0.148
4.4178505 -17.554577 0.148
4.3680038 -17.550652 0.1504
4.3181581 -17.54673 0.1552
4.2683125 -17.542805 0.1552
4.2184677 -17.538879 0.1496
4.1686211 -17.534954 0.1552
4.1187754 -17.531033 0.152
4.0689297 -17.527107 0.1496
4.019084 -17.523182 0.1584
3.9692383 -17.519257 0.15360001
3.9193926 -17.515335 0.1376
3.8695469 -17.51141 0.74559999
3.8197002 -17.507484 0.81919998
3.7698545 -17.503559 0.88239998
3.7200098 -17.499638 0.88480002
3.6701641 -17.495712 0.87040001
3.6203175 -17.491787 0.81199998
3.5704718 -17.487862 0.77359998
3.5206261 -17.48394 0.71359998
3.4707813 -17.480015 0.64880002
3.4209347 -17.476089 0.5984
3.371089 -17.472164 0.53600001
3.3212433 -17.468239 0.47440001
3.2713976 -17.464317 0.4032
3.2215519 -17.460392 0.3328
3.1717062 -17.456467 0.24959999
3.1218605 -17.452541 0.17120001
3.0720148 -17.44862 0.083999999
3.0221682 -17.444695 -0.0048000002
2.9723234 -17.440769 -0.1376
2.9224777 -17.436844 -0.20640001
4.7326221 -17.378742 0.037599999
4.6827765 -17.374817 0.0528
4.6329308 -17.370892 0.096000001
4.5830841 -17.366966 0.14560001
4.5332384 -17.363045 0.148
4.4833937 -17.359119 0.148
4.433548 -17.355194 0.1432
4.3837013 -17.351269 0.15279999
4.3338556 -17.347347 0.1496
4.2840099 -17.343422 0.148
4.2341652 -17.339497 0.1464
4.1843185 -17.335571 0.15360001
4.1344728 -17.33165 0.1472
4.0846272 -17.327724 0.1424
4.0347815 -17.323799 0.1496
3.9849358 -17.319874 0.1504
3.9350901 -17.315952 0.14
3.8852444 -17.312027 0.12639999
3.8353977 -17.308102 0.76800001
3.785552 -17.304176 0.88639998
3.7357073 -17.300255 0.88559997
3.6858616 -17.296329 0.88239998
3.6360149 -17.292404 0.81599998
3.5861692 -17.288479 0.76480001
3.5363235 -17.284557 0.71039999
3.4864788 -17.280632 0.65759999
3.4366322 -17.276707 0.59759998
3.3867865 -17.272781 0.53839999
3.3369408 -17.268856 0.47679999
3.2870951 -17.264935 0.39680001
3.2372494 -17.261009 0.3328
3.1874037 -17.257084 0.25839999
3.137558 -17.253159 0.1728
3.0877123 -17.249237 0.0832
3.0378656 -17.245312 -0.019200001
2.9880209 -17.241386 -0.116
2.9381752 -17.237461 -0.23280001
4.7483201 -17.179356 -0.1176
4.6984744 -17.17543 0.0616
4.6486287 -17.171505 0.096799999
4.5987821 -17.16758 0.14399999
4.5489368 -17.163658 0.1472
4.4990921 -17.159733 0.14480001
4.4492455 -17.155807 0.1496
4.3993988 -17.151882 0.1464
4.3495541 -17.147961 0.1488
4.2997074 -17.144035 0.14560001
4.2498627 -17.14011 0.1552
4.200016 -17.136185 0.1496
4.1501713 -17.132263 0.1504
4.1003246 -17.128338 0.148
4.0504799 -17.124413 0.1488
4.0006332 -17.120487 0.1472
3.9507885 -17.116566 0.1304
3.9009418 -17.11264 0.56879997
3.8510952 -17.108715 0.77359998
3.8012505 -17.10479 0.88
3.7514057 -17.100868 0.88880002
3.7015591 -17.096943 0.88239998
3.6517124 -17.093018 0.82639998
3.6018677 -17.089092 0.76800001
3.552021 -17.085171 0.7256
3.5021763 -17.081245 0.6688
3.4523296 -17.07732 0.60320002
3.4024849 -17.073395 0.53600001
3.3526382 -17.069469 0.47279999
3.3027935 -17.065548 0.4032
3.2529469 -17.061623 0.32879999
3.2031021 -17.057697 0.2624
3.1532555 -17.053772 0.192
3.1034107 -17.04985 0.1096
3.0535641 -17.045925 0.0080000004
3.0037193 -17.042 -0.1136
2.9538727 -17.038074 -0.23199999
4.7640176 -16.979973 -0.1256
4.7141719 -16.976048 0.059999999
4.6643262 -16.972122 0.1112
4.6144795 -16.968197 0.1512
4.5646338 -16.964275 0.148
4.5147896 -16.96035 0.148
4.4649429 -16.956425 0.152
4.4150963 -16.952499 0.15279999
4.3652515 -16.948578 0.15440001
4.3154049 -16.944653 0.148
4.2655602 -16.940727 0.1488
4.2157135 -16.936802 0.14480001
4.1658688 -16.93288 0.1496
4.1160221 -16.928955 0.148
4.0661774 -16.92503 0.15360001
4.0163307 -16.921104 0.152
3.966486 -16.917183 0.1424
3.9166393 -16.913258 0.132
3.8667927 -16.909332 0.80000001
3.8169479 -16.905407 0.8768
3.7671032 -16.901485 0.884
3.7172565 -16.89756 0.87519997
3.6674099 -16.893635 0.83279997
3.6175652 -16.889709 0.76719999
3.5677185 -16.885788 0.72479999
3.5178738 -16.881863 0.66399997
3.4680271 -16.877937 0.6128
3.4181824 -16.874012 0.54079998
3.3683357 -16.870087 0.47279999
3.318491 -16.866165 0.41839999
3.2686443 -16.86224 0.3448
3.2187996 -16.858315 0.26159999
3.1689529 -16.854389 0.1848
3.1191082 -16.850468 0.093599997
3.0692616 -16.846542 0.0040000002
3.0194168 -16.842617 -0.092799999
2.9695702 -16.838692 -0.1912
2.9197254 -16.83477 -0.308
4.7797151 -16.780594 -0.099200003
4.7298694 -16.776669 0.054400001
4.6800237 -16.772743 0.096000001
4.630177 -16.768818 0.14480001
4.5803313 -16.764896 0.156
4.5304871 -16.760971 0.14480001
4.4806404 -16.757046 0.1504
4.4307938 -16.75312 0.15279999
4.380949 -16.749199 0.1512
4.3311024 -16.745274 0.1512
4.2812576 -16.741348 0.1488
4.231411 -16.737423 0.1504
4.1815662 -16.733501 0.15360001
4.1317196 -16.729576 0.148
4.0818748 -16.725651 0.1488
4.0320282 -16.721725 0.15279999
3.9821835 -16.717804 0.13519999
3.9323368 -16.713879 0.1216
3.8824902 -16.709953 0.76160002
3.8326454 -16.706028 0.88800001
3.7828007 -16.702106 0.88800001
3.732954 -16.698181 0.87760001
3.6831074 -16.694256 0.824
3.6332626 -16.690331 0.76880002
3.583416 -16.686409 0.7216
3.5335712 -16.682484 0.67199999
3.4837246 -16.678558 0.60640001
3.4338799 -16.674633 0.54879999
3.3840332 -16.670708 0.4912
3.3341885 -16.666786 0.40560001
3.2843418 -16.662861 0.33919999
3.2344971 -16.658936 0.2656
3.1846504 -16.65501 0.17839999
3.1348057 -16.651089 0.097599998
3.084959 -16.647163 0.0071999999
3.0351143 -16.643238 -0.080799997
2.9852676 -16.639313 -0.21439999
2.9354229 -16.635391 -0.34720001
2.8855762 -16.631466 -0.412
4.795413 -16.581207 -0.1128
4.7455673 -16.577282 0.0392
4.6957216 -16.573357 0.083999999
4.645875 -16.569431 0.1432
4.5960293 -16.56551 0.1464
4.5461845 -16.561584 0.1416
4.4963388 -16.557659 0.1496
4.4464922 -16.553734 0.1496
4.3966465 -16.549812 0.152
4.3468008 -16.545887 0.152
4.2969561 -16.541962 0.1512
4.2471094 -16.538036 0.152
4.1972637 -16.534115 0.15360001
4.147418 -16.53019 0.15440001
4.0975723 -16.526264 0.1496
4.0477266 -16.522339 0.1504
3.9978809 -16.518417 0.1376
3.9480352 -16.514492 0.132
3.8981886 -16.510567 0.7608
3.8483429 -16.506641 0.8768
3.7984982 -16.50272 0.87599999
3.7486525 -16.498795 0.88080001
3.6988058 -16.494869 0.83200002
3.6489601 -16.490944 0.77679998
3.5991144 -16.487022 0.73360002
3.5492697 -16.483097 0.67439997
3.499423 -16.479172 0.61040002
3.4495773 -16.475246 0.54960001
3.3997316 -16.471321 0.49200001
3.3498859 -16.4674 0.428
3.3000402 -16.463474 0.352
3.2501945 -16.459549 0.27680001
3.2003489 -16.455624 0.18880001
3.1505032 -16.451702 0.104
3.1006565 -16.447777 0.034400001
3.0508118 -16.443851 -0.082400002
3.0009661 -16.439926 -0.19679999
2.9511204 -16.436005 -0.32640001
2.9012737 -16.432079 -0.456
4.8111105 -16.381824 -0.1184
4.7612648 -16.377899 0.044799998
4.7114191 -16.373974 0.096799999
4.6615725 -16.370049 0.13519999
4.6117268 -16.366127 0.1488
4.561882 -16.362202 0.1416
4.5120363 -16.358276 0.1496
4.4621897 -16.354351 0.15440001
4.412344 -16.35043 0.148
4.3624983 -16.346504 0.148
4.3126535 -16.342579 0.156
4.2628069 -16.338654 0.15360001
4.2129612 -16.334732 0.1512
4.1631155 -16.330807 0.1496
4.1132698 -16.326881 0.1512
4.0634241 -16.322956 0.148
4.0135784 -16.319035 0.1384
3.9637327 -16.315109 0.1288
3.9138861 -16.311184 0.75840002
3.8640404 -16.307259 0.87919998
3.8141956 -16.303337 0.87840003
3.7643499 -16.299412 0.88080001
3.7145033 -16.295486 0.83920002
3.6646576 -16.291561 0.78640002
3.6148119 -16.28764 0.736
3.5649672 -16.283714 0.67760003
3.5151205 -16.279789 0.62959999
3.4652748 -16.275864 0.56800002
3.4154291 -16.271938 0.48159999
3.3655834 -16.268017 0.42559999
3.3157377 -16.264091 0.36320001
3.265892 -16.260166 0.2784
3.2160463 -16.256241 0.18960001
3.1662006 -16.252319 0.1192
3.116354 -16.248394 0.028000001
3.0665092 -16.244469 -0.064000003
3.0166636 -16.240543 -0.1992
2.9668179 -16.236622 -0.3048
4.826808 -16.182442 -0.12
4.7769623 -16.178516 0.0352
4.7271166 -16.174591 0.087200001
4.6772699 -16.170666 0.1496
4.6274242 -16.166744 0.1504
4.5775795 -16.162819 0.1488
4.5277338 -16.158894 0.1472
4.4778872 -16.154968 0.15440001
4.4280415 -16.151047 0.1488
4.3781958 -16.147121 0.14560001
4.328351 -16.143196 0.1488
4.2785044 -16.139271 0.1464
4.2286587 -16.135349 0.152
4.178813 -16.131424 0.152
4.1289673 -16.127499 0.1496
4.0791216 -16.123573 0.148
4.0292759 -16.119652 0.1416
3.9794302 -16.115726 0.1312
3.9295835 -16.111801 0.75520003
3.8797379 -16.107876 0.8768
3.8298931 -16.103954 0.88639998
3.7800474 -16.100029 0.88639998
3.7302008 -16.096104 0.83759999
3.6803551 -16.092178 0.78240001
3.6305094 -16.088257 0.73199999
3.5806646 -16.084332 0.67760003
3.530818 -16.080406 0.62879997
3.4809723 -16.076481 0.56400001
3.4311266 -16.072556 0.49360001
3.3812809 -16.068634 0.43040001
3.3314352 -16.064709 0.3576
3.2815895 -16.060783 0.28240001
3.2317438 -16.056858 0.2112
3.1818981 -16.052937 0.124
3.1320515 -16.049011 0.035999998
3.0822067 -16.045086 -0.068800002
3.032361 -16.041161 -0.1848
4.8425055 -15.983059 -0.1168
4.7926598 -15.979134 0.037599999
4.7428141 -15.975208 0.083999999
4.6929674 -15.971283 0.1432
4.6431217 -15.967361 0.1408
4.593277 -15.963436 0.1424
4.5434313 -15.959511 0.152
4.4935846 -15.955585 0.152
4.4437389 -15.951664 0.1504
4.3938932 -15.947739 0.1488
4.3440485 -15.943813 0.1496
4.2942019 -15.939888 0.1512
4.2443562 -15.935966 0.14560001
4.1945105 -15.932041 0.1472
4.1446648 -15.928116 0.148
4.0948191 -15.924191 0.1504
4.0449734 -15.920269 0.1504
3.9951277 -15.916344 0.1344
3.945281 -15.912418 0.7608
3.8954353 -15.908493 0.87599999
3.8455906 -15.904572 0.88480002
3.7957449 -15.900646 0.88239998
3.7458982 -15.896721 0.83600003
3.6960526 -15.892796 0.7816
3.6462069 -15.888874 0.74080002
3.5963621 -15.884949 0.6832
3.5465155 -15.881023 0.62639999
3.4966698 -15.877098 0.56239998
3.4468241 -15.873173 0.4912
3.3969784 -15.869251 0.43759999
3.3471327 -15.865326 0.35600001
3.297287 -15.861401 0.292
3.2474413 -15.857475 0.20559999
3.1975956 -15.853554 0.1288
3.1477489 -15.849628 0.024800001
3.0979042 -15.845703 -0.052000001
3.0480585 -15.841778 -0.1736
2.9982128 -15.837856 -0.28400001
4.8083572 -15.779751 0.0288
4.7585115 -15.775826 0.076800004
4.7086649 -15.7719 0.1416
4.6588192 -15.767979 0.14560001
4.6089745 -15.764053 0.14560001
4.5591288 -15.760128 0.15440001
4.5092821 -15.756203 0.156
4.4594364 -15.752281 0.1464
4.4095907 -15.748356 0.1496
4.359746 -15.744431 0.152
4.3098993 -15.740505 0.1488
4.2600536 -15.736584 0.15360001
4.2102079 -15.732658 0.1488
4.1603622 -15.728733 0.1504
4.1105165 -15.724808 0.148
4.0606709 -15.720886 0.1464
4.0108252 -15.716961 0.1328
3.9609785 -15.713036 0.75520003
3.9111328 -15.70911 0.87360001
3.8612881 -15.705189 0.88800001
3.8114424 -15.701263 0.88559997
3.7615957 -15.697338 0.84240001
3.71175 -15.693413 0.78719997
3.6619043 -15.689491 0.72960001
3.6120596 -15.685566 0.68000001
3.5622129 -15.681641 0.62959999
3.5123672 -15.677715 0.56480002
3.4625216 -15.67379 0.50080001
3.4126759 -15.669868 0.44240001
3.3628302 -15.665943 0.3664
3.3129845 -15.662018 0.2872
3.2631388 -15.658092 0.212
3.2132931 -15.654171 0.1416
3.1634464 -15.650246 0.051199999
3.1136017 -15.64632 -0.083999999
3.063756 -15.642395 -0.1512
3.0139103 -15.638474 -0.2888
4.8240552 -15.580368 0.016799999
4.7742095 -15.576443 0.0616
4.7243629 -15.572517 0.12639999
4.6745172 -15.568596 0.148
4.6246724 -15.564671 0.152
4.5748267 -15.560745 0.1496
4.5249805 -15.55682 0.1568
4.4751339 -15.552898 0.152
4.4252892 -15.548973 0.152
4.3754444 -15.545048 0.1496
4.3255978 -15.541122 0.1488
4.2757511 -15.537201 0.1472
4.2259064 -15.533276 0.152
4.1760597 -15.52935 0.15279999
4.126215 -15.525425 0.152
4.0763683 -15.521503 0.1512
4.0265236 -15.517578 0.1216
3.9766769 -15.513653 0.75040001
3.9268303 -15.509727 0.88080001
3.8769855 -15.505806 0.884
3.8271408 -15.501881 0.8872
3.7772942 -15.497955 0.8448
3.7274475 -15.49403 0.80080003
3.6776028 -15.490108 0.73760003
3.627758 -15.486183 0.6832
3.5779114 -15.482258 0.63279998
3.5280647 -15.478333 0.56559998
3.47822 -15.474407 0.50480002
3.4283733 -15.470486 0.4488
3.3785286 -15.46656 0.37040001
3.3286819 -15.462635 0.296
3.2788372 -15.45871 0.2192
3.2289906 -15.454788 0.1312
3.1791439 -15.450863 0.045600001
3.1292992 -15.446938 -0.056000002
4.8397527 -15.380985 0.0208
4.789907 -15.37706 0.068800002
4.7400603 -15.373135 0.1184
4.6902146 -15.369213 0.1408
4.6403699 -15.365288 0.1464
4.5905242 -15.361362 0.1472
4.540678 -15.357437 0.1512
4.4908314 -15.353516 0.1512
4.4409866 -15.34959 0.1496
4.3911419 -15.345665 0.152
4.3412952 -15.34174 0.148
4.2914486 -15.337818 0.1472
4.2416039 -15.333893 0.1496
4.1917572 -15.329967 0.14480001
4.1419125 -15.326042 0.1464
4.0920658 -15.322121 0.1504
4.0422211 -15.318195 0.1344
3.9923744 -15.31427 0.75279999
3.9425278 -15.310345 0.8664
3.892683 -15.306423 0.88160002
3.8428383 -15.302498 0.88480002
3.7929916 -15.298573 0.84799999
3.743145 -15.294647 0.78479999
3.6933002 -15.290726 0.74159998
3.6434555 -15.2868 0.69919997
3.5936089 -15.282875 0.62480003
3.5437622 -15.27895 0.57120001
3.4939175 -15.275024 0.51679999
3.4440708 -15.271103 0.4456
3.3942261 -15.267178 0.3664
3.3443794 -15.263252 0.30160001
3.2945347 -15.259327 0.228
3.244688 -15.255405 0.13519999
3.1948414 -15.25148 0.0528
3.1449966 -15.247555 -0.057599999
3.0951519 -15.243629 -0.16159999
3.0453053 -15.239708 -0.27039999
2.9954586 -15.235783 -0.4104
2.9456139 -15.231857 -0.55040002
2.8957691 -15.227932 -0.6904
4.8554506 -15.181602 0.0128
4.8056049 -15.177677 0.060800001
4.7557583 -15.173752 0.1168
4.7059126 -15.16983 0.14480001
4.6560678 -15.165905 0.152
4.6062222 -15.16198 0.1496
4.5563755 -15.158054 0.1512
4.5065298 -15.154133 0.152
4.4566841 -15.150208 0.1512
4.4068394 -15.146282 0.1496
4.3569927 -15.142357 0.1424
4.307147 -15.138435 0.1464
4.2573013 -15.13451 0.1512
4.2074556 -15.130585 0.1512
4.1576099 -15.126659 0.1472
4.1077642 -15.122738 0.1512
4.0579185 -15.118813 0.1408
4.0080719 -15.114887 0.74400002
3.9582262 -15.110962 0.87199998
3.9083815 -15.10704 0.88480002
3.8585358 -15.103115 0.88480002
3.8086891 -15.09919 0.85280001
3.7588434 -15.095264 0.80479997
3.7089977 -15.091343 0.7464
3.659153 -15.087418 0.69679999
3.6093063 -15.083492 0.63679999
3.5594606 -15.079567 0.57279998
3.5096149 -15.075642 0.50639999
3.4597692 -15.07172 0.45039999
3.4099236 -15.067795 0.3624
3.3600779 -15.063869 0.308
3.3102322 -15.059944 0.2256
3.2603865 -15.056023 0.1416
3.2105398 -15.052097 0.069600001
3.1606951 -15.048172 -0.056000002
3.1108494 -15.044247 -0.1384
3.0610037 -15.040325 -0.27360001
3.011157 -15.0364 -0.37200001
4.8711481 -14.982216 0.030400001
4.8213024 -14.978291 0.054400001
4.7714558 -14.974365 0.1128
4.7216101 -14.970444 0.148
4.6717653 -14.966518 0.1464
4.6219196 -14.962593 0.152
4.572073 -14.958668 0.1488
4.5222273 -14.954746 0.15440001
4.4723816 -14.950821 0.152
4.4225368 -14.946896 0.1584
4.3726902 -14.94297 0.148
4.3228445 -14.939049 0.1464
4.2729988 -14.935123 0.148
4.2231531 -14.931198 0.1488
4.1733074 -14.927273 0.1552
4.1234617 -14.923351 0.14560001
4.073616 -14.919426 0.13600001
4.0237694 -14.915501 0.75040001
3.9739237 -14.911575 0.87279999
3.9240789 -14.907654 0.88319999
3.8742332 -14.903728 0.88160002
3.8243866 -14.899803 0.86879998
3.7745409 -14.895878 0.80320001
3.7246952 -14.891956 0.74879998
3.6748505 -14.888031 0.69919997
3.6250038 -14.884106 0.63520002
3.5751581 -14.88018 0.58160001
3.5253124 -14.876255 0.50959998
3.4754667 -14.872334 0.44319999
3.425621 -14.868408 0.38319999
3.3757753 -14.864483 0.30000001
3.3259296 -14.860558 0.2208
3.2760839 -14.856636 0.14399999
3.2262373 -14.852711 0.0568
3.1763926 -14.848785 -0.051199999
3.1265469 -14.84486 -0.1392
3.0767012 -14.840939 -0.2696
3.0268545 -14.837013 -0.38159999
4.8868456 -14.782837 0.0176
4.8369999 -14.778912 0.072800003
4.7871532 -14.774986 0.13680001
4.7373075 -14.771065 0.148
4.6874628 -14.767139 0.1568
4.6376171 -14.763214 0.152
4.5877705 -14.759289 0.152
4.5379248 -14.755367 0.1552
4.4880791 -14.751442 0.1496
4.4382343 -14.747517 0.15279999
4.3883877 -14.743591 0.152
4.338542 -14.73967 0.14560001
4.2886963 -14.735744 0.14480001
4.2388506 -14.731819 0.1488
4.1890049 -14.727894 0.1496
4.1391592 -14.723972 0.14480001
4.0893135 -14.720047 0.1384
4.0394669 -14.716122 0.75279999
3.9896212 -14.712196 0.87919998
3.9397764 -14.708275 0.884
3.8899307 -14.70435 0.88239998
3.8400841 -14.700424 0.85439998
3.7902384 -14.696499 0.81440002
3.7403927 -14.692577 0.74479997
3.6905479 -14.688652 0.70480001
3.6407013 -14.684727 0.64240003
3.5908556 -14.680801 0.588
3.5410099 -14.676876 0.53200001
3.4911642 -14.672955 0.45039999
3.4413185 -14.669029 0.3888
3.3914728 -14.665104 0.32080001
3.3416271 -14.661179 0.2288
3.2917814 -14.657257 0.1496
3.2419348 -14.653332 0.054400001
3.19209 -14.649406 -0.024
3.1422443 -14.645481 -0.1424
3.0923986 -14.64156 -0.2552
3.042552 -14.637634 -0.42160001
2.9927063 -14.633709 -0.61839998
2.9428616 -14.629784 -0.81519997
2.8930159 -14.625862 -1.0112
2.8431692 -14.621937 -1.2079999
4.9025431 -14.583454 0.0063999998
4.8526974 -14.579529 0.051199999
4.8028507 -14.575603 0.1128
4.753005 -14.571682 0.1464
4.7031603 -14.567757 0.152
4.6533146 -14.563831 0.1472
4.6034679 -14.559906 0.1552
4.5536222 -14.555984 0.1496
4.5037766 -14.552059 0.15440001
4.4539318 -14.548134 0.152
4.4040852 -14.544209 0.148
4.3542395 -14.540287 0.1432
4.3043938 -14.536362 0.15279999
4.2545481 -14.532436 0.148
4.2047024 -14.528511 0.1512
4.1548567 -14.52459 0.1512
4.105011 -14.520664 0.1384
4.0551643 -14.516739 0.74559999
4.0053186 -14.512814 0.86479998
3.9554739 -14.508892 0.88160002
3.9056282 -14.504967 0.88160002
3.8557816 -14.501041 0.86720002
3.8059359 -14.497116 0.80159998
3.7560902 -14.493195 0.74559999
3.7062454 -14.489269 0.71679997
3.6563988 -14.485344 0.64399999
3.6065531 -14.481419 0.58960003
3.5567074 -14.477493 0.52399999
3.5068617 -14.473572 0.45359999
3.457016 -14.469646 0.39199999
3.4071703 -14.465721 0.3272
3.3573246 -14.461796 0.24240001
3.3074789 -14.457874 0.1584
3.2576323 -14.453949 0.067199998
3.2077875 -14.450024 -0.0296
3.1579418 -14.446098 -0.12
3.1080961 -14.442177 -0.23119999
3.0582495 -14.438251 -0.3944
3.0084038 -14.434326 -0.58160001
2.958559 -14.430401 -0.76800001
2.9087133 -14.426479 -0.9544
4.9182405 -14.384071 0.0024000001
4.8683949 -14.380146 0.047200002
4.8185482 -14.376221 0.1112
4.7687025 -14.372299 0.14560001
4.7188578 -14.368374 0.1496
4.6690121 -14.364449 0.148
4.6191654 -14.360523 0.152
4.5693197 -14.356602 0.1488
4.519474 -14.352676 0.1496
4.4696293 -14.348751 0.1552
4.4197826 -14.344826 0.1512
4.3699369 -14.340904 0.148
4.3200912 -14.336979 0.14399999
4.2702456 -14.333054 0.15279999
4.2203999 -14.329128 0.152
4.1705542 -14.325207 0.1464
4.1207085 -14.321281 0.13680001
4.0708618 -14.317356 0.75040001
4.0210161 -14.313431 0.86720002
3.9711714 -14.309509 0.88080001
3.9213257 -14.305584 0.88559997
3.871479 -14.301659 0.87279999
3.8216333 -14.297733 0.8096
3.7717876 -14.293812 0.76639998
3.7219429 -14.289886 0.70639998
3.6720963 -14.285961 0.64560002
3.6222506 -14.282036 0.588
3.5724049 -14.278111 0.52640003
3.5225592 -14.274189 0.46079999
3.4727135 -14.270264 0.39120001
3.4228678 -14.266338 0.32159999
3.3730221 -14.262413 0.24240001
3.3231764 -14.258492 0.164
3.2733297 -14.254566 0.068800002
3.223485 -14.250641 -0.030400001
3.1736393 -14.246716 -0.1488
3.1237936 -14.242794 -0.2472
3.073947 -14.238869 -0.3608
3.0241013 -14.234943 -0.51840001
2.9742565 -14.231018 -0.6864
2.9244108 -14.227097 -0.90960002
4.8840928 -14.180759 0.0392
4.8342462 -14.176834 0.098399997
4.7844005 -14.172913 0.1392
4.7345557 -14.168987 0.1408
4.68471 -14.165062 0.148
4.6348634 -14.161137 0.1496
4.5850177 -14.157215 0.148
4.5351715 -14.15329 0.1488
4.4853268 -14.149364 0.14560001
4.4354801 -14.145439 0.1488
4.3856354 -14.141518 0.14560001
4.3357887 -14.137592 0.148
4.285944 -14.133667 0.1504
4.2360973 -14.129742 0.1504
4.1862526 -14.12582 0.15279999
4.1364059 -14.121895 0.1432
4.0865593 -14.11797 0.7392
4.0367146 -14.114044 0.85759997
3.9868698 -14.110123 0.88239998
3.9370232 -14.106197 0.88639998
3.8871765 -14.102272 0.87120003
3.8373318 -14.098347 0.81279999
3.7874851 -14.094425 0.764
3.7376404 -14.0905 0.7112
3.6877937 -14.086575 0.648
3.637949 -14.082649 0.59200001
3.5881023 -14.078724 0.52240002
3.5382576 -14.074802 0.4808
3.4884109 -14.070877 0.40079999
3.4385662 -14.066952 0.33360001
3.3887196 -14.063026 0.2448
3.3388748 -14.059105 0.1776
3.2890282 -14.05518 0.076800004
3.2391834 -14.051254 -0.0184
3.1893368 -14.047329 -0.1328
3.139492 -14.043407 -0.28639999
3.0896454 -14.039482 -0.44
3.0397987 -14.035557 -0.59359998
2.989954 -14.031631 -0.7464
2.9401093 -14.02771 -0.89920002
4.7502537 -13.969604 0.1112
4.700408 -13.965679 0.14
4.6505613 -13.961754 0.1464
4.6007156 -13.957832 0.1512
4.5508699 -13.953907 0.152
4.5010252 -13.949982 0.1488
4.4511786 -13.946056 0.1512
4.4013329 -13.942135 0.14560001
4.3514872 -13.93821 0.1472
4.3016415 -13.934284 0.1496
4.2517958 -13.930359 0.15279999
4.2019501 -13.926437 0.1504
4.1521044 -13.922512 0.1408
4.1022577 -13.918587 0.74239999
4.052412 -13.914661 0.8624
4.0025673 -13.91074 0.87840003
3.9527216 -13.906815 0.87760001
3.9028749 -13.902889 0.8696
3.8530293 -13.898964 0.81120002
3.8031836 -13.895042 0.76480001
3.7533388 -13.891117 0.71200001
3.7034922 -13.887192 0.64560002
3.6536465 -13.883266 0.5952
3.6038008 -13.879341 0.528
3.5539551 -13.87542 0.47440001
3.5041094 -13.871494 0.40560001
3.4542637 -13.867569 0.3344
3.404418 -13.863644 0.2464
3.3545723 -13.859722 0.1568
3.3047256 -13.855797 0.0704
3.2548809 -13.851871 -0.0112
3.2050352 -13.847946 -0.1072
3.1551895 -13.844025 -0.2608
3.1053429 -13.840099 -0.41679999
3.0554972 -13.836174 -0.57200003
3.0056524 -13.832249 -0.72719997
