# .PCD v0.7 - Point Cloud Data file format
VERSION 0.7
FIELDS x y z
SIZE 4 4 4
TYPE F F F
COUNT 1 1 1
WIDTH 1575
HEIGHT 1
VIEWPOINT 0 0 0 1 0 0 0
POINTS 1575
DATA ascii
64.15274 -54.043488 0.2456
64.152046 -54.093483 0.164
64.151352 -54.143478 0.082400002
64.15065 -54.19347 -0.0112
64.149956 -54.243465 -0.12800001
64.149261 -54.293461 -0.2376
64.14856 -54.343456 -0.352
64.147865 -54.393452 -0.48879999
64.147171 -54.443447 -0.63520002
63.977142 -52.290871 -1.4872
63.976448 -52.340866 -0.2448
63.975754 -52.390862 0.088799998
63.975052 -52.440857 0.13680001
63.974358 -52.490852 0.1432
63.973663 -52.540848 0.17039999
63.972961 -52.590843 0.2008
63.972267 -52.640839 0.25760001
63.971573 -52.690834 0.28799999
63.970879 -52.740826 0.30399999
63.970177 -52.790825 0.308
63.969482 -52.840816 0.3136
63.968788 -52.890816 0.33680001
63.968086 -52.940807 0.3272
63.967392 -52.990803 0.34720001
63.966698 -53.040798 0.292
63.966003 -53.09079 0.28560001
63.965302 -53.140789 0.2816
63.964607 -53.190781 0.2976
63.963913 -53.240776 0.25839999
63.963211 -53.290771 0.32159999
63.962517 -53.340767 0.74879998
63.961823 -53.390762 0.87360001
63.961128 -53.440758 0.88080001
63.960426 -53.490753 0.88239998
63.959732 -53.540749 0.87279999
63.959038 -53.590744 0.82160002
63.958336 -53.640739 0.76639998
63.957642 -53.690735 0.70480001
63.956947 -53.74073 0.64880002
63.956253 -53.790726 0.58639997
63.955551 -53.840721 0.52960002
63.954857 -53.890717 0.4648
63.954163 -53.940712 0.39359999
63.953461 -53.990707 0.324
63.952766 -54.040703 0.244
63.952072 -54.090698 0.1648
63.951378 -54.140694 0.0792
63.950676 -54.190685 -0.022399999
63.949982 -54.240681 -0.1152
63.949287 -54.290676 -0.2288
63.948586 -54.340672 -0.352
63.947891 -54.390667 -0.48480001
63.947197 -54.440662 -0.66399997
63.777153 -52.288086 -1.5008
63.776459 -52.338081 -1.5
63.775764 -52.388077 0.080799997
63.775063 -52.438072 0.14480001
63.774368 -52.488064 0.1432
63.773674 -52.538059 0.19679999
63.772972 -52.588055 0.2376
63.772278 -52.63805 0.25600001
63.771584 -52.688046 0.292
63.770889 -52.738037 0.3184
63.770187 -52.788036 0.3344
63.769493 -52.838028 0.3344
63.768799 -52.888027 0.33919999
63.768097 -52.938019 0.30320001
63.767403 -52.988014 0.36320001
63.766708 -53.03801 0.31040001
63.766014 -53.088005 0.296
63.765312 -53.138 0.3008
63.764618 -53.187996 0.26159999
63.763924 -53.237991 0.26480001
63.763222 -53.287987 0.35280001
63.762527 -53.337982 0.7464
63.761833 -53.387978 0.87440002
63.761139 -53.437973 0.88239998
63.760437 -53.487968 0.88160002
63.759743 -53.537964 0.86479998
63.759048 -53.587959 0.8064
63.758347 -53.637955 0.75919998
63.757652 -53.68795 0.70719999
63.756958 -53.737942 0.63679999
63.756264 -53.787941 0.59759998
63.755562 -53.837933 0.53200001
63.754868 -53.887932 0.4664
63.754173 -53.937923 0.40239999
63.753471 -53.987919 0.3224
63.752777 -54.037914 0.2464
63.752083 -54.08791 0.1832
63.751389 -54.137905 0.069600001
63.750687 -54.187897 -0.0176
63.749992 -54.237892 -0.116
63.749298 -54.287888 -0.2184
63.748596 -54.337883 -0.34799999
63.747902 -54.387878 -0.50480002
63.576485 -52.335293 -1.2544
63.57579 -52.385288 0.078400001
63.575089 -52.435284 0.1248
63.574394 -52.485275 0.13519999
63.5737 -52.535271 0.2016
63.572998 -52.585266 0.2464
63.572304 -52.635262 0.72079998
63.571609 -52.685257 0.308
63.570915 -52.735252 0.32879999
63.570213 -52.785248 0.35679999
63.569519 -52.835243 0.33759999
63.568825 -52.885239 0.32800001
63.568123 -52.935234 0.33919999
63.567429 -52.985229 0.33520001
63.566734 -53.035225 0.32480001
63.56604 -53.08522 0.292
63.565338 -53.135216 0.2784
63.564644 -53.185211 0.28799999
63.56395 -53.235207 0.2904
63.563248 -53.285202 0.5248
63.562553 -53.335197 0.74080002
63.561859 -53.385193 0.8768
63.561165 -53.435188 0.88160002
63.560463 -53.48518 0.88080001
63.559769 -53.535179 0.87440002
63.559074 -53.585171 0.81040001
63.558372 -53.635166 0.76160002
63.557678 -53.685162 0.704
63.556984 -53.735153 0.65679997
63.55629 -53.785152 0.59200001
63.555588 -53.835144 0.53600001
63.554893 -53.885143 0.46160001
63.554199 -53.935135 0.40400001
63.553497 -53.98513 0.32879999
63.552803 -54.035126 0.25600001
63.552109 -54.085121 0.1736
63.551414 -54.135117 0.088
63.550713 -54.185112 -0.0080000004
63.550018 -54.235107 -0.1072
63.549324 -54.285103 -0.2256
63.548622 -54.335098 -0.3488
63.547928 -54.385094 -0.49200001
63.547234 -54.435089 -0.63679999
63.393227 -51.132626 -1.4944
63.392532 -51.182617 -1.4768
63.39183 -51.232613 -1.4808
63.391136 -51.282608 -1.4856
63.390442 -51.332603 -1.4904
63.38974 -51.382599 -1.4944
63.389046 -51.432594 -1.4992
63.377907 -52.232517 -1.4632
63.377205 -52.282513 -1.5032001
63.376511 -52.332508 0.031199999
63.375816 -52.382504 0.087200001
63.375114 -52.432499 0.13680001
63.37442 -52.482491 0.152
63.373726 -52.532486 0.1904
63.373024 -52.582481 0.2352
63.37233 -52.632477 0.26800001
63.371635 -52.682472 0.29840001
63.370941 -52.732468 0.30320001
63.370239 -52.782463 0.2976
63.369545 -52.832458 0.2976
63.368851 -52.882454 0.30239999
63.368149 -52.932449 0.31999999
63.367455 -52.982445 0.3488
63.36676 -53.03244 0.29679999
63.366066 -53.082436 0.29679999
63.365364 -53.132431 0.2728
63.36467 -53.182426 0.2888
63.363976 -53.232422 0.3312
63.363274 -53.282417 0.33680001
63.362579 -53.332413 0.7392
63.361885 -53.382408 0.8664
63.361191 -53.432404 0.88480002
63.360489 -53.482395 0.8768
63.359795 -53.532394 0.87519997
63.3591 -53.582386 0.81919998
63.358398 -53.632381 0.76239997
63.357704 -53.682377 0.71920002
63.35701 -53.732368 0.64399999
63.356316 -53.782368 0.59600002
63.355614 -53.832359 0.53359997
63.354919 -53.882359 0.47440001
63.354225 -53.93235 0.4032
63.353523 -53.982346 0.3312
63.352829 -54.032341 0.2568
63.352135 -54.082336 0.1768
63.35144 -54.132332 0.088
63.350739 -54.182327 0
63.350044 -54.232323 -0.1088
63.34935 -54.282318 -0.21520001
63.348648 -54.332314 -0.35519999
63.347954 -54.382309 -0.49360001
63.34726 -54.432304 -0.64399999
63.177917 -52.229729 -1.48
63.177216 -52.279724 -1.4895999
63.176521 -52.32972 -0.2464
63.175827 -52.379715 0.092
63.175125 -52.42971 0.132
63.174431 -52.479706 0.18080001
63.173737 -52.529701 0.2216
63.173035 -52.579697 0.24959999
63.17234 -52.629692 0.28799999
63.171646 -52.679688 0.3136
63.170952 -52.729683 0.32159999
63.17025 -52.779678 0.30880001
63.169556 -52.829674 0.3064
63.168861 -52.879669 0.32319999
63.168159 -52.929665 0.29440001
63.167465 -52.97966 0.30239999
63.166771 -53.029655 0.2976
63.166077 -53.079647 0.2832
63.165375 -53.129646 0.2872
63.16468 -53.179638 0.292
63.163986 -53.229633 0.26159999
63.163284 -53.279629 0.35679999
63.16259 -53.329624 0.74400002
63.161896 -53.37962 0.86879998
63.161201 -53.429615 0.87919998
63.1605 -53.479607 0.87840003
63.159805 -53.529606 0.87440002
63.159111 -53.579597 0.81760001
63.158409 -53.629593 0.77280003
63.157715 -53.679588 0.71920002
63.157021 -53.729584 0.67119998
63.156326 -53.779579 0.59759998
63.155624 -53.829575 0.54320002
63.15493 -53.87957 0.46799999
63.154236 -53.929565 0.4152
63.153534 -53.979561 0.33680001
63.15284 -54.029556 0.2536
63.152145 -54.079552 0.17120001
63.151451 -54.129547 0.098399997
63.150749 -54.179543 -0.0104
63.150055 -54.229538 -0.108
63.149361 -54.279533 -0.2112
63.148659 -54.329529 -0.3416
63.147964 -54.379524 -0.4984
62.993958 -51.077057 -1.4960001
62.993263 -51.127052 -1.484
62.979332 -52.126957 -1.484
62.978638 -52.176949 -1.4808
62.977943 -52.226944 -1.4848
62.977242 -52.276939 -1.4984
62.976547 -52.326935 -1.4976
62.975853 -52.37693 0.0832
62.975151 -52.426926 0.1344
62.974457 -52.476921 0.1416
62.973763 -52.526917 0.22239999
62.973061 -52.576912 0.27919999
62.972366 -52.626907 0.29840001
62.971672 -52.676903 0.31439999
62.970978 -52.726898 0.31439999
62.970276 -52.776894 0.30720001
62.969582 -52.826889 0.31279999
62.968887 -52.876884 0.30320001
62.968185 -52.92688 0.30000001
62.967491 -52.976875 0.29120001
62.966797 -53.026871 0.28560001
62.966103 -53.076862 0.2888
62.965401 -53.126862 0.28560001
62.964706 -53.176853 0.23999999
62.964012 -53.226849 0.2264
62.96331 -53.276844 0.34079999
62.962616 -53.326839 0.73839998
62.961922 -53.376835 0.86879998
62.961227 -53.42683 0.87760001
62.960526 -53.476822 0.88160002
62.959831 -53.526821 0.87440002
62.959137 -53.576813 0.81760001
62.958435 -53.626808 0.77520001
62.957741 -53.676804 0.72719997
62.957047 -53.726799 0.65920001
62.956352 -53.776794 0.5984
62.95565 -53.82679 0.53600001
62.954956 -53.876785 0.472
62.954262 -53.926781 0.40799999
62.95356 -53.976776 0.33360001
62.952866 -54.026772 0.25119999
62.952171 -54.076767 0.17839999
62.951477 -54.126762 0.092
62.950775 -54.176758 0.0016
62.950081 -54.226753 -0.104
62.949387 -54.276749 -0.212
62.948685 -54.326744 -0.33840001
62.94799 -54.37674 -0.47679999
62.793968 -51.074272 -1.4967999
62.793274 -51.124268 -1.4967999
62.79258 -51.174263 -1.5008
62.791878 -51.224258 -1.4952
62.791183 -51.274254 -1.4960001
62.790489 -51.324245 -1.5048
62.789787 -51.374245 -1.4984
62.789093 -51.424236 -1.5064
62.788399 -51.474232 -1.5104001
62.787704 -51.524227 -1.508
62.787003 -51.574223 -1.5016
62.786308 -51.624218 -1.508
62.785614 -51.674213 -1.5039999
62.784912 -51.724205 -1.484
62.784218 -51.774204 -1.492
62.783524 -51.824196 -1.5
62.782829 -51.874191 -1.488
62.782127 -51.924187 -1.4912
62.781433 -51.974182 -1.4960001
62.780739 -52.024178 -1.4864
62.780037 -52.074173 -1.492
62.779343 -52.124168 -1.4848
62.778648 -52.174164 -1.4936
62.777954 -52.224159 -1.492
62.777252 -52.274155 -1.492
62.776558 -52.32415 0.072800003
62.775864 -52.374146 0.090400003
62.775162 -52.424141 0.1472
62.774467 -52.474136 0.1904
62.773773 -52.524132 0.2192
62.773071 -52.574127 0.25279999
62.772377 -52.624123 0.2744
62.771683 -52.674118 0.28080001
62.770988 -52.72411 0.28240001
62.770287 -52.774109 0.3048
62.769592 -52.8241 0.3168
62.768898 -52.8741 0.30160001
62.768196 -52.924091 0.32640001
62.767502 -52.974087 0.30880001
62.766808 -53.024082 0.2976
62.766113 -53.074074 0.29280001
62.765411 -53.124073 0.28560001
62.764717 -53.174065 0.15279999
62.764023 -53.22406 0.13519999
62.763321 -53.274055 0.54320002
62.762627 -53.324051 0.73680001
62.761932 -53.374046 0.8488
62.761238 -53.424042 0.88080001
62.760536 -53.474037 0.87760001
62.759842 -53.524033 0.8768
62.759148 -53.574028 0.8136
62.758446 -53.624023 0.76319999
62.757751 -53.674019 0.72320002
62.757057 -53.724014 0.66000003
62.756363 -53.77401 0.59759998
62.755661 -53.824005 0.54000002
62.754967 -53.874001 0.47679999
62.754272 -53.923996 0.40560001
62.753571 -53.973991 0.33759999
62.752876 -54.023987 0.2624
62.752182 -54.073982 0.17200001
62.751488 -54.123978 0.092
62.750786 -54.173969 0.0136
62.750092 -54.223965 -0.104
62.749397 -54.27396 -0.2024
62.748695 -54.323956 -0.32640001
62.748001 -54.373951 -0.4576
62.747307 -54.423946 -0.60320002
62.746613 -54.473938 -0.8136
62.583549 -51.821411 -1.484
62.582855 -51.871407 -1.4832
62.582153 -51.921402 -1.508
62.581459 -51.971397 -1.492
62.580765 -52.021393 -1.4895999
62.580063 -52.071388 -1.4888
62.579369 -52.121384 -1.4904
62.578674 -52.171379 -1.4992
62.57798 -52.221375 -1.4895999
62.577278 -52.27137 -1.4904
62.576584 -52.321365 0.0112
62.57589 -52.371361 0.084799998
62.575188 -52.421356 0.148
62.574493 -52.471348 0.1912
62.573799 -52.521343 0.23119999
62.573097 -52.571339 0.264
62.572403 -52.621334 0.2888
62.571709 -52.671329 0.2888
62.571014 -52.721321 0.2888
62.570313 -52.77132 0.296
62.569618 -52.821312 0.32319999
62.568924 -52.871311 0.33360001
62.568222 -52.921303 0.296
62.567528 -52.971298 0.296
62.566833 -53.021294 0.2872
62.566139 -53.071289 0.27599999
62.565437 -53.121284 0.25999999
62.564743 -53.17128 0.156
62.564049 -53.221275 0.1312
62.563347 -53.271271 0.148
62.562653 -53.321266 0.73360002
62.561958 -53.371262 0.87279999
62.561264 -53.421257 0.87840003
62.560562 -53.471252 0.884
62.559868 -53.521248 0.87279999
62.559174 -53.571243 0.8168
62.558472 -53.621239 0.77280003
62.557777 -53.671234 0.7216
62.557083 -53.721226 0.66000003
62.556389 -53.771225 0.60079998
62.555687 -53.821217 0.5424
62.554993 -53.871216 0.4824
62.554298 -53.921207 0.4016
62.553596 -53.971203 0.32960001
62.552902 -54.021198 0.26640001
62.552208 -54.071194 0.1832
62.551514 -54.121189 0.092799999
62.550812 -54.171181 0.0088
62.550117 -54.221176 -0.093599997
62.549423 -54.271172 -0.2112
62.548721 -54.321167 -0.324
62.548027 -54.371162 -0.46239999
62.547333 -54.421158 -0.58880001
62.377296 -52.268585 -1.4928
62.376602 -52.318581 0.1024
62.375908 -52.368576 0.20559999
62.375206 -52.418571 0.1472
62.374512 -52.468563 0.16
62.373817 -52.518559 0.19599999
62.373116 -52.568554 0.22480001
62.372421 -52.618549 0.2456
62.371727 -52.668545 0.28080001
62.371033 -52.718536 0.27759999
62.370331 -52.768536 0.34959999
62.369637 -52.818527 0.30399999
62.368942 -52.868526 0.3048
62.36824 -52.918518 0.2728
62.367546 -52.968513 0.28400001
62.366852 -53.018509 0.27520001
62.366158 -53.068504 0.2728
62.365456 -53.1185 0.2608
62.364761 -53.168495 0.27759999
62.364067 -53.218491 0.13600001
62.363365 -53.268486 0.14
62.362671 -53.318481 0.74159998
62.361977 -53.368477 0.82639998
62.361282 -53.418472 0.88080001
62.36058 -53.468468 0.884
62.359886 -53.518463 0.8768
62.359192 -53.568459 0.82160002
62.35849 -53.618454 0.76480001
62.357796 -53.668449 0.71600002
62.357101 -53.718441 0.66799998
62.356407 -53.76844 0.60320002
62.355705 -53.818432 0.5456
62.355011 -53.868431 0.48800001
62.354317 -53.918423 0.40799999
62.353615 -53.968418 0.33360001
62.352921 -54.018414 0.27200001
62.352226 -54.068409 0.18880001
62.351532 -54.118404 0.1
62.35083 -54.168396 0.0104
62.350136 -54.218391 -0.092
62.349442 -54.268387 -0.1944
62.34874 -54.318382 -0.31600001
62.348045 -54.368378 -0.456
62.347351 -54.418373 -0.60960001
62.175926 -52.365788 0.0744
62.175224 -52.415783 0.1336
62.17453 -52.465775 0.1408
62.173836 -52.51577 0.1928
62.173134 -52.565765 0.23199999
62.17244 -52.615761 0.25839999
62.171745 -52.665756 0.44
62.171051 -52.715752 0.30160001
62.170349 -52.765747 0.30239999
62.169655 -52.815742 0.29280001
62.168961 -52.865738 0.29840001
62.168259 -52.915733 0.30239999
62.167564 -52.965729 0.32960001
62.16687 -53.015724 0.2728
62.166176 -53.06572 0.26640001
62.165474 -53.115715 0.25760001
62.16478 -53.16571 0.25999999
62.164085 -53.215706 0.2696
62.163383 -53.265701 0.41999999
62.162689 -53.315697 0.736
62.161995 -53.365692 0.83679998
62.161301 -53.415688 0.88080001
62.160599 -53.465679 0.87519997
62.159904 -53.515678 0.8768
62.15921 -53.56567 0.83039999
62.158508 -53.615665 0.77280003
62.157814 -53.665661 0.71200001
62.15712 -53.715652 0.6688
62.156425 -53.765652 0.60879999
62.155724 -53.815643 0.54400003
62.155029 -53.865643 0.484
62.154335 -53.915634 0.412
62.153633 -53.96563 0.352
62.152939 -54.015625 0.26480001
62.152245 -54.06562 0.1864
62.15155 -54.115616 0.1104
62.150848 -54.165611 0.0080000004
62.150154 -54.215607 -0.096000001
62.14946 -54.265602 -0.2096
62.148758 -54.315598 -0.3136
62.148064 -54.365593 -0.44080001
62.147369 -54.415588 -0.61760002
61.976639 -52.313004 0.0104
61.975945 -52.362999 0.0832
61.975243 -52.412994 0.1328
61.974548 -52.46299 0.16
61.973854 -52.512985 0.18799999
61.973152 -52.562981 0.2344
61.972458 -52.612976 0.2816
61.971764 -52.662971 0.292
61.971069 -52.712967 0.2904
61.970367 -52.762962 0.29280001
61.969673 -52.812958 0.2872
61.968979 -52.862953 0.28
61.968277 -52.912949 0.28400001
61.967583 -52.962944 0.28400001
61.966888 -53.012939 0.31200001
61.966194 -53.062935 0.28799999
61.965492 -53.11293 0.26480001
61.964798 -53.162926 0.25839999
61.964104 -53.212921 0.25600001
61.963402 -53.262917 0.3184
61.962708 -53.312912 0.73280001
61.962013 -53.362907 0.84560001
61.961319 -53.412903 0.88239998
61.960617 -53.462891 0.87840003
61.959923 -53.512894 0.87440002
61.959229 -53.562881 0.81999999
61.958527 -53.612877 0.78079998
61.957832 -53.662872 0.72799999
61.957138 -53.712868 0.66960001
61.956444 -53.762863 0.60000002
61.955742 -53.812859 0.53920001
61.955048 -53.862854 0.49520001
61.954353 -53.912849 0.42480001
61.953651 -53.962845 0.33759999
61.952957 -54.01284 0.27360001
61.952263 -54.062836 0.19760001
61.951569 -54.112831 0.1064
61.950867 -54.162827 0.0080000004
61.950172 -54.212822 -0.0792
61.949478 -54.262817 -0.2008
61.948776 -54.312813 -0.29359999
61.948082 -54.362808 -0.45519999
61.947388 -54.412804 -0.60320002
61.775963 -52.360214 0.062399998
61.775261 -52.41021 0.1312
61.774567 -52.460205 0.14560001
61.773872 -52.510201 0.1592
61.77317 -52.560196 0.22
61.772476 -52.610191 0.24160001
61.771782 -52.660187 0.2552
61.771088 -52.710182 0.28479999
61.770386 -52.760178 0.28799999
61.769691 -52.810173 0.28560001
61.768997 -52.860168 0.3504
61.768295 -52.910164 0.3696
61.767601 -52.960159 0.35600001
61.766907 -53.010155 0.3256
61.766212 -53.060146 0.32960001
61.765511 -53.110146 0.2728
61.764816 -53.160137 0.2712
61.764122 -53.210133 0.2624
61.76342 -53.260128 0.32960001
61.762726 -53.310123 0.736
61.762032 -53.360119 0.8168
61.761337 -53.410114 0.87840003
61.760635 -53.460106 0.88239998
61.759941 -53.510105 0.87840003
61.759247 -53.560097 0.82880002
61.758545 -53.610092 0.77200001
61.757851 -53.660088 0.71759999
61.757156 -53.710083 0.6728
61.756462 -53.760078 0.6056
61.75576 -53.810074 0.55919999
61.755066 -53.860069 0.484
61.754372 -53.910065 0.42879999
61.75367 -53.96006 0.336
61.752975 -54.010056 0.2744
61.752281 -54.060051 0.1928
61.751587 -54.110046 0.1
61.750885 -54.160042 0.019200001
61.750191 -54.210037 -0.079999998
61.749496 -54.260033 -0.1856
61.748795 -54.310028 -0.30880001
61.7481 -54.360023 -0.4384
61.747406 -54.410019 -0.58560002
61.746712 -54.460011 -0.76880002
61.576675 -52.307434 -0.32800001
61.575981 -52.35743 0.30000001
61.575279 -52.407425 0.12720001
61.574585 -52.45742 0.152
61.573891 -52.507416 0.1736
61.573189 -52.557411 0.20720001
61.572495 -52.607407 0.24079999
61.5718 -52.657402 0.26480001
61.571106 -52.707394 0.30000001
61.570404 -52.757393 0.30880001
61.56971 -52.807384 0.3064
61.569016 -52.857384 0.3136
61.568314 -52.907375 0.33199999
61.567619 -52.957371 0.34799999
61.566925 -53.007366 0.2976
61.566231 -53.057358 0.3224
61.565529 -53.107357 0.2992
61.564835 -53.157349 0.27360001
61.56414 -53.207344 0.25839999
61.563438 -53.257339 0.31439999
61.562744 -53.307335 0.73760003
61.56205 -53.35733 0.83039999
61.561356 -53.407326 0.8768
61.560654 -53.457321 0.87919998
61.559959 -53.507317 0.87840003
61.559265 -53.557312 0.82800001
61.558563 -53.607307 0.7712
61.557869 -53.657303 0.72240001
61.557175 -53.707298 0.67519999
61.55648 -53.757294 0.60640001
61.555779 -53.807289 0.56160003
61.555084 -53.857285 0.49360001
61.55439 -53.90728 0.41679999
61.553688 -53.957275 0.35440001
61.552994 -54.007271 0.2712
61.552299 -54.057266 0.2024
61.551605 -54.107262 0.1176
61.550903 -54.157253 0.031199999
61.550209 -54.207249 -0.088799998
61.549515 -54.257244 -0.1864
61.548813 -54.30724 -0.3048
61.548119 -54.357235 -0.4224
61.547424 -54.40723 -0.56959999
61.376007 -52.354645 0.56160003
61.375305 -52.40464 0.12639999
61.374611 -52.454636 0.1592
61.373917 -52.504631 0.1824
61.373215 -52.554626 0.20720001
61.37252 -52.604622 0.228
61.371826 -52.654617 0.244
61.371132 -52.704609 0.26320001
61.37043 -52.754608 0.30559999
61.369736 -52.8046 0.3432
61.369041 -52.854599 0.32080001
61.36834 -52.904591 0.29280001
61.367645 -52.954586 0.27520001
61.366951 -53.004581 0.27680001
61.366257 -53.054573 0.29840001
61.365555 -53.104572 0.34720001
61.364861 -53.154564 0.31040001
61.364166 -53.204559 0.1992
61.363464 -53.254555 0.2208
61.36277 -53.30455 0.74159998
61.362076 -53.354546 0.84399998
61.361382 -53.404541 0.87279999
61.36068 -53.454536 0.8768
61.359985 -53.504532 0.87840003
61.359291 -53.554527 0.83679998
61.358589 -53.604523 0.77999997
61.357895 -53.654518 0.72479999
61.357201 -53.704514 0.67040002
61.356506 -53.754509 0.62
61.355804 -53.804504 0.54960001
61.35511 -53.8545 0.48719999
61.354416 -53.904495 0.43439999
61.353714 -53.954491 0.35600001
61.35302 -54.004486 0.27919999
61.352325 -54.054482 0.1992
61.351631 -54.104477 0.1176
61.350929 -54.154469 0.0055999998
61.350235 -54.204464 -0.075199999
61.349541 -54.254459 -0.18799999
61.348839 -54.304455 -0.3064
61.348145 -54.35445 -0.43920001
61.34745 -54.404446 -0.588
61.176025 -52.35186 0.068800002
61.175323 -52.401855 0.1488
61.174629 -52.451847 0.1408
61.173935 -52.501842 0.1464
61.173233 -52.551838 0.1432
61.172539 -52.601833 0.1496
61.171844 -52.651829 0.18960001
61.17115 -52.70182 0.2872
61.170448 -52.75182 0.3328
61.169754 -52.801811 0.34
61.16906 -52.85181 0.31200001
61.168358 -52.901802 0.29519999
61.167664 -52.951797 0.28240001
61.166969 -53.001793 0.29679999
61.166275 -53.051788 0.296
61.165573 -53.101784 0.33039999
61.164879 -53.151779 0.28479999
61.164185 -53.201775 0.25839999
61.163483 -53.25177 0.252
61.162788 -53.301765 0.73839998
61.162094 -53.351761 0.8136
61.1614 -53.401756 0.87760001
61.160698 -53.451752 0.87760001
61.160004 -53.501747 0.8696
61.159309 -53.551743 0.83520001
61.158607 -53.601738 0.7744
61.157913 -53.651733 0.73040003
61.157219 -53.701725 0.67760003
61.156525 -53.751724 0.61199999
61.155823 -53.801716 0.56800002
61.155128 -53.851715 0.4912
61.154434 -53.901707 0.42160001
61.153732 -53.951702 0.3488
61.153038 -54.001698 0.28639999
61.152344 -54.051693 0.19679999
61.151649 -54.101688 0.1136
61.150948 -54.15168 0.016000001
61.150253 -54.201675 -0.0744
61.149559 -54.251671 -0.1928
61.148857 -54.301666 -0.2784
61.148163 -54.351662 -0.45840001
61.147469 -54.401657 -0.57440001
61.146774 -54.451653 -0.7568
60.976044 -52.349072 0.0792
60.975342 -52.399067 0.1256
60.974648 -52.449059 0.1256
60.973953 -52.499054 0.13600001
60.973251 -52.549049 0.38800001
60.972557 -52.599045 0.40079999
60.971863 -52.64904 0.39120001
60.971169 -52.699036 0.368
60.970467 -52.749031 0.34079999
60.969772 -52.799026 0.32879999
60.969078 -52.849022 0.29519999
60.968376 -52.899017 0.2888
60.967682 -52.949013 0.2992
60.966988 -52.999008 0.3184
60.966293 -53.049004 0.31999999
60.965591 -53.098999 0.33520001
60.964897 -53.148994 0.29440001
60.964203 -53.19899 0.30559999
60.963501 -53.248985 0.29840001
60.962807 -53.298981 0.74239999
60.962112 -53.348976 0.8344
60.961418 -53.398972 0.87199998
60.960716 -53.448963 0.88080001
60.960022 -53.498962 0.8768
60.959328 -53.548954 0.84799999
60.958626 -53.598949 0.77600002
60.957932 -53.648945 0.73519999
60.957237 -53.698936 0.67360002
60.956543 -53.748936 0.60799998
60.955841 -53.798927 0.55760002
60.955147 -53.848927 0.4928
60.954453 -53.898918 0.42640001
60.953751 -53.948914 0.3664
60.953056 -53.998909 0.27919999
60.952362 -54.048904 0.20479999
60.951668 -54.0989 0.1128
60.950966 -54.148895 0.021600001
60.950272 -54.198891 -0.079999998
60.949577 -54.248886 -0.1816
60.948875 -54.298882 -0.3008
60.948181 -54.348877 -0.43360001
60.947487 -54.398872 -0.56080002
60.946793 -54.448868 -0.77999997
60.776062 -52.346287 0.2448
60.77536 -52.396282 0.32800001
60.774666 -52.446274 0.36160001
60.773972 -52.496269 0.39039999
60.77327 -52.546265 0.4208
60.772575 -52.59626 0.40560001
60.771881 -52.646255 0.36719999
60.771187 -52.696251 0.3328
60.770485 -52.746246 0.3312
60.769791 -52.796242 0.28960001
60.769096 -52.846237 0.29280001
60.768394 -52.896233 0.29440001
60.7677 -52.946228 0.31119999
60.767006 -52.996223 0.29440001
60.766312 -53.046219 0.29840001
60.76561 -53.096214 0.30239999
60.764915 -53.14621 0.32480001
60.764221 -53.196205 0.25760001
60.763519 -53.246201 0.3184
60.762825 -53.296196 0.7288
60.762131 -53.346191 0.76319999
60.761436 -53.396187 0.87440002
60.760735 -53.446178 0.88
60.76004 -53.496178 0.88480002
60.759346 -53.546169 0.8344
60.758644 -53.596165 0.78799999
60.75795 -53.64616 0.74400002
60.757256 -53.696152 0.67199999
60.756561 -53.746151 0.62639999
60.755859 -53.796143 0.57120001
60.755165 -53.846142 0.49759999
60.754471 -53.896133 0.43599999
60.753769 -53.946129 0.3608
60.753075 -53.996124 0.29120001
60.75238 -54.04612 0.208
60.751686 -54.096115 0.1256
60.750984 -54.146111 0.0288
60.75029 -54.196106 -0.064000003
60.749596 -54.246101 -0.168
60.748894 -54.296097 -0.2872
60.748199 -54.346092 -0.42320001
60.747505 -54.396088 -0.58960003
60.746811 -54.446083 -0.7432
60.57608 -52.343498 0.20559999
60.575378 -52.393494 0.31279999
60.574684 -52.443489 0.32480001
60.57399 -52.493484 0.3152
60.573288 -52.54348 0.30160001
60.572594 -52.593475 0.30000001
60.571899 -52.643471 0.30559999
60.571205 -52.693466 0.31439999
60.570503 -52.743462 0.30880001
60.569809 -52.793457 0.3152
60.569115 -52.843452 0.32879999
60.568413 -52.893448 0.33759999
60.567719 -52.943443 0.3328
60.567024 -52.993439 0.324
60.56633 -53.04343 0.3272
60.565628 -53.09343 0.33039999
60.564934 -53.143421 0.32159999
60.56424 -53.193417 0.156
60.563538 -53.243412 0.15360001
60.562843 -53.293407 0.73199999
60.562149 -53.343403 0.75199997
60.561455 -53.393398 0.88160002
60.560753 -53.44339 0.88080001
60.560059 -53.493389 0.87919998
60.559364 -53.543381 0.84079999
60.558662 -53.593376 0.7816
60.557968 -53.643372 0.73519999
60.557274 -53.693367 0.68000001
60.55658 -53.743362 0.62239999
60.555878 -53.793358 0.57520002
60.555183 -53.843353 0.49759999
60.554489 -53.893349 0.4488
60.553787 -53.943344 0.36320001
60.553093 -53.99334 0.29280001
60.552399 -54.043335 0.212
60.551704 -54.09333 0.1208
60.551003 -54.143326 0.047200002
60.550308 -54.193321 -0.0704
60.549614 -54.243317 -0.1688
60.548912 -54.293312 -0.27759999
60.548218 -54.343307 -0.4104
60.375404 -52.390709 0.2832
60.37471 -52.440704 0.30000001
60.374016 -52.4907 0.30000001
60.373314 -52.540695 0.30000001
60.37262 -52.590691 0.32159999
60.371925 -52.640686 0.3256
60.371231 -52.690681 0.32640001
60.370529 -52.740677 0.3272
60.369835 -52.790672 0.32480001
60.369141 -52.840668 0.31119999
60.368439 -52.890663 0.38319999
60.367744 -52.940659 0.3328
60.36705 -52.990654 0.30239999
60.366356 -53.040646 0.3184
60.365654 -53.090645 0.32159999
60.36496 -53.140636 0.1648
60.364265 -53.190632 0.15279999
60.363564 -53.240627 0.1408
60.362869 -53.290623 0.1376
60.362175 -53.340618 0.76480001
60.361481 -53.390614 0.87199998
60.360779 -53.440605 0.88080001
60.360085 -53.490604 0.88319999
60.35939 -53.540596 0.8344
60.358688 -53.590591 0.78399998
60.357994 -53.640587 0.7288
60.3573 -53.690582 0.67919999
60.356606 -53.740578 0.61839998
60.355904 -53.790573 0.56160003
60.355209 -53.840569 0.49439999
60.354515 -53.890564 0.44639999
60.353813 -53.940559 0.36000001
60.353119 -53.990555 0.2904
60.352425 -54.04055 0.21600001
60.35173 -54.090546 0.1304
60.351028 -54.140541 0.028000001
60.350334 -54.190536 -0.064000003
60.34964 -54.240532 -0.17120001
60.348938 -54.290527 -0.27599999
60.348244 -54.340523 -0.4368
60.347549 -54.390518 -0.59200001
60.346855 -54.44051 -0.73199999
60.176117 -52.337929 0.28080001
60.175415 -52.387924 0.29359999
60.174721 -52.43792 0.2888
60.174026 -52.487915 0.2976
60.173325 -52.53791 0.3096
60.17263 -52.587906 0.31439999
60.171936 -52.637901 0.30160001
60.171242 -52.687893 0.31439999
60.17054 -52.737892 0.31760001
60.169846 -52.787884 0.32159999
60.169151 -52.837883 0.32080001
60.168449 -52.887875 0.3168
60.167755 -52.93787 0.32480001
60.167061 -52.987865 0.31200001
60.166367 -53.037857 0.33520001
60.165665 -53.087856 0.2904
60.16497 -53.137848 0.1512
60.164276 -53.187843 0.1504
60.163574 -53.237839 0.1424
60.16288 -53.287834 0.1224
60.162186 -53.33783 0.76719999
60.161491 -53.387825 0.87840003
60.160789 -53.43782 0.88080001
60.160095 -53.487816 0.87919998
60.159401 -53.537811 0.84240001
60.158699 -53.587807 0.78640002
60.158005 -53.637802 0.73680001
60.15731 -53.687798 0.67760003
60.156616 -53.737793 0.61919999
60.155914 -53.787788 0.5704
60.15522 -53.837784 0.50319999
60.154526 -53.887779 0.43279999
60.153824 -53.937775 0.3608
60.15313 -53.98777 0.29840001
60.152435 -54.037766 0.2112
60.151741 -54.087761 0.132
60.151039 -54.137753 0.039999999
60.150345 -54.187748 -0.062399998
60.149651 -54.237743 -0.1648
60.148949 -54.287739 -0.2832
60.148254 -54.337734 -0.41679999
60.14756 -54.38773 -0.55440003
60.146866 -54.437721 -0.73199999
59.976143 -52.335144 0.2712
59.975441 -52.385139 0.2992
59.974747 -52.435131 0.3048
59.974052 -52.485126 0.30239999
59.973351 -52.535122 0.30000001
59.972656 -52.585117 0.292
59.971962 -52.635113 0.3008
59.971268 -52.685104 0.31439999
59.970566 -52.735104 0.31760001
59.969872 -52.785095 0.3184
59.969177 -52.835094 0.33039999
59.968475 -52.885086 0.32480001
59.967781 -52.935081 0.32800001
59.967087 -52.985077 0.3344
59.966393 -53.035072 0.33680001
59.965691 -53.085068 0.28400001
59.964996 -53.135063 0.15360001
59.964302 -53.185059 0.1488
59.9636 -53.235054 0.148
59.962906 -53.285049 0.132
59.962212 -53.335045 0.77280003
59.961517 -53.38504 0.87840003
59.960815 -53.435036 0.88080001
59.960121 -53.485031 0.88480002
59.959427 -53.535027 0.86080003
59.958725 -53.585022 0.78799999
59.958031 -53.635017 0.74000001
59.957336 -53.685009 0.68480003
59.956642 -53.735008 0.62480003
59.95594 -53.785 0.56559998
59.955246 -53.834999 0.50639999
59.954552 -53.884991 0.44400001
59.95385 -53.934986 0.37279999
59.953156 -53.984982 0.28799999
59.952461 -54.034977 0.2104
59.951767 -54.084972 0.1464
59.951065 -54.134964 0.044799998
59.950371 -54.184959 -0.045600001
59.949677 -54.234955 -0.1648
59.948975 -54.28495 -0.26640001
59.94828 -54.334946 -0.40000001
59.947586 -54.384941 -0.5248
59.946892 -54.434937 -0.69440001
59.776154 -52.332359 0.2344
59.775452 -52.382355 0.30239999
59.774757 -52.432346 0.3048
59.774063 -52.482342 0.31600001
59.773361 -52.532337 0.30320001
59.772667 -52.582333 0.308
59.771973 -52.632328 0.3168
59.771278 -52.68232 0.32960001
59.770576 -52.732319 0.32960001
59.769882 -52.78231 0.31999999
59.769188 -52.83231 0.31760001
59.768486 -52.882301 0.33680001
59.767792 -52.932297 0.33759999
59.767097 -52.982292 0.33199999
59.766403 -53.032288 0.3328
59.765701 -53.082283 0.35519999
59.765007 -53.132278 0.22319999
59.764313 -53.182274 0.1432
59.763611 -53.232269 0.1648
59.762917 -53.282265 0.1296
59.762222 -53.33226 0.74959999
59.761528 -53.382256 0.86479998
59.760826 -53.432251 0.87760001
59.760132 -53.482246 0.87760001
59.759438 -53.532242 0.85759997
59.758736 -53.582237 0.7816
59.758041 -53.632233 0.7392
59.757347 -53.682224 0.6832
59.756653 -53.732224 0.6408
59.755951 -53.782215 0.56400001
59.755257 -53.832214 0.50400001
59.754562 -53.882206 0.44800001
59.75386 -53.932201 0.36719999
59.753166 -53.982197 0.30320001
59.752472 -54.032192 0.2304
59.751778 -54.082188 0.1416
59.751076 -54.132179 0.042399999
59.750381 -54.182175 -0.051199999
59.749687 -54.23217 -0.164
59.748985 -54.282166 -0.26159999
59.748291 -54.332161 -0.41679999
59.747597 -54.382156 -0.54799998
59.57618 -52.329571 0.25040001
59.575478 -52.379566 0.29120001
59.574783 -52.429558 0.3328
59.574089 -52.479553 0.34400001
59.573387 -52.529549 0.34959999
59.572693 -52.579544 0.34799999
59.571999 -52.629539 0.32800001
59.571304 -52.679535 0.32879999
59.570602 -52.72953 0.3184
59.569908 -52.779526 0.3096
59.569214 -52.829521 0.31600001
59.568512 -52.879517 0.31920001
59.567818 -52.929512 0.34
59.567123 -52.979507 0.35120001
59.566429 -53.029503 0.35280001
59.565727 -53.079498 0.3136
59.565033 -53.129494 0.3168
59.564339 -53.179489 0.1584
59.563637 -53.229485 0.45359999
59.562943 -53.27948 0.50239998
59.562248 -53.329475 0.74879998
59.561554 -53.379471 0.8768
59.560852 -53.429462 0.88080001
59.560158 -53.479462 0.87840003
59.559464 -53.529453 0.84719998
59.558762 -53.579449 0.78960001
59.558067 -53.629444 0.74080002
59.557373 -53.679436 0.68080002
59.556679 -53.729435 0.63200003
59.555977 -53.779427 0.56720001
59.555283 -53.829426 0.50639999
59.554588 -53.879417 0.44080001
59.553886 -53.929413 0.36559999
59.553192 -53.979408 0.308
59.552498 -54.029404 0.2296
59.551804 -54.079399 0.14560001
59.551102 -54.129395 0.039999999
59.550407 -54.17939 -0.047200002
59.549713 -54.229385 -0.16
59.549011 -54.279381 -0.2696
59.548317 -54.329376 -0.37360001
59.547623 -54.379372 -0.52880001
59.546928 -54.429367 -0.69919997
59.376892 -52.276787 0.308
59.376198 -52.326782 0.1512
59.375496 -52.376778 0.1856
59.374802 -52.426773 0.296
59.374107 -52.476768 0.32319999
59.373405 -52.526764 0.32480001
59.372711 -52.576759 0.3096
59.372017 -52.626755 0.3224
59.371323 -52.67675 0.31600001
59.370621 -52.726746 0.32080001
59.369926 -52.776741 0.324
59.369232 -52.826736 0.32879999
59.36853 -52.876732 0.31760001
59.367836 -52.926727 0.29280001
59.367142 -52.976723 0.32480001
59.366447 -53.026718 0.28400001
59.365746 -53.076714 0.25760001
59.365051 -53.126709 0.2624
59.364357 -53.176704 0.2832
59.363655 -53.2267 0.2568
59.362961 -53.276695 0.73360002
59.362267 -53.326691 0.74559999
59.361572 -53.376686 0.8768
59.36087 -53.426674 0.88160002
59.360176 -53.476677 0.87919998
59.359482 -53.526665 0.84399998
59.35878 -53.57666 0.79119998
59.358086 -53.626656 0.74400002
59.357391 -53.676651 0.68480003
59.356697 -53.726646 0.63520002
59.355995 -53.776642 0.57599998
59.355301 -53.826637 0.50319999
59.354607 -53.876633 0.44400001
59.353905 -53.926628 0.36399999
59.35321 -53.976624 0.29840001
59.352516 -54.026619 0.2208
59.351822 -54.076614 0.14480001
59.35112 -54.12661 0.053599998
59.350426 -54.176605 -0.048799999
59.349731 -54.226601 -0.1584
59.34903 -54.276596 -0.25839999
59.348335 -54.326591 -0.39919999
59.347641 -54.376587 -0.54799998
59.346947 -54.426582 -0.72719997
59.177605 -52.224007 0.228
59.17691 -52.274002 0.26879999
59.176216 -52.323997 0.28080001
59.175514 -52.373993 0.2
59.17482 -52.423988 0.30000001
59.174126 -52.473984 0.3136
59.173424 -52.523979 0.31279999
59.172729 -52.573975 0.31119999
59.172035 -52.62397 0.31600001
59.171341 -52.673965 0.32800001
59.170639 -52.723961 0.3008
59.169945 -52.773956 0.30880001
59.16925 -52.823952 0.2904
59.168549 -52.873947 0.31999999
59.167854 -52.923943 0.33360001
59.16716 -52.973938 0.32879999
59.166466 -53.02393 0.308
59.165764 -53.073929 0.2888
59.16507 -53.12392 0.23199999
59.164375 -53.173916 0.24959999
59.163673 -53.223911 0.25279999
59.162979 -53.273907 0.65200001
59.162285 -53.323902 0.74800003
59.161591 -53.373898 0.87440002
59.160889 -53.423889 0.8768
59.160194 -53.473888 0.8768
59.1595 -53.52388 0.83920002
59.158798 -53.573875 0.78640002
59.158104 -53.623871 0.74000001
59.15741 -53.673866 0.68239999
59.156715 -53.723862 0.63200003
59.156013 -53.773857 0.57520002
59.155319 -53.823853 0.52160001
59.154625 -53.873848 0.45039999
59.153923 -53.923843 0.37279999
59.153229 -53.973839 0.30559999
59.152534 -54.023834 0.2256
59.15184 -54.07383 0.15279999
59.151138 -54.123825 0.060800001
59.150444 -54.17382 -0.044
59.14975 -54.223816 -0.1392
59.149048 -54.273811 -0.2448
59.148354 -54.323807 -0.39359999
59.147659 -54.373802 -0.52319998
59.146965 -54.423794 -0.67839998
58.976936 -52.271217 0.29840001
58.976242 -52.321213 0.31119999
58.97554 -52.371208 0.3536
58.974846 -52.421204 0.34560001
58.974152 -52.471199 0.3256
58.97345 -52.521194 0.31040001
58.972755 -52.57119 0.3096
58.972061 -52.621185 0.324
58.971367 -52.671177 0.32800001
58.970665 -52.721176 0.3184
58.969971 -52.771168 0.2992
58.969276 -52.821167 0.3064
58.968575 -52.871159 0.30239999
58.96788 -52.921154 0.33360001
58.967186 -52.971149 0.3272
58.966492 -53.021141 0.3064
58.96579 -53.07114 0.33039999
58.965096 -53.121132 0.2728
58.964401 -53.171127 0.26480001
58.963699 -53.221123 0.34639999
58.963005 -53.271118 0.38960001
58.962311 -53.321114 0.74400002
58.961617 -53.371109 0.87519997
58.960915 -53.421104 0.87840003
58.96022 -53.4711 0.88080001
58.959526 -53.521095 0.85839999
58.958824 -53.571091 0.79839998
58.95813 -53.621086 0.74400002
58.957436 -53.671082 0.69760001
58.956741 -53.721077 0.63279998
58.956039 -53.771072 0.57359999
58.955345 -53.821068 0.5104
58.954651 -53.871063 0.44479999
58.953949 -53.921059 0.3856
58.953255 -53.971054 0.3256
58.95256 -54.021049 0.2272
58.951866 -54.071045 0.1568
58.951164 -54.121037 0.054400001
58.95047 -54.171032 -0.0352
58.949776 -54.221027 -0.1432
58.949074 -54.271023 -0.2608
58.94838 -54.321018 -0.384
58.947685 -54.371014 -0.50639999
58.946991 -54.421005 -0.68800002
58.775551 -52.368423 0.1664
58.774857 -52.418419 0.3184
58.774162 -52.468414 0.34799999
58.77346 -52.51841 0.31200001
58.772766 -52.568405 0.31279999
58.772072 -52.618401 0.3256
58.771378 -52.668392 0.3312
58.770676 -52.718391 0.31999999
58.769981 -52.768383 0.32960001
58.769287 -52.818382 0.31439999
58.768585 -52.868374 0.31999999
58.767891 -52.918369 0.3168
58.767197 -52.968365 0.29440001
58.766502 -53.018356 0.3064
58.7658 -53.068356 0.3008
58.765106 -53.118347 0.292
58.764412 -53.168343 0.2872
58.76371 -53.218338 0.2552
58.763016 -53.268333 0.53839999
58.762321 -53.318329 0.74159998
58.761627 -53.368324 0.87279999
58.760925 -53.41832 0.88160002
58.760231 -53.468315 0.87840003
58.759537 -53.518311 0.85360003
58.758835 -53.568306 0.80080003
58.758141 -53.618301 0.74400002
58.757446 -53.668297 0.68800002
58.756752 -53.718292 0.6408
58.75605 -53.768288 0.57840002
58.755356 -53.818283 0.51840001
58.754662 -53.868279 0.44400001
58.75396 -53.918274 0.38319999
58.753265 -53.968269 0.30160001
58.752571 -54.018265 0.2216
58.751877 -54.06826 0.1432
58.751175 -54.118252 0.043200001
58.750481 -54.168247 -0.034400001
58.749786 -54.218243 -0.1376
58.749084 -54.268238 -0.25600001
58.74839 -54.318233 -0.38960001
58.747696 -54.368229 -0.52240002
58.747002 -54.418221 -0.6688
58.575577 -52.365639 0.132
58.574883 -52.41563 0.31600001
58.574188 -52.465626 0.3064
58.573486 -52.515621 0.32159999
58.572792 -52.565617 0.33199999
58.572098 -52.615612 0.3448
58.571404 -52.665604 0.35120001
58.570702 -52.715603 0.32960001
58.570007 -52.765594 0.32159999
58.569313 -52.815594 0.3256
58.568611 -52.865585 0.33840001
58.567917 -52.915581 0.30320001
58.567223 -52.965576 0.29359999
58.566528 -53.015572 0.2816
58.565826 -53.065567 0.3048
58.565132 -53.115562 0.31760001
58.564438 -53.165558 0.29440001
58.563736 -53.215553 0.2728
58.563042 -53.265549 0.2744
58.562347 -53.315544 0.74559999
58.561653 -53.36554 0.87519997
58.560951 -53.415535 0.87760001
58.560257 -53.46553 0.88239998
58.559563 -53.515526 0.86000001
58.558861 -53.565521 0.80239999
58.558167 -53.615517 0.74800003
58.557472 -53.665508 0.69520003
58.556778 -53.715508 0.64639997
58.556076 -53.765499 0.57279998
58.555382 -53.815498 0.50639999
58.554688 -53.86549 0.45280001
58.553986 -53.915485 0.37360001
58.553291 -53.965481 0.3184
58.552597 -54.015476 0.2448
58.551903 -54.065472 0.156
58.551201 -54.115463 0.055199999
58.550507 -54.165459 -0.035999998
58.549812 -54.215454 -0.1288
58.54911 -54.26545 -0.2608
58.548416 -54.315445 -0.352
58.547722 -54.36544 -0.51920003
58.376297 -52.312855 0.124
58.375595 -52.36285 0.17839999
58.374901 -52.412842 0.29280001
58.374207 -52.462837 0.3136
58.373505 -52.512833 0.3136
58.37281 -52.562828 0.30559999
58.372116 -52.612823 0.30160001
58.371422 -52.662819 0.2904
58.37072 -52.712814 0.29440001
58.370026 -52.76281 0.29440001
58.369331 -52.812805 0.31920001
58.368629 -52.862801 0.31999999
58.367935 -52.912796 0.31279999
58.367241 -52.962791 0.292
58.366547 -53.012787 0.28639999
58.365845 -53.062782 0.30000001
58.36515 -53.112778 0.31279999
58.364456 -53.162773 0.30320001
58.363754 -53.212769 0.4648
58.36306 -53.262764 0.47119999
58.362366 -53.312759 0.75120002
58.361671 -53.362755 0.86720002
58.36097 -53.412746 0.87279999
58.360275 -53.462746 0.88080001
58.359581 -53.512737 0.852
58.358879 -53.562733 0.80479997
58.358185 -53.612728 0.75199997
58.357491 -53.66272 0.7008
58.356796 -53.712719 0.64719999
58.356094 -53.762711 0.5808
58.3554 -53.81271 0.51120001
58.354706 -53.862701 0.46079999
58.354004 -53.912697 0.38319999
58.35331 -53.962692 0.3152
58.352615 -54.012688 0.2376
58.351921 -54.062683 0.16320001
58.351219 -54.112679 0.059999999
58.350525 -54.162674 -0.0208
58.349831 -54.212669 -0.1328
58.349129 -54.262665 -0.23280001
58.348434 -54.31266 -0.368
58.34774 -54.362656 -0.50239998
58.347046 -54.412651 -0.676
58.346344 -54.462646 -0.84719998
58.34565 -54.512642 -1.1384
58.176315 -52.31007 0.079999998
58.175613 -52.360065 0.1608
58.174919 -52.410057 0.2904
58.174225 -52.460052 0.2976
58.173523 -52.510048 0.30399999
58.172829 -52.560043 0.29440001
58.172134 -52.610039 0.3504
58.17144 -52.660034 0.29440001
58.170738 -52.71003 0.31439999
58.170044 -52.760025 0.324
58.16935 -52.81002 0.3416
58.168648 -52.860016 0.31040001
58.167953 -52.910011 0.29840001
58.167259 -52.960007 0.2992
58.166565 -53.010002 0.292
58.165863 -53.059998 0.31439999
58.165169 -53.109993 0.2976
58.164474 -53.159988 0.29679999
58.163773 -53.209984 0.36480001
58.163078 -53.259979 0.61680001
58.162384 -53.309975 0.74400002
58.16169 -53.35997 0.86879998
58.160988 -53.409962 0.884
58.160294 -53.459961 0.88160002
58.159599 -53.509953 0.86159998
58.158897 -53.559948 0.80400002
58.158203 -53.609943 0.7568
58.157509 -53.659935 0.69520003
58.156815 -53.709934 0.64240003
58.156113 -53.759926 0.57599998
58.155418 -53.809925 0.51200002
58.154724 -53.859917 0.4456
58.154022 -53.909912 0.38960001
58.153328 -53.959908 0.3008
58.152634 -54.009903 0.236
58.151939 -54.059898 0.1552
58.151237 -54.109894 0.079999998
58.150543 -54.159889 -0.0184
58.149849 -54.209885 -0.1224
58.149147 -54.25988 -0.23199999
58.148453 -54.309875 -0.36160001
58.147758 -54.359871 -0.50880003
57.975632 -52.357277 0.168
57.974937 -52.407272 0.27520001
57.974243 -52.457268 0.29840001
57.973541 -52.507263 0.31200001
57.972847 -52.557259 0.31920001
57.972153 -52.607254 0.3168
57.971458 -52.657249 0.29359999
57.970757 -52.707245 0.42719999
57.970062 -52.75724 0.32480001
57.969368 -52.807236 0.31119999
57.968666 -52.857231 0.292
57.967972 -52.907227 0.2992
57.967278 -52.957222 0.30320001
57.966583 -53.007214 0.2872
57.965881 -53.057213 0.2728
57.965187 -53.107204 0.30320001
57.964493 -53.1572 0.28560001
57.963791 -53.207195 0.264
57.963097 -53.257191 0.54479998
57.962402 -53.307186 0.74559999
57.961708 -53.357182 0.8696
57.961006 -53.407173 0.87840003
57.960312 -53.457172 0.88080001
57.959618 -53.507164 0.85600001
57.958916 -53.557159 0.80239999
57.958221 -53.607155 0.75520003
57.957527 -53.65715 0.70639998
57.956833 -53.707146 0.63919997
57.956131 -53.757141 0.57599998
57.955437 -53.807137 0.51279998
57.954742 -53.857132 0.46239999
57.954041 -53.907127 0.38800001
57.953346 -53.957123 0.31439999
57.952652 -54.007118 0.236
57.951958 -54.057114 0.15440001
57.951256 -54.107109 0.0704
57.950562 -54.157104 -0.025599999
57.949867 -54.2071 -0.12639999
57.949165 -54.257095 -0.23119999
57.948471 -54.307091 -0.368
57.947777 -54.357086 -0.46079999
57.947083 -54.407078 -0.66000003
57.776352 -52.304497 0.20479999
57.77565 -52.354492 0.27599999
57.774956 -52.404488 0.3048
57.774261 -52.454483 0.29359999
57.77356 -52.504478 0.29840001
57.772865 -52.554474 0.29440001
57.772171 -52.604469 0.30720001
57.771477 -52.654465 0.32319999
57.770775 -52.70446 0.32960001
57.770081 -52.754456 0.32480001
57.769386 -52.804451 0.324
57.768684 -52.854446 0.31119999
57.76799 -52.904442 0.32080001
57.767296 -52.954437 0.30239999
57.766602 -53.004425 0.29519999
57.7659 -53.054428 0.2816
57.765205 -53.104416 0.3048
57.764511 -53.154411 0.292
57.763809 -53.204407 0.31999999
57.763115 -53.254402 0.62159997
57.762421 -53.304398 0.74239999
57.761726 -53.354393 0.86400002
57.761024 -53.404388 0.87840003
57.76033 -53.454384 0.87760001
57.759636 -53.504379 0.86879998
57.758934 -53.554375 0.80800003
57.75824 -53.60437 0.75520003
57.757545 -53.654366 0.708
57.756851 -53.704361 0.63840002
57.756149 -53.754356 0.58880001
57.755455 -53.804352 0.5176
57.754761 -53.854347 0.46799999
57.754059 -53.904343 0.38319999
57.753365 -53.954338 0.3168
57.75267 -54.004333 0.24160001
57.751976 -54.054329 0.15279999
57.751274 -54.104324 0.071999997
57.75058 -54.15432 -0.012
57.749886 -54.204315 -0.1256
57.749184 -54.254311 -0.23280001
57.748489 -54.304306 -0.384
57.747795 -54.354301 -0.51840001
57.747101 -54.404289 -0.65600002
57.575668 -52.351707 0.26480001
57.574974 -52.401703 0.2872
57.57428 -52.451698 0.30399999
57.573578 -52.501694 0.30160001
57.572884 -52.551689 0.30320001
57.572189 -52.601685 0.30160001
57.571495 -52.651676 0.3272
57.570793 -52.701675 0.32319999
57.570099 -52.751667 0.3256
57.569405 -52.801666 0.31200001
57.568703 -52.851658 0.308
57.568008 -52.901653 0.33039999
57.567314 -52.951649 0.33039999
57.56662 -53.00164 0.2816
57.565918 -53.05164 0.27919999
57.565224 -53.101631 0.28080001
57.564529 -53.151627 0.2872
57.563828 -53.201622 0.31200001
57.563133 -53.251617 0.34079999
57.562439 -53.301613 0.7464
57.561745 -53.351608 0.8664
57.561043 -53.401604 0.87760001
57.560349 -53.451599 0.87840003
57.559654 -53.501595 0.85839999
57.558952 -53.55159 0.80879998
57.558258 -53.601585 0.75279999
57.557564 -53.651581 0.69840002
57.55687 -53.701576 0.64960003
57.556168 -53.751572 0.5808
57.555473 -53.801567 0.52960002
57.554779 -53.851563 0.4544
57.554077 -53.901558 0.39840001
57.553383 -53.951553 0.3168
57.552689 -54.001549 0.25279999
57.551994 -54.051544 0.1656
57.551292 -54.101536 0.076800004
57.550598 -54.151531 -0.025599999
57.549904 -54.201527 -0.1184
57.549202 -54.251522 -0.23999999
57.548508 -54.301517 -0.36160001
57.375694 -52.348923 0.20640001
57.375 -52.398914 0.28479999
57.374306 -52.44891 0.29440001
57.373604 -52.498905 0.29519999
57.37291 -52.548901 0.29519999
57.372215 -52.598896 0.292
57.371521 -52.648888 0.2976
57.370819 -52.698887 0.3048
57.370125 -52.748878 0.28960001
57.369431 -52.798878 0.29519999
57.368729 -52.848869 0.30239999
57.368034 -52.898865 0.31119999
57.36734 -52.94886 0.2992
57.366646 -52.998856 0.30720001
57.365944 -53.048851 0.30000001
57.36525 -53.098846 0.29120001
57.364555 -53.148842 0.336
57.363853 -53.198837 0.3576
57.363159 -53.248833 0.352
57.362465 -53.298828 0.74080002
57.361771 -53.348824 0.86400002
57.361069 -53.398819 0.88080001
57.360374 -53.448814 0.87919998
57.35968 -53.49881 0.86720002
57.358978 -53.548805 0.81279999
57.358284 -53.598801 0.74879998
57.35759 -53.648792 0.70480001
57.356895 -53.698792 0.6552
57.356194 -53.748783 0.58880001
57.355499 -53.798782 0.54320002
57.354805 -53.848774 0.46239999
57.354103 -53.898769 0.38640001
57.353409 -53.948765 0.3344
57.352715 -53.99876 0.2464
57.35202 -54.048756 0.164
57.351318 -54.098747 0.077600002
57.350624 -54.148743 -0.022399999
57.34993 -54.198738 -0.1128
57.349228 -54.248734 -0.2304
57.348534 -54.298729 -0.35440001
57.347839 -54.348724 -0.51200002
57.347145 -54.39872 -0.6408
57.175705 -52.346138 0.1088
57.175011 -52.39613 0.27039999
57.174316 -52.446125 0.28960001
57.173615 -52.49612 0.29120001
57.17292 -52.546116 0.29280001
57.172226 -52.596111 0.29280001
57.171532 -52.646103 0.308
57.17083 -52.696102 0.29519999
57.170135 -52.746094 0.31119999
57.169441 -52.796093 0.3152
57.168739 -52.846085 0.2976
57.168045 -52.89608 0.29280001
57.167351 -52.946075 0.29280001
57.166656 -52.996071 0.29840001
57.165955 -53.046066 0.2888
57.16526 -53.096062 0.29120001
57.164566 -53.146057 0.2976
57.163864 -53.196053 0.30160001
57.16317 -53.246048 0.30320001
57.162476 -53.296043 0.73839998
57.161781 -53.346039 0.85839999
57.161079 -53.396034 0.88239998
57.160385 -53.44603 0.88080001
57.159691 -53.496025 0.87599999
57.158989 -53.546021 0.81279999
57.158295 -53.596016 0.76560003
57.1576 -53.646008 0.70639998
57.156906 -53.696007 0.63919997
57.156204 -53.745998 0.58960003
57.15551 -53.795998 0.53119999
57.154816 -53.845989 0.4664
57.154114 -53.895985 0.396
57.153419 -53.94598 0.33680001
57.152725 -53.995975 0.23999999
57.152031 -54.045971 0.17039999
57.151329 -54.095963 0.085600004
57.150635 -54.145958 -0.0128
57.14994 -54.195953 -0.1208
57.149239 -54.245949 -0.22
57.148544 -54.295944 -0.3536
57.14785 -54.34594 -0.4824
56.975731 -52.343349 0.1464
56.975037 -52.393341 0.25760001
56.974342 -52.443336 0.2744
56.97364 -52.493332 0.29120001
56.972946 -52.543327 0.31439999
56.972252 -52.593323 0.3048
56.971558 -52.643318 0.31119999
56.970856 -52.693314 0.2992
56.970161 -52.743309 0.3152
56.969467 -52.793304 0.30720001
56.968765 -52.8433 0.296
56.968071 -52.893295 0.28639999
56.967377 -52.943291 0.28
56.966682 -52.993286 0.28240001
56.965981 -53.043282 0.29120001
56.965286 -53.093277 0.26640001
56.964592 -53.143272 0.25440001
56.96389 -53.193268 0.28
56.963196 -53.243263 0.40000001
