# .PCD v0.7 - Point Cloud Data file format
VERSION 0.7
FIELDS x y z
SIZE 4 4 4
TYPE F F F
COUNT 1 1 1
WIDTH 1591
HEIGHT 1
VIEWPOINT 0 0 0 1 0 0 0
POINTS 1591
DATA ascii
5.9122314 -41.339024 0.1512
5.8622475 -41.340221 0.052000001
5.8122597 -41.341419 -0.034400001
5.7622757 -41.342617 -0.148
5.7122879 -41.343811 -0.2696
5.6623039 -41.345009 -0.38240001
7.3570251 -41.104355 0.0704
7.3070374 -41.105553 0.12639999
7.2570534 -41.10675 0.16
7.2070694 -41.107948 0.1584
7.1570816 -41.109146 0.16
7.1070938 -41.110344 0.16159999
7.0571136 -41.111542 0.1688
7.0071259 -41.112736 0.1672
6.9571381 -41.113934 0.14560001
6.9071541 -41.115131 0.1552
6.8571701 -41.116329 0.1608
6.8071823 -41.117527 0.164
6.7571945 -41.118725 0.1552
6.7072105 -41.119923 0.74479997
6.6572266 -41.12112 0.77200001
6.6072388 -41.122314 0.88880002
6.5572548 -41.123512 0.88880002
6.507267 -41.12471 0.89359999
6.457283 -41.125908 0.87599999
6.407299 -41.127106 0.82319999
6.3573151 -41.128304 0.75599998
6.3073235 -41.129501 0.71200001
6.2573395 -41.130699 0.64880002
6.2073555 -41.131897 0.58719999
6.1573715 -41.133091 0.53600001
6.1073837 -41.134289 0.46079999
6.0573959 -41.135487 0.40000001
6.007412 -41.136684 0.324
5.957428 -41.137882 0.2344
5.9074402 -41.13908 0.1504
5.8574562 -41.140278 0.060800001
5.8074684 -41.141476 -0.039999999
5.7574844 -41.142673 -0.1552
5.7074966 -41.143867 -0.264
5.6575127 -41.145065 -0.39199999
7.3522339 -40.904411 0.0832
7.3022499 -40.905609 0.14480001
7.2522621 -40.906807 0.1576
7.2022781 -40.908005 0.1576
7.1522942 -40.909203 0.1744
7.1023064 -40.9104 0.1672
7.0523224 -40.911598 0.1688
7.0023346 -40.912792 0.1584
6.9523506 -40.91399 0.1576
6.9023628 -40.915188 0.15440001
6.8523788 -40.916386 0.1568
6.8023911 -40.917583 0.1648
6.7524071 -40.918781 0.1664
6.7024193 -40.919979 0.74239999
6.6524353 -40.921177 0.76800001
6.6024475 -40.922371 0.88080001
6.5524635 -40.923569 0.8976
6.5024757 -40.924767 0.89999998
6.4524918 -40.925964 0.87040001
6.4025078 -40.927162 0.81760001
6.3525238 -40.92836 0.76319999
6.3025322 -40.929558 0.70639998
6.2525482 -40.930756 0.65439999
6.2025642 -40.931953 0.59280002
6.1525803 -40.933147 0.53359997
6.1025925 -40.934345 0.46239999
6.0526047 -40.935543 0.3928
6.0026207 -40.936741 0.3272
5.9526367 -40.937939 0.2392
5.9026489 -40.939137 0.1592
5.8526649 -40.940334 0.068800002
5.8026772 -40.941532 -0.035999998
5.7526932 -40.94273 -0.14
5.7027054 -40.943924 -0.248
5.6527214 -40.945122 -0.35519999
7.3474464 -40.704472 0.064800002
7.2974586 -40.705669 0.1408
7.2474747 -40.706867 0.15360001
7.1974869 -40.708065 0.1576
7.1475029 -40.709263 0.168
7.0975151 -40.710461 0.16
7.0475311 -40.711655 0.1608
6.9975433 -40.712852 0.16
6.9475594 -40.71405 0.15360001
6.8975754 -40.715248 0.1608
6.8475876 -40.716446 0.1608
6.7976036 -40.717644 0.1648
6.7476158 -40.718842 0.152
6.6976318 -40.720039 0.74080002
6.6476479 -40.721237 0.77999997
6.5976601 -40.722435 0.88480002
6.5476761 -40.723629 0.8944
6.4976883 -40.724827 0.89279997
6.4477043 -40.726025 0.87760001
6.3977203 -40.727222 0.81840003
6.3477364 -40.72842 0.76959997
6.2977448 -40.729618 0.71920002
6.2477608 -40.730816 0.65359998
6.1977768 -40.732014 0.59920001
6.1477928 -40.733208 0.53359997
6.097805 -40.734406 0.46720001
6.0478172 -40.735603 0.4016
5.9978333 -40.736801 0.31279999
5.9478493 -40.737999 0.2352
5.8978615 -40.739197 0.1608
5.8478775 -40.740395 0.068800002
5.7978897 -40.741592 -0.02
5.7479057 -40.74279 -0.13600001
5.6979179 -40.743984 -0.24959999
7.3426552 -40.504528 0.0616
7.2926712 -40.505726 0.12720001
7.2426834 -40.506924 0.1608
7.1926994 -40.508121 0.1688
7.1427155 -40.509319 0.16240001
7.0927277 -40.510517 0.1736
7.0427437 -40.511711 0.1648
6.9927559 -40.512909 0.16320001
6.9427719 -40.514107 0.1568
6.8927841 -40.515305 0.156
6.8428001 -40.516502 0.16159999
6.7928123 -40.5177 0.16
6.7428284 -40.518898 0.17200001
6.6928406 -40.520096 0.73519999
6.6428566 -40.521294 0.76880002
6.5928688 -40.522491 0.884
6.5428848 -40.523685 0.89279997
6.492897 -40.524883 0.88880002
6.4429131 -40.526081 0.89120001
6.3929291 -40.527279 0.8272
6.3429451 -40.528477 0.77039999
6.2929535 -40.529675 0.72079998
6.2429695 -40.530872 0.65439999
6.1929855 -40.53207 0.59759998
6.1430016 -40.533264 0.54079998
6.0930138 -40.534462 0.47040001
6.043026 -40.53566 0.39680001
5.993042 -40.536858 0.32960001
5.943058 -40.538055 0.2432
5.8930702 -40.539253 0.1656
5.8430862 -40.540451 0.0832
5.7930984 -40.541649 -0.031199999
5.7431145 -40.542847 -0.132
5.6931267 -40.544041 -0.23360001
5.6431427 -40.545238 -0.38640001
5.5931587 -40.546436 -0.55919999
5.5431709 -40.547634 -0.73119998
5.4931831 -40.548832 -0.90319997
7.3378677 -40.304588 0.081600003
7.2878799 -40.305786 0.1344
7.237896 -40.306984 0.18000001
7.1879082 -40.308182 0.1672
7.1379242 -40.30938 0.16159999
7.0879364 -40.310577 0.1576
7.0379524 -40.311775 0.1736
6.9879646 -40.312969 0.16320001
6.9379807 -40.314167 0.1568
6.8879967 -40.315365 0.15440001
6.8380089 -40.316563 0.1552
6.7880249 -40.31776 0.16
6.7380371 -40.318958 0.1512
6.6880531 -40.320156 0.73680001
6.6380692 -40.321354 0.76800001
6.5880814 -40.322548 0.88239998
6.5380974 -40.323746 0.88800001
6.4881096 -40.324944 0.89999998
6.4381256 -40.326141 0.88319999
6.3881416 -40.327339 0.8312
6.3381577 -40.328537 0.76480001
6.288166 -40.329735 0.71600002
6.2381821 -40.330933 0.66640002
6.1881981 -40.33213 0.60399997
6.1382141 -40.333324 0.53439999
6.0882263 -40.334522 0.47279999
6.0382385 -40.33572 0.4032
5.9882545 -40.336918 0.33680001
5.9382706 -40.338116 0.26800001
5.8882828 -40.339314 0.16320001
5.8382988 -40.340511 0.081600003
5.788311 -40.341709 -0.02
5.738327 -40.342907 -0.098399997
5.6883392 -40.344101 -0.2464
5.6383553 -40.345299 -0.3432
7.3330765 -40.104645 0.064000003
7.2830925 -40.105843 0.112
7.2331047 -40.10704 0.17039999
7.1831207 -40.108238 0.15440001
7.1331367 -40.109436 0.1768
7.083149 -40.110634 0.1768
7.033165 -40.111832 0.17039999
6.9831772 -40.113026 0.16
6.9331932 -40.114223 0.1576
6.8832054 -40.115421 0.1584
6.8332214 -40.116619 0.1608
6.7832336 -40.117817 0.15440001
6.7332497 -40.119015 0.14560001
6.6832619 -40.120213 0.7392
6.6332779 -40.12141 0.77280003
6.5832901 -40.122604 0.87919998
6.5333061 -40.123802 0.88639998
6.4833183 -40.125 0.88880002
6.4333344 -40.126198 0.88
6.3833504 -40.127396 0.81999999
6.3333664 -40.128593 0.7712
6.2833748 -40.129791 0.72000003
6.2333908 -40.130989 0.66079998
6.1834068 -40.132187 0.60479999
6.1334229 -40.133381 0.54159999
6.0834351 -40.134579 0.46720001
6.0334473 -40.135777 0.4032
5.9834633 -40.136974 0.32640001
5.9334793 -40.138172 0.24879999
5.8834915 -40.13937 0.1768
5.8335075 -40.140568 0.082400002
5.7835197 -40.141766 -0.0136
5.7335358 -40.142963 -0.1048
5.683548 -40.144157 -0.2272
5.633564 -40.145355 -0.38
5.58358 -40.146553 -0.49200001
7.328289 -39.904701 0.060800001
7.2783012 -39.905899 0.12720001
7.2283173 -39.907097 0.164
7.1783295 -39.908295 0.1688
7.1283455 -39.909492 0.1584
7.0783577 -39.91069 0.16
7.0283737 -39.911888 0.1688
6.9783859 -39.913082 0.15279999
6.9284019 -39.91428 0.1608
6.878418 -39.915478 0.15440001
6.8284302 -39.916676 0.1592
6.7784462 -39.917873 0.1592
6.7284584 -39.919071 0.15279999
6.6784744 -39.920269 0.28479999
6.6284904 -39.921467 0.76560003
6.5785027 -39.922661 0.88639998
6.5285187 -39.923859 0.89520001
6.4785309 -39.925056 0.89920002
6.4285469 -39.926254 0.8872
6.3785629 -39.927452 0.83359998
6.3285789 -39.92865 0.77920002
6.2785873 -39.929848 0.72240001
6.2286034 -39.931046 0.66000003
6.1786194 -39.932243 0.6056
6.1286354 -39.933437 0.53359997
6.0786476 -39.934635 0.47040001
6.0286598 -39.935833 0.40560001
5.9786758 -39.937031 0.3328
5.9286919 -39.938229 0.25920001
5.8787041 -39.939426 0.1768
5.8287201 -39.940624 0.084799998
5.7787323 -39.941822 -0.0040000002
5.7287483 -39.94302 -0.1176
5.6787605 -39.944214 -0.2176
5.6287766 -39.945412 -0.36000001
7.3234978 -39.704762 0.068000004
7.2735138 -39.705959 0.112
7.223526 -39.707157 0.16159999
7.173542 -39.708355 0.15279999
7.123558 -39.709553 0.164
7.0735703 -39.710751 0.1512
7.0235863 -39.711945 0.164
6.9735985 -39.713142 0.152
6.9236145 -39.71434 0.16159999
6.8736267 -39.715538 0.1496
6.8236427 -39.716736 0.1576
6.7736549 -39.717934 0.1584
6.723671 -39.719131 0.148
6.6736832 -39.720329 0.73360002
6.6236992 -39.721527 0.75440001
6.5737114 -39.722725 0.88239998
6.5237274 -39.723919 0.89200002
6.4737396 -39.725117 0.89039999
6.4237556 -39.726315 0.87919998
6.3737717 -39.727512 0.824
6.3237877 -39.72871 0.78479999
6.2737961 -39.729908 0.71759999
6.2238121 -39.731106 0.67119998
6.1738281 -39.732304 0.60879999
6.1238441 -39.733498 0.54799998
6.0738564 -39.734695 0.4896
6.0238686 -39.735893 0.42480001
5.9738846 -39.737091 0.352
5.9239006 -39.738289 0.25440001
5.8739128 -39.739487 0.1816
5.8239288 -39.740685 0.1
5.773941 -39.741882 -0.0024000001
5.7239571 -39.74308 -0.1096
5.6739693 -39.744274 -0.2216
5.6239853 -39.745472 -0.35679999
5.5740013 -39.74667 -0.49520001
7.3187103 -39.504818 0.0568
7.2687225 -39.506016 0.1472
7.2187386 -39.507214 0.164
7.1687508 -39.508411 0.1688
7.1187668 -39.509609 0.1696
7.068779 -39.510807 0.1656
7.018795 -39.512001 0.1568
6.9688072 -39.513199 0.1512
6.9188232 -39.514397 0.14480001
6.8688393 -39.515594 0.1576
6.8188515 -39.516792 0.1576
6.7688675 -39.51799 0.1552
6.7188797 -39.519188 0.1504
6.6688957 -39.520386 0.33199999
6.6189117 -39.521584 0.75999999
6.568924 -39.522781 0.8768
6.51894 -39.523975 0.8976
6.4689522 -39.525173 0.89600003
6.4189682 -39.526371 0.8872
6.3689842 -39.527569 0.83840001
6.3190002 -39.528767 0.78079998
6.2690086 -39.529964 0.72640002
6.2190247 -39.531162 0.66720003
6.1690407 -39.53236 0.60720003
6.1190567 -39.533554 0.55040002
6.0690689 -39.534752 0.4896
6.0190811 -39.53595 0.41679999
5.9690971 -39.537148 0.3432
5.9191132 -39.538345 0.2552
5.8691254 -39.539543 0.1816
5.8191414 -39.540741 0.092799999
5.7691536 -39.541939 0
5.7191696 -39.543137 -0.098399997
5.6691818 -39.544331 -0.2192
7.4138908 -39.302479 0.2264
7.3639069 -39.303677 0.25999999
7.3139191 -39.304874 0.069600001
7.2639351 -39.306072 0.12720001
7.2139473 -39.30727 0.16159999
7.1639633 -39.308468 0.156
7.1139793 -39.309666 0.15440001
7.0639915 -39.310863 0.164
7.0140076 -39.312057 0.1648
6.9640198 -39.313255 0.1672
6.9140358 -39.314453 0.1552
6.864048 -39.315651 0.15440001
6.814064 -39.316849 0.15279999
6.7640762 -39.318047 0.1584
6.7140923 -39.319244 0.156
6.6641045 -39.320442 0.25119999
6.6141205 -39.32164 0.76480001
6.5641327 -39.322838 0.884
6.5141487 -39.324032 0.89520001
6.4641609 -39.32523 0.88880002
6.4141769 -39.326427 0.88639998
6.364193 -39.327625 0.83920002
6.314209 -39.328823 0.78079998
6.2642174 -39.330021 0.72960001
6.2142334 -39.331219 0.67680001
6.1642494 -39.332417 0.6128
6.1142654 -39.333611 0.5424
6.0642776 -39.334808 0.48559999
6.0142899 -39.336006 0.40959999
5.9643059 -39.337204 0.34240001
5.9143219 -39.338402 0.25760001
5.8643341 -39.3396 0.18880001
5.8143501 -39.340797 0.1088
5.7643623 -39.341995 0.0048000002
5.7143784 -39.343193 -0.1184
5.6643906 -39.344387 -0.2208
5.6144066 -39.345585 -0.34079999
5.5644226 -39.346783 -0.4928
7.3091278 -39.104931 0.048
7.2591438 -39.106129 0.1824
7.2091599 -39.107327 0.1656
7.1591721 -39.108524 0.1552
7.1091881 -39.109722 0.15279999
7.0592003 -39.11092 0.1464
7.0092163 -39.112114 0.16320001
6.9592285 -39.113312 0.14399999
6.9092445 -39.11451 0.156
6.8592606 -39.115707 0.1552
6.8092728 -39.116905 0.1576
6.759285 -39.118103 0.1576
6.709301 -39.119301 0.1904
6.659317 -39.120499 0.31119999
6.6093292 -39.121696 0.75919998
6.5593414 -39.122894 0.8872
6.5093613 -39.124088 0.89600003
6.4593735 -39.125286 0.89039999
6.4093857 -39.126484 0.88639998
6.3594055 -39.127682 0.8448
6.3094177 -39.12888 0.77679998
6.2594299 -39.130077 0.73280001
6.2094421 -39.131275 0.67040002
6.159462 -39.132473 0.62639999
6.1094742 -39.133667 0.5528
6.0594864 -39.134865 0.4896
6.0094986 -39.136063 0.41119999
5.9595184 -39.13726 0.34079999
5.9095306 -39.138458 0.264
5.8595428 -39.139656 0.19679999
5.8095627 -39.140854 0.091200002
5.7595749 -39.142052 0.0088
5.7095871 -39.14325 -0.1056
5.6595993 -39.144444 -0.212
5.6096191 -39.145641 -0.3488
7.3043404 -38.904987 0.062399998
7.2543526 -38.906185 0.1664
7.2043686 -38.907383 0.16240001
7.1543808 -38.908581 0.1488
7.1043968 -38.909779 0.156
7.054409 -38.910976 0.16
7.004425 -38.91217 0.1592
6.9544373 -38.913368 0.1496
6.9044533 -38.914566 0.1552
6.8544693 -38.915764 0.148
6.8044815 -38.916962 0.15440001
6.7544975 -38.918159 0.16
6.7045097 -38.919357 0.1488
6.6545258 -38.920555 0.1408
6.6045418 -38.921753 0.764
6.554554 -38.922951 0.88480002
6.50457 -38.924145 0.89039999
6.4545822 -38.925343 0.8872
6.4045982 -38.92654 0.88959998
6.3546143 -38.927738 0.84079999
6.3046303 -38.928936 0.79439998
6.2546387 -38.930134 0.73040003
6.2046547 -38.931332 0.67680001
6.1546707 -38.932529 0.6232
6.1046867 -38.933723 0.55599999
6.0546989 -38.934921 0.484
6.0047112 -38.936119 0.41600001
5.9547272 -38.937317 0.34639999
5.9047432 -38.938515 0.26719999
5.8547554 -38.939713 0.192
5.8047714 -38.94091 0.1
5.7547836 -38.942108 -0.0016
5.7047997 -38.943306 -0.080799997
5.6548119 -38.9445 -0.21439999
5.6048279 -38.945698 -0.34639999
5.5548439 -38.946896 -0.47760001
5.5048561 -38.948093 -0.6728
5.4548683 -38.949291 -0.86720002
7.2995491 -38.705048 0.051199999
7.2495651 -38.706245 0.104
7.1995773 -38.707443 0.1752
7.1495934 -38.708641 0.16240001
7.0996094 -38.709839 0.16240001
7.0496216 -38.711037 0.1584
6.9996376 -38.712234 0.1696
6.9496498 -38.713428 0.14480001
6.8996658 -38.714626 0.15360001
6.849678 -38.715824 0.152
6.7996941 -38.717022 0.16
6.7497063 -38.71822 0.1568
6.6997223 -38.719418 0.1424
6.6497345 -38.720615 0.13600001
6.5997505 -38.721813 0.75599998
6.5497627 -38.723007 0.87360001
6.4997787 -38.724205 0.88559997
6.449791 -38.725403 0.89359999
6.399807 -38.726601 0.88080001
6.349823 -38.727798 0.84560001
6.299839 -38.728996 0.7784
6.2498474 -38.730194 0.73439997
6.1998634 -38.731392 0.68879998
6.1498795 -38.73259 0.61680001
6.0998955 -38.733784 0.56239998
6.0499077 -38.734982 0.48480001
5.9999199 -38.736179 0.42640001
5.9499359 -38.737377 0.3488
5.8999519 -38.738575 0.2784
5.8499641 -38.739773 0.19679999
5.7999802 -38.740971 0.1144
5.7499924 -38.742168 0.0071999999
5.7000084 -38.743366 -0.095200002
5.6500206 -38.74456 -0.2088
7.2947617 -38.505104 0.048799999
7.2447739 -38.506302 0.094400004
7.1947899 -38.5075 0.1408
7.1448021 -38.508698 0.1752
7.0948181 -38.509895 0.16320001
7.0448303 -38.511093 0.1736
6.9948463 -38.512291 0.16320001
6.9448586 -38.513485 0.156
6.8948746 -38.514683 0.1576
6.8448906 -38.515881 0.15440001
6.7949028 -38.517078 0.1568
6.7449188 -38.518276 0.1592
6.694931 -38.519474 0.15279999
6.6449471 -38.520672 0.1336
6.5949631 -38.52187 0.75760001
6.5449753 -38.523064 0.87599999
6.4949913 -38.524261 0.89120001
6.4450035 -38.525459 0.88639998
6.3950195 -38.526657 0.88880002
6.3450356 -38.527855 0.84240001
6.2950516 -38.529053 0.792
6.24506 -38.530251 0.74080002
6.195076 -38.531448 0.68080002
6.145092 -38.532646 0.62080002
6.095108 -38.53384 0.56
6.0451202 -38.535038 0.4896
5.9951324 -38.536236 0.42480001
5.9451485 -38.537434 0.34959999
5.8951645 -38.538631 0.27599999
5.8451767 -38.539829 0.19840001
5.7951927 -38.541027 0.1072
5.7452049 -38.542225 0.0128
5.6952209 -38.543423 -0.091200002
5.6452332 -38.544617 -0.19840001
5.5952492 -38.545815 -0.32080001
5.5452652 -38.547012 -0.46799999
7.2899704 -38.305161 0.0568
7.2399864 -38.306358 0.1056
7.1899986 -38.307556 0.14480001
7.1400146 -38.308754 0.1552
7.0900307 -38.309952 0.1568
7.0400429 -38.31115 0.1576
6.9900589 -38.312347 0.1664
6.9400711 -38.313541 0.15279999
6.8900871 -38.314739 0.1512
6.8400993 -38.315937 0.1576
6.7901154 -38.317135 0.1552
6.7401276 -38.318333 0.16320001
6.6901436 -38.31953 0.17039999
6.6401558 -38.320728 0.14399999
6.5901718 -38.321926 0.7568
6.540184 -38.32312 0.87120003
6.4902 -38.324318 0.89359999
6.4402122 -38.325516 0.89600003
6.3902283 -38.326714 0.88239998
6.3402443 -38.327911 0.8488
6.2902603 -38.329109 0.78640002
6.2402687 -38.330307 0.736
6.1902847 -38.331505 0.68400002
6.1403008 -38.332703 0.6128
6.0903168 -38.333897 0.5456
6.040329 -38.335094 0.49680001
5.9903412 -38.336292 0.43360001
5.9403572 -38.33749 0.34959999
5.8903732 -38.338688 0.2816
5.8403854 -38.339886 0.19599999
5.7904015 -38.341084 0.1088
5.7404137 -38.342281 0.0144
5.6904297 -38.343479 -0.088
5.6404419 -38.344673 -0.1936
5.5904579 -38.345871 -0.31760001
5.5404739 -38.347069 -0.47600001
7.285183 -38.105217 0.045600001
7.2351952 -38.106415 0.094400004
7.1852112 -38.107613 0.16240001
7.1352234 -38.10881 0.16159999
7.0852394 -38.110008 0.16320001
7.0352516 -38.111206 0.16240001
6.9852676 -38.112404 0.1672
6.9352798 -38.113598 0.148
6.8852959 -38.114796 0.16320001
6.8353119 -38.115993 0.1584
6.7853241 -38.117191 0.152
6.7353401 -38.118389 0.15360001
6.6853523 -38.119587 0.1424
6.6353683 -38.120785 0.13680001
6.5853844 -38.121983 0.75199997
6.5353966 -38.123177 0.87120003
6.4854126 -38.124374 0.89279997
6.4354248 -38.125572 0.89279997
6.3854408 -38.12677 0.89200002
6.3354568 -38.127968 0.83679998
6.2854729 -38.129166 0.79680002
6.2354813 -38.130363 0.74000001
6.1854973 -38.131561 0.67199999
6.1355133 -38.132759 0.63120002
6.0855293 -38.133953 0.55519998
6.0355415 -38.135151 0.49599999
5.9855537 -38.136349 0.42480001
5.9355698 -38.137547 0.35519999
5.8855858 -38.138744 0.28400001
5.835598 -38.139942 0.204
5.785614 -38.14114 0.1152
5.7356262 -38.142338 0.031199999
5.6856422 -38.143536 -0.076800004
5.6356544 -38.14473 -0.192
5.5856705 -38.145927 -0.3184
5.5356865 -38.147125 -0.44240001
7.2803917 -37.905273 0.048799999
7.2304077 -37.906471 0.1016
7.1804199 -37.907669 0.1504
7.1304359 -37.908867 0.1592
7.080452 -37.910065 0.16159999
7.0304642 -37.911263 0.1648
6.9804802 -37.91246 0.1688
6.9304924 -37.913654 0.15440001
6.8805084 -37.914852 0.1408
6.8305206 -37.91605 0.1336
6.7805367 -37.917248 0.1408
6.7305489 -37.918446 0.1488
6.6805649 -37.919643 0.1488
6.6305771 -37.920841 0.1328
6.5805931 -37.922039 0.7536
6.5306053 -37.923233 0.86799997
6.4806213 -37.924431 0.89200002
6.4306335 -37.925629 0.88559997
6.3806496 -37.926826 0.89039999
6.3306656 -37.928024 0.83920002
6.2806816 -37.929222 0.78960001
6.23069 -37.93042 0.7432
6.180706 -37.931618 0.6832
6.130722 -37.932816 0.61360002
6.0807381 -37.93401 0.56239998
6.0307503 -37.935207 0.50319999
5.9807625 -37.936405 0.43279999
5.9307785 -37.937603 0.36000001
5.8807945 -37.938801 0.28799999
5.8308067 -37.939999 0.208
5.7808228 -37.941196 0.1072
5.730835 -37.942394 0.0296
5.680851 -37.943592 -0.0832
5.6308632 -37.944786 -0.184
5.5808792 -37.945984 -0.308
5.5308952 -37.947182 -0.42399999
7.2756042 -37.705334 0.049600001
7.2256165 -37.706532 0.094400004
7.1756325 -37.707729 0.15440001
7.1256447 -37.708927 0.1552
7.0756607 -37.710125 0.15440001
7.0256729 -37.711323 0.16
6.9756889 -37.712517 0.1656
6.9257011 -37.713715 0.1568
6.8757172 -37.714912 0.17039999
6.8257332 -37.71611 0.15279999
6.7757454 -37.717308 0.1568
6.7257614 -37.718506 0.15279999
6.6757736 -37.719704 0.14560001
6.6257896 -37.720901 0.1464
6.5758057 -37.722099 0.74879998
6.5258179 -37.723297 0.8768
6.4758339 -37.724491 0.89279997
6.4258461 -37.725689 0.89359999
6.3758621 -37.726887 0.89520001
6.3258781 -37.728085 0.85439998
6.2758942 -37.729282 0.80080003
6.2259026 -37.73048 0.73680001
6.1759186 -37.731678 0.69919997
6.1259346 -37.732876 0.6232
6.0759506 -37.73407 0.56879997
6.0259628 -37.735268 0.49360001
5.975975 -37.736465 0.4296
5.9259911 -37.737663 0.35679999
5.8760071 -37.738861 0.2872
5.8260193 -37.740059 0.2264
5.7760353 -37.741257 0.1144
5.7260475 -37.742455 0.024
5.6760635 -37.743652 -0.071199998
5.6260757 -37.744846 -0.176
5.5760918 -37.746044 -0.3008
5.5261078 -37.747242 -0.45120001
7.270813 -37.50539 0.042399999
7.220829 -37.506588 0.088799998
7.1708412 -37.507786 0.1488
7.1208572 -37.508984 0.16240001
7.0708733 -37.510181 0.1552
7.0208855 -37.511379 0.16159999
6.9709015 -37.512573 0.1688
6.9209137 -37.513771 0.1568
6.8709297 -37.514969 0.1576
6.8209419 -37.516167 0.1928
6.7709579 -37.517365 0.1568
6.7209702 -37.518562 0.1512
6.6709862 -37.51976 0.14399999
6.6209984 -37.520958 0.1392
6.5710144 -37.522156 0.75040001
6.5210266 -37.523354 0.87279999
6.4710426 -37.524548 0.90399998
6.4210548 -37.525745 0.89679998
6.3710709 -37.526943 0.88880002
6.3210869 -37.528141 0.84640002
6.2711029 -37.529339 0.80400002
6.2211113 -37.530537 0.74479997
6.1711273 -37.531734 0.69679999
6.1211433 -37.532932 0.63279998
6.0711594 -37.534126 0.56959999
6.0211716 -37.535324 0.50080001
5.9711838 -37.536522 0.43360001
5.9211998 -37.53772 0.36880001
5.8712158 -37.538918 0.28479999
5.821228 -37.540115 0.20479999
5.771244 -37.541313 0.1416
5.7212563 -37.542511 0.0328
5.6712723 -37.543709 -0.067199998
5.6212845 -37.544903 -0.1864
5.5713005 -37.546101 -0.2888
5.5213165 -37.547298 -0.456
7.2660255 -37.305447 0.0528
7.2160378 -37.306644 0.1024
7.1660538 -37.307842 0.15279999
7.116066 -37.30904 0.1568
7.066082 -37.310238 0.1608
7.0160942 -37.311436 0.1584
6.9661102 -37.31263 0.16
6.9161224 -37.313828 0.1824
6.8661385 -37.315025 0.15279999
6.8161545 -37.316223 0.1584
6.7661667 -37.317421 0.1576
6.7161827 -37.318619 0.1584
6.6661949 -37.319817 0.1664
6.6162109 -37.321014 0.152
6.566227 -37.322212 0.7568
6.5162392 -37.32341 0.85439998
6.4662552 -37.324604 0.89279997
6.4162674 -37.325802 0.89840001
6.3662834 -37.327 0.89200002
6.3162994 -37.328197 0.84719998
6.2663155 -37.329395 0.78240001
6.2163239 -37.330593 0.74400002
6.1663399 -37.331791 0.69199997
6.1163559 -37.332989 0.62559998
6.0663719 -37.334183 0.57359999
6.0163841 -37.335381 0.50959998
5.9663963 -37.336578 0.44400001
5.9164124 -37.337776 0.3664
5.8664284 -37.338974 0.29519999
5.8164406 -37.340172 0.212
5.7664566 -37.34137 0.1144
5.7164688 -37.342567 0.040800001
5.6664848 -37.343765 -0.071999997
5.616497 -37.344959 -0.17919999
5.5665131 -37.346157 -0.292
7.2612343 -37.105503 0.033599999
7.2112465 -37.106701 0.085600004
7.1612625 -37.107899 0.1512
7.1112747 -37.109097 0.1568
7.0612907 -37.110294 0.1552
7.0113029 -37.111492 0.1576
6.961319 -37.112686 0.16320001
6.9113312 -37.113884 0.164
6.8613472 -37.115082 0.1568
6.8113632 -37.11628 0.1576
6.7613754 -37.117477 0.16
6.7113914 -37.118675 0.1608
6.6614037 -37.119873 0.168
6.6114197 -37.121071 0.1464
6.5614357 -37.122269 0.74879998
6.5114479 -37.123466 0.81519997
6.4614639 -37.12466 0.89039999
6.4114761 -37.125858 0.89679998
6.3614922 -37.127056 0.89600003
6.3115082 -37.128254 0.85439998
6.2615242 -37.129452 0.79280001
6.2115326 -37.13065 0.75999999
6.1615486 -37.131847 0.6936
6.1115646 -37.133045 0.62879997
6.0615807 -37.134239 0.56639999
6.0115929 -37.135437 0.5176
5.9616051 -37.136635 0.44080001
5.9116211 -37.137833 0.36719999
5.8616371 -37.13903 0.28960001
5.8116493 -37.140228 0.21359999
5.7616653 -37.141426 0.1304
5.7116776 -37.142624 0.0416
5.6616936 -37.143822 -0.067199998
5.6117058 -37.145016 -0.17839999
5.5617218 -37.146214 -0.2888
5.5117378 -37.147411 -0.42879999
7.256443 -36.90556 0.047200002
7.206459 -36.906757 0.092799999
7.1564713 -36.907955 0.14399999
7.1064873 -36.909153 0.15279999
7.0565033 -36.910351 0.15279999
7.0065155 -36.911549 0.1576
6.9565315 -36.912743 0.1584
6.9065437 -36.91394 0.1576
6.8565598 -36.915138 0.1496
6.806572 -36.916336 0.1608
6.756588 -36.917534 0.1608
6.7066002 -36.918732 0.15279999
6.6566162 -36.91993 0.164
6.6066284 -36.921127 0.1496
6.5566444 -36.922325 0.74800003
6.5066566 -36.923523 0.796
6.4566727 -36.924717 0.88800001
6.4066849 -36.925915 0.90319997
6.3567009 -36.927113 0.89840001
6.3067169 -36.92831 0.86479998
6.2567329 -36.929508 0.81120002
6.2067413 -36.930706 0.74479997
6.1567574 -36.931904 0.70319998
6.1067734 -36.933102 0.63279998
6.0567894 -36.934296 0.57200003
6.0068016 -36.935493 0.50239998
5.9568138 -36.936691 0.4368
5.9068298 -36.937889 0.3664
5.8568459 -36.939087 0.29440001
5.8068581 -36.940285 0.2184
5.7568741 -36.941483 0.12800001
5.7068863 -36.94268 0.043200001
5.6569023 -36.943878 -0.048799999
5.6069145 -36.945072 -0.17039999
5.5569305 -36.94627 -0.2872
7.2516556 -36.70562 0.047200002
7.2016678 -36.706818 0.090400003
7.1516838 -36.708015 0.1592
7.101696 -36.709213 0.1576
7.051712 -36.710411 0.16240001
7.0017242 -36.711609 0.17200001
6.9517403 -36.712807 0.1648
6.9017525 -36.714001 0.1584
6.8517685 -36.715199 0.16159999
6.8017845 -36.716396 0.16
6.7517967 -36.717594 0.16159999
6.7018127 -36.718792 0.1672
6.651825 -36.71999 0.16159999
6.601841 -36.721188 0.152
6.551857 -36.722385 0.74879998
6.5018692 -36.723579 0.80720001
6.4518852 -36.724777 0.89200002
6.4018974 -36.725975 0.89679998
6.3519135 -36.727173 0.89359999
6.3019295 -36.728371 0.852
6.2519455 -36.729568 0.796
6.2019539 -36.730766 0.7464
6.1519699 -36.731964 0.69520003
6.1019859 -36.733162 0.6304
6.052002 -36.734356 0.57840002
6.0020142 -36.735554 0.50880003
5.9520264 -36.736752 0.44800001
5.9020424 -36.737949 0.37439999
5.8520584 -36.739147 0.30399999
5.8020706 -36.740345 0.2104
5.7520866 -36.741543 0.1384
5.7020988 -36.742741 0.047200002
5.6521149 -36.743938 -0.0568
5.6021271 -36.745132 -0.1768
5.5521431 -36.74633 -0.28400001
7.1968803 -36.506874 0.078400001
7.1468925 -36.508072 0.16159999
7.0969086 -36.50927 0.1608
7.0469246 -36.510468 0.17039999
6.9969368 -36.511665 0.16240001
6.9469528 -36.512863 0.1608
6.896965 -36.514057 0.1576
6.846981 -36.515255 0.1648
6.7969933 -36.516453 0.1584
6.7470093 -36.517651 0.1576
6.6970215 -36.518848 0.16240001
6.6470375 -36.520046 0.164
6.5970497 -36.521244 0.1472
6.5470657 -36.522442 0.74720001
6.4970779 -36.523636 0.77600002
6.447094 -36.524834 0.89600003
6.3971062 -36.526031 0.89920002
6.3471222 -36.527229 0.89359999
6.2971382 -36.528427 0.86559999
6.2471542 -36.529625 0.80080003
6.1971626 -36.530823 0.75999999
6.1471786 -36.532021 0.69679999
6.0971947 -36.533218 0.6304
6.0472107 -36.534412 0.56879997
5.9972229 -36.53561 0.51520002
5.9472351 -36.536808 0.44400001
5.8972511 -36.538006 0.38800001
5.8472672 -36.539204 0.3008
5.7972794 -36.540401 0.2272
5.7472954 -36.541599 0.1376
5.6973076 -36.542797 0.040800001
5.6473236 -36.543995 -0.0528
5.5973358 -36.545189 -0.1664
5.5473518 -36.546387 -0.2784
5.4973679 -36.547585 -0.43279999
7.2420769 -36.305733 0.047200002
7.1920891 -36.306931 0.088
7.1421051 -36.308128 0.1288
7.0921173 -36.309326 0.1512
7.0421333 -36.310524 0.15440001
6.9921455 -36.311722 0.1512
6.9421616 -36.31292 0.1648
6.8921738 -36.314114 0.17039999
6.8421898 -36.315311 0.1592
6.7922058 -36.316509 0.1584
6.742218 -36.317707 0.1608
6.692234 -36.318905 0.1648
6.6422462 -36.320103 0.1664
6.5922623 -36.321301 0.1504
6.5422783 -36.322498 0.74559999
6.4922905 -36.323692 0.8136
6.4423065 -36.32489 0.89200002
6.3923187 -36.326088 0.89840001
6.3423347 -36.327286 0.89120001
6.2923508 -36.328484 0.8696
6.2423668 -36.329681 0.81199998
6.1923752 -36.330879 0.74800003
6.1423912 -36.332077 0.69599998
6.0924072 -36.333275 0.64719999
6.0424232 -36.334469 0.57440001
5.9924355 -36.335667 0.51200002
5.9424477 -36.336864 0.46079999
5.8924637 -36.338062 0.3768
5.8424797 -36.33926 0.31200001
5.7924919 -36.340458 0.2288
5.7425079 -36.341656 0.14399999
5.6925201 -36.342854 0.047200002
5.6425362 -36.344051 -0.053599998
5.5925484 -36.345245 -0.1592
5.5425644 -36.346443 -0.27759999
7.2372856 -36.105789 0.046399999
7.1873016 -36.106987 0.083999999
7.1373138 -36.108185 0.18880001
7.0873299 -36.109383 0.1744
7.0373459 -36.11058 0.156
6.9873581 -36.111778 0.1648
6.9373741 -36.112976 0.1672
6.8873863 -36.11417 0.1568
6.8374023 -36.115368 0.1552
6.7874146 -36.116566 0.1584
6.7374306 -36.117764 0.1576
6.6874428 -36.118961 0.1552
6.6374588 -36.120159 0.156
6.587471 -36.121357 0.14560001
6.537487 -36.122555 0.74800003
6.4874992 -36.123749 0.78479999
6.4375153 -36.124947 0.8944
6.3875275 -36.126144 0.89359999
6.3375435 -36.127342 0.89679998
6.2875595 -36.12854 0.86879998
6.2375755 -36.129738 0.8064
6.1875839 -36.130936 0.74959999
6.1375999 -36.132133 0.70240003
6.087616 -36.133331 0.63840002
6.037632 -36.134525 0.5848
5.9876442 -36.135723 0.51840001
5.9376564 -36.136921 0.45199999
5.8876724 -36.138119 0.38479999
5.8376884 -36.139317 0.29679999
5.7877007 -36.140514 0.22
5.7377167 -36.141712 0.1432
5.6877289 -36.14291 0.040800001
5.6377449 -36.144108 -0.049600001
5.5877571 -36.145302 -0.16
5.5377731 -36.1465 -0.28
5.4877892 -36.147697 -0.40400001
7.1825104 -35.907043 0.071999997
7.1325264 -35.908241 0.12
7.0825386 -35.909439 0.1648
7.0325546 -35.910637 0.1648
6.9825668 -35.911835 0.168
6.9325829 -35.913033 0.17039999
6.8825951 -35.914227 0.16320001
6.8326111 -35.915424 0.1568
6.7826271 -35.916622 0.1584
6.7326393 -35.91782 0.16320001
6.6826553 -35.919018 0.1576
6.6326675 -35.920216 0.1608
6.5826836 -35.921413 0.15360001
6.5326996 -35.922611 0.74159998
6.4827118 -35.923805 0.77200001
6.4327278 -35.925003 0.89359999
6.38274 -35.926201 0.89200002
6.332756 -35.927399 0.88880002
6.2827721 -35.928596 0.86080003
6.2327881 -35.929794 0.81199998
6.1827965 -35.930992 0.7536
6.1328125 -35.93219 0.70480001
6.0828285 -35.933388 0.6376
6.0328445 -35.934582 0.59039998
5.9828568 -35.93578 0.51599997
5.932869 -35.936977 0.46160001
5.882885 -35.938175 0.37279999
5.832901 -35.939373 0.2976
5.7829132 -35.940571 0.228
5.7329292 -35.941769 0.1464
5.6829414 -35.942966 0.0528
5.6329575 -35.944164 -0.063199997
5.5829697 -35.945358 -0.1552
5.5329857 -35.946556 -0.27200001
5.4830017 -35.947754 -0.384
7.1777229 -35.707104 0.077600002
7.1277351 -35.708302 0.1656
7.0777512 -35.709499 0.1728
7.0277672 -35.710697 0.1568
6.9777794 -35.711895 0.1672
6.9277954 -35.713089 0.1672
6.8778076 -35.714287 0.16
6.8278236 -35.715485 0.156
6.7778358 -35.716682 0.15440001
6.7278519 -35.71788 0.15440001
6.6778641 -35.719078 0.15440001
6.6278801 -35.720276 0.15279999
6.5778923 -35.721474 0.1504
6.5279083 -35.722672 0.74080002
6.4779205 -35.723869 0.77039999
6.4279366 -35.725063 0.88559997
6.3779488 -35.726261 0.89200002
6.3279648 -35.727459 0.89279997
6.2779808 -35.728657 0.86479998
6.2279968 -35.729855 0.80800003
6.1780052 -35.731052 0.75999999
6.1280212 -35.73225 0.7008
6.0780373 -35.733448 0.63919997
6.0280533 -35.734642 0.58240002
5.9780655 -35.73584 0.51279998
5.9280777 -35.737038 0.46560001
5.8780937 -35.738235 0.3888
5.8281097 -35.739433 0.3096
5.7781219 -35.740631 0.23280001
5.728138 -35.741829 0.1552
5.6781502 -35.743027 0.0568
5.6281662 -35.744225 -0.040800001
5.5781784 -35.745419 -0.16
5.5281944 -35.746616 -0.2608
5.4782104 -35.747814 -0.40720001
7.1729317 -35.50716 0.073600002
7.1229477 -35.508358 0.23360001
7.0729599 -35.509556 0.1592
7.0229759 -35.510754 0.1584
6.9729881 -35.511951 0.1592
6.9230042 -35.513145 0.16320001
6.8730164 -35.514343 0.16320001
6.8230324 -35.515541 0.152
6.7730484 -35.516739 0.1576
6.7230606 -35.517937 0.15279999
6.6730766 -35.519135 0.16159999
6.6230888 -35.520332 0.15279999
6.5731049 -35.52153 0.1488
6.5231209 -35.522728 0.74000001
6.4731331 -35.523926 0.7744
6.4231491 -35.52512 0.88559997
6.3731613 -35.526318 0.89359999
6.3231773 -35.527515 0.89679998
6.2731934 -35.528713 0.86159998
6.2232094 -35.529911 0.80800003
6.1732178 -35.531109 0.76880002
6.1232338 -35.532307 0.70240003
6.0732498 -35.533504 0.6408
6.0232658 -35.534698 0.58880001
5.973278 -35.535896 0.5248
5.9232903 -35.537094 0.45519999
5.8733063 -35.538292 0.37599999
5.8233223 -35.53949 0.31439999
5.7733345 -35.540688 0.22239999
5.7233505 -35.541885 0.1328
5.6733627 -35.543083 0.058400001
5.6233788 -35.544281 -0.032000002
5.573391 -35.545475 -0.1416
5.523407 -35.546673 -0.2368
5.473423 -35.547871 -0.3888
5.4234352 -35.549068 -0.51999998
5.3734474 -35.550266 -0.71039999
7.1681442 -35.307217 0.0616
7.1181564 -35.308414 0.1192
7.0681725 -35.309612 0.15440001
7.0181885 -35.31081 0.16320001
6.9682007 -35.312008 0.164
6.9182167 -35.313202 0.1584
6.8682289 -35.3144 0.1608
6.8182449 -35.315598 0.16
6.7682571 -35.316795 0.1552
6.7182732 -35.317993 0.1552
6.6682854 -35.319191 0.1568
6.6183014 -35.320389 0.1576
6.5683136 -35.321587 0.1392
6.5183296 -35.322784 0.7392
6.4683418 -35.323982 0.76480001
6.4183578 -35.325176 0.8872
6.3683701 -35.326374 0.89520001
6.3183861 -35.327572 0.88880002
6.2684021 -35.32877 0.87440002
6.2184181 -35.329967 0.8168
6.1684265 -35.331165 0.7608
6.1184425 -35.332363 0.71439999
6.0684586 -35.333561 0.65039998
6.0184746 -35.334755 0.58639997
5.9684868 -35.335953 0.53119999
5.918499 -35.337151 0.4632
5.868515 -35.338348 0.38319999
5.818531 -35.339546 0.3184
5.7685432 -35.340744 0.24079999
5.7185593 -35.341942 0.1432
5.6685715 -35.34314 0.060800001
5.6185875 -35.344337 -0.030400001
5.5685997 -35.345531 -0.1304
5.5186157 -35.346729 -0.27599999
7.163353 -35.107273 0.0616
7.1133652 -35.108471 0.1288
7.0633812 -35.109669 0.16159999
7.0133972 -35.110867 0.1592
6.9634094 -35.112064 0.164
6.9134254 -35.113258 0.1672
6.8634377 -35.114456 0.192
6.8134537 -35.115654 0.1504
6.7634659 -35.116852 0.156
6.7134819 -35.11805 0.1568
6.6634941 -35.119247 0.1552
6.6135101 -35.120445 0.16
6.5635223 -35.121643 0.1432
6.5135384 -35.122841 0.34240001
6.4635506 -35.124039 0.764
6.4135666 -35.125233 0.884
6.3635788 -35.126431 0.89279997
6.3135948 -35.127628 0.89279997
6.2636108 -35.128826 0.87199998
6.2136269 -35.130024 0.81599998
6.1636353 -35.131222 0.76160002
6.1136513 -35.13242 0.7112
6.0636673 -35.133617 0.64480001
6.0136833 -35.134811 0.58880001
5.9636955 -35.136009 0.52880001
5.9137077 -35.137207 0.47279999
5.8637238 -35.138405 0.39359999
5.8137398 -35.139603 0.3168
5.763752 -35.1408 0.2448
5.713768 -35.141998 0.156
5.6637802 -35.143196 0.064000003
5.6137962 -35.144394 -0.038400002
5.5638084 -35.145588 -0.1376
5.5138245 -35.146786 -0.24879999
7.1585617 -34.907333 0.064000003
7.1085777 -34.908531 0.1248
7.0585899 -34.909729 0.1568
7.008606 -34.910927 0.1552
6.9586182 -34.912125 0.1584
6.9086342 -34.913322 0.1576
6.8586464 -34.914516 0.164
6.8086624 -34.915714 0.1576
6.7586784 -34.916912 0.148
6.7086906 -34.91811 0.148
6.6587067 -34.919308 0.15279999
6.6087189 -34.920506 0.156
6.5587349 -34.921703 0.14399999
6.5087509 -34.922901 0.35600001
6.4587631 -34.924095 0.7712
6.4087791 -34.925293 0.88319999
6.3587914 -34.926491 0.88880002
6.3088074 -34.927689 0.89359999
6.2588234 -34.928886 0.87279999
6.2088394 -34.930084 0.82560003
6.1588478 -34.931282 0.76319999
6.1088638 -34.93248 0.70319998
6.0588799 -34.933678 0.65039998
6.0088959 -34.934872 0.59200001
5.9589081 -34.936069 0.53119999
5.9089203 -34.937267 0.46720001
5.8589363 -34.938465 0.38960001
5.8089523 -34.939663 0.31600001
5.7589645 -34.940861 0.2456
5.7089806 -34.942059 0.1568
5.6589928 -34.943256 0.068000004
5.6090088 -34.944454 -0.030400001
5.559021 -34.945648 -0.1336
5.509037 -34.946846 -0.26719999
7.1537743 -34.707394 0.063199997
7.1037865 -34.708591 0.132
7.0538025 -34.709789 0.1568
7.0038185 -34.710987 0.15440001
6.9538307 -34.712185 0.1664
6.9038467 -34.713379 0.16
6.8538589 -34.714577 0.1608
6.803875 -34.715775 0.1584
6.7538872 -34.716972 0.164
6.7039032 -34.71817 0.15440001
6.6539154 -34.719368 0.1568
6.6039314 -34.720566 0.1568
6.5539436 -34.721764 0.1424
6.5039597 -34.722961 0.37200001
6.4539719 -34.724159 0.75999999
6.4039879 -34.725353 0.87919998
6.3540001 -34.726551 0.89279997
6.3040161 -34.727749 0.90319997
6.2540321 -34.728947 0.87840003
6.2040482 -34.730145 0.81919998
6.1540565 -34.731342 0.764
6.1040726 -34.73254 0.71679997
6.0540886 -34.733738 0.65679997
6.0041046 -34.734932 0.60640001
5.9541168 -34.73613 0.5248
5.904129 -34.737328 0.47279999
5.8541451 -34.738525 0.39680001
5.8041611 -34.739723 0.31920001
5.7541733 -34.740921 0.24879999
5.7041893 -34.742119 0.1592
5.6542015 -34.743317 0.077600002
5.6042175 -34.744514 -0.021600001
5.5542297 -34.745708 -0.124
5.5042458 -34.746906 -0.25279999
7.148983 -34.50745 0.055199999
7.098999 -34.508648 0.1168
7.0490112 -34.509846 0.164
6.9990273 -34.511044 0.1592
6.9490395 -34.512241 0.1608
6.8990555 -34.513435 0.16159999
6.8490677 -34.514633 0.1672
6.7990837 -34.515831 0.1568
6.7490997 -34.517029 0.1576
6.6991119 -34.518227 0.1576
6.649128 -34.519424 0.1584
6.5991402 -34.520622 0.16320001
6.5491562 -34.52182 0.14480001
6.4991722 -34.523018 0.3624
6.4491844 -34.524216 0.76239997
6.3992004 -34.52541 0.88959998
6.3492126 -34.526608 0.89120001
6.2992287 -34.527805 0.89999998
6.2492447 -34.529003 0.87199998
6.1992607 -34.530201 0.8136
6.1492691 -34.531399 0.77039999
6.0992851 -34.532597 0.70880002
6.0493011 -34.533794 0.65039998
5.9993172 -34.534988 0.59119999
5.9493294 -34.536186 0.52560002
5.8993416 -34.537384 0.46880001
5.8493576 -34.538582 0.39680001
5.7993736 -34.53978 0.324
5.7493858 -34.540977 0.2472
5.6994019 -34.542175 0.156
5.6494141 -34.543373 0.080799997
5.5994301 -34.544571 -0.016000001
5.5494423 -34.545765 -0.14480001
5.4994583 -34.546963 -0.2216
7.1441956 -34.307507 0.045600001
7.0942078 -34.308704 0.1088
7.0442238 -34.309902 0.14560001
6.9942398 -34.3111 0.1576
6.944252 -34.312298 0.156
6.894268 -34.313492 0.16240001
6.8442802 -34.31469 0.1744
6.7942963 -34.315887 0.16
6.7443085 -34.317085 0.1512
6.6943245 -34.318283 0.1568
6.6443367 -34.319481 0.1592
6.5943527 -34.320679 0.16
6.5443649 -34.321877 0.1472
6.494381 -34.323074 0.1424
6.4443932 -34.324272 0.7608
6.3944092 -34.325466 0.8872
6.3444214 -34.326664 0.8976
6.2944374 -34.327862 0.88959998
6.2444534 -34.32906 0.8872
6.1944695 -34.330257 0.81999999
6.1444778 -34.331455 0.7744
6.0944939 -34.332653 0.70880002
6.0445099 -34.333851 0.65280002
5.9945259 -34.335045 0.5984
5.9445381 -34.336243 0.53680003
5.8945503 -34.33744 0.4752
5.8445663 -34.338638 0.4064
5.7945824 -34.339836 0.33039999
5.7445946 -34.341034 0.252
5.6946106 -34.342232 0.17120001
5.6446228 -34.34343 0.0792
5.5946388 -34.344627 -0.0055999998
5.544651 -34.345821 -0.12800001
5.4946671 -34.347019 -0.2264
7.1394043 -34.107563 0.0504
7.0894203 -34.108761 0.1128
7.0394325 -34.109959 0.1856
6.9894485 -34.111156 0.1552
6.9394608 -34.112354 0.1568
6.8894768 -34.113548 0.16320001
6.839489 -34.114746 0.1576
6.789505 -34.115944 0.15279999
6.739521 -34.117142 0.1576
6.6895332 -34.11834 0.1584
6.6395493 -34.119537 0.1576
6.5895615 -34.120735 0.1584
6.5395775 -34.121933 0.1424
6.4895935 -34.123131 0.14480001
6.4396057 -34.124329 0.75919998
6.3896217 -34.125523 0.88
6.3396339 -34.12672 0.89279997
6.28965 -34.127918 0.89840001
6.239666 -34.129116 0.87919998
6.189682 -34.130314 0.82239997
6.1396904 -34.131512 0.77600002
6.0897064 -34.13271 0.71920002
6.0397224 -34.133907 0.65359998
5.9897385 -34.135101 0.60320002
5.9397507 -34.136299 0.53759998
5.8897629 -34.137497 0.47600001
5.8397789 -34.138695 0.40079999
5.7897949 -34.139893 0.324
5.7398071 -34.14109 0.25760001
5.6898232 -34.142288 0.17120001
5.6398354 -34.143486 0.079999998
5.5898514 -34.144684 -0.0176
5.5398636 -34.145878 -0.1192
7.1346169 -33.907619 0.046399999
7.0846291 -33.908817 0.095200002
7.0346451 -33.910015 0.156
6.9846611 -33.911213 0.16240001
6.9346733 -33.912411 0.152
6.8846893 -33.913605 0.1688
6.8347015 -33.914803 0.1576
6.7847176 -33.916 0.1552
6.7347298 -33.917198 0.152
6.6847458 -33.918396 0.1592
6.634758 -33.919594 0.1584
6.584774 -33.920792 0.1576
6.5347862 -33.921989 0.1472
6.4848022 -33.923187 0.1376
6.4348145 -33.924385 0.75040001
6.3848305 -33.925579 0.884
6.3348427 -33.926777 0.89840001
6.2848587 -33.927975 0.89359999
6.2348747 -33.929173 0.87040001
6.1848907 -33.93037 0.82239997
6.1348991 -33.931568 0.76719999
6.0849152 -33.932766 0.71039999
6.0349312 -33.933964 0.66399997
5.9849472 -33.935158 0.60159999
5.9349594 -33.936356 0.53920001
5.8849716 -33.937553 0.472
5.8349876 -33.938751 0.40720001
5.7850037 -33.939949 0.32879999
5.7350159 -33.941147 0.24959999
5.6850319 -33.942345 0.1664
5.6350441 -33.943542 0.0744
5.5850601 -33.94474 -0.016000001
5.5350723 -33.945934 -0.1248
5.4850883 -33.947132 -0.2256
5.4351044 -33.94833 -0.36000001
7.1298256 -33.70768 0.042399999
7.0798416 -33.708878 0.093599997
7.0298538 -33.710075 0.14560001
6.9798698 -33.711273 0.1504
6.929882 -33.712471 0.152
6.8798981 -33.713669 0.1568
6.8299103 -33.714863 0.1648
6.7799263 -33.716061 0.15440001
6.7299423 -33.717258 0.15440001
6.6799545 -33.718456 0.15440001
6.6299706 -33.719654 0.1584
6.5799828 -33.720852 0.1568
6.5299988 -33.72205 0.1568
6.4800148 -33.723248 0.14399999
6.430027 -33.724442 0.76239997
6.380043 -33.725639 0.88
6.3300552 -33.726837 0.89520001
6.2800713 -33.728035 0.89520001
6.2300873 -33.729233 0.884
6.1801033 -33.730431 0.83279997
6.1301117 -33.731628 0.7712
6.0801277 -33.732826 0.72719997
6.0301437 -33.734024 0.66240001
5.9801598 -33.735218 0.61440003
5.930172 -33.736416 0.53200001
5.8801842 -33.737614 0.48640001
5.8302002 -33.738811 0.40880001
5.7802162 -33.740009 0.3328
5.7302284 -33.741207 0.25999999
5.6802444 -33.742405 0.17839999
5.6302567 -33.743603 0.089599997
5.5802727 -33.744801 -0.016000001
5.5302849 -33.745995 -0.112
5.4803009 -33.747192 -0.22239999
5.4303169 -33.74839 -0.35519999
5.3803291 -33.749588 -0.4896
5.3303413 -33.750786 -0.68239999
5.2803574 -33.751984 -0.89200002
7.1250381 -33.507736 0.032000002
7.0750504 -33.508934 0.1
7.0250664 -33.510132 0.1464
6.9750824 -33.51133 0.1496
6.9250946 -33.512527 0.156
6.8751106 -33.513725 0.1552
6.8251228 -33.514919 0.15440001
6.7751389 -33.516117 0.1512
6.7251511 -33.517315 0.1512
6.6751671 -33.518513 0.1552
6.6251793 -33.519711 0.1592
6.5751953 -33.520908 0.1552
6.5252075 -33.522106 0.15360001
6.4752235 -33.523304 0.14480001
6.4252357 -33.524498 0.7608
6.3752518 -33.525696 0.87440002
6.325264 -33.526894 0.89279997
6.27528 -33.528091 0.89359999
6.225296 -33.529289 0.88160002
6.175312 -33.530487 0.83840001
6.1253204 -33.531685 0.77359998
6.0753365 -33.532883 0.71200001
6.0253525 -33.534081 0.66479999
5.9753685 -33.535275 0.61199999
5.9253807 -33.536472 0.53920001
5.8753929 -33.53767 0.47920001
5.8254089 -33.538868 0.40959999
5.775425 -33.540066 0.33520001
5.7254372 -33.541264 0.2608
5.6754532 -33.542461 0.17839999
5.6254654 -33.543659 0.1096
5.5754814 -33.544857 -0.0088
5.5254936 -33.546051 -0.099200003
5.4755096 -33.547249 -0.2192
5.4255257 -33.548447 -0.32879999
5.3755379 -33.549644 -0.49599999
7.0702629 -33.30899 0.095200002
7.0202751 -33.310188 0.1384
6.9702911 -33.311386 0.1552
6.9203033 -33.312584 0.15279999
6.8703194 -33.313782 0.1568
6.8203316 -33.314976 0.1656
6.7703476 -33.316174 0.1608
6.7203636 -33.317371 0.1584
6.6703758 -33.318569 0.16
6.6203918 -33.319767 0.1592
6.5704041 -33.320965 0.16159999
6.5204201 -33.322163 0.1504
6.4704361 -33.32336 0.1384
6.4204483 -33.324554 0.75599998
6.3704643 -33.325752 0.8768
6.3204765 -33.32695 0.88959998
6.2704926 -33.328148 0.89039999
6.2205086 -33.329346 0.87760001
6.1705246 -33.330544 0.82160002
6.120533 -33.331741 0.77039999
6.070549 -33.332939 0.72320002
6.020565 -33.334137 0.66159999
5.9705811 -33.335331 0.60159999
5.9205933 -33.336529 0.54479998
5.8706055 -33.337727 0.48159999
5.8206215 -33.338924 0.42320001
5.7706375 -33.340122 0.33919999
5.7206497 -33.34132 0.25839999
5.6706657 -33.342518 0.17200001
5.6206779 -33.343716 0.088799998
5.570694 -33.344913 -0.016000001
5.5207062 -33.346107 -0.1176
5.4707222 -33.347305 -0.2184
5.4207382 -33.348503 -0.3416
7.0154839 -33.110245 0.12639999
6.9654999 -33.111443 0.1496
6.9155121 -33.11264 0.1552
6.8655281 -33.113838 0.1608
6.8155403 -33.115032 0.1552
6.7655563 -33.11623 0.15440001
6.7155724 -33.117428 0.1584
6.6655846 -33.118626 0.1576
6.6156006 -33.119823 0.1576
6.5656128 -33.121021 0.16159999
6.5156288 -33.122219 0.1424
6.4656448 -33.123417 0.1432
6.415657 -33.124611 0.75279999
6.3656731 -33.125809 0.87919998
6.3156853 -33.127007 0.90240002
6.2657013 -33.128204 0.89600003
6.2157173 -33.129402 0.88880002
6.1657333 -33.1306 0.8312
6.1157417 -33.131798 0.7816
6.0657578 -33.132996 0.72719997
6.0157738 -33.134193 0.66640002
5.9657898 -33.135387 0.61680001
5.915802 -33.136585 0.54479998
5.8658142 -33.137783 0.484
5.8158302 -33.138981 0.41600001
5.7658463 -33.140179 0.33919999
5.7158585 -33.141376 0.264
5.6658745 -33.142574 0.1848
5.6158867 -33.143772 0.091200002
5.5659027 -33.14497 0.0040000002
5.5159149 -33.146164 -0.104
5.4659309 -33.147362 -0.2192
6.9607124 -32.911499 0.1344
6.9107246 -32.912697 0.1584
6.8607407 -32.913895 0.15279999
6.8107529 -32.915089 0.15440001
6.7607689 -32.916286 0.1496
6.7107811 -32.917484 0.1552
6.6607971 -32.918682 0.1584
6.6108093 -32.91988 0.1584
6.5608253 -32.921078 0.16
6.5108376 -32.922276 0.1488
6.4608536 -32.923473 0.14480001
6.4108658 -32.924667 0.75040001
6.3608818 -32.925865 0.88160002
6.310894 -32.927063 0.89279997
6.26091 -32.928261 0.89920002
6.2109261 -32.929459 0.8872
6.1609421 -32.930656 0.83759999
6.1109505 -32.931854 0.7816
6.0609665 -32.933052 0.73119998
6.0109825 -32.93425 0.67119998
5.9609985 -32.935444 0.61519998
5.9110107 -32.936642 0.55440003
5.8610229 -32.93784 0.4824
5.811039 -32.939037 0.41839999
5.761055 -32.940235 0.3448
5.7110672 -32.941433 0.2624
5.6610832 -32.942631 0.1864
5.6110954 -32.943829 0.099200003
5.5611115 -32.945026 0.0055999998
5.5111237 -32.94622 -0.097599998
5.4611397 -32.947418 -0.2368
6.9059334 -32.712757 0.0176
6.8559494 -32.713951 0.091200002
6.8059616 -32.715149 0.14399999
6.7559776 -32.716347 0.148
6.7059937 -32.717545 0.1496
6.6560059 -32.718742 0.156
6.6060219 -32.71994 0.156
6.5560341 -32.721138 0.1576
6.5060501 -32.722336 0.15440001
6.4560661 -32.723534 0.14
6.4060783 -32.724731 0.74720001
6.3560944 -32.725925 0.84079999
6.3061066 -32.727123 0.89039999
6.2561226 -32.728321 0.9016
6.2061386 -32.729519 0.88480002
6.1561546 -32.730717 0.8344
6.106163 -32.731915 0.7816
6.056179 -32.733112 0.73519999
6.0061951 -32.73431 0.67680001
5.9562111 -32.735504 0.616
5.9062233 -32.736702 0.5528
5.8562355 -32.7379 0.4984
5.8062515 -32.739098 0.41760001
5.7562675 -32.740295 0.3504
5.7062798 -32.741493 0.2784
5.6562958 -32.742691 0.184
5.606308 -32.743889 0.095200002
5.556324 -32.745087 0.0048000002
5.5063362 -32.746281 -0.1
5.4563522 -32.747478 -0.2088
5.4063683 -32.748676 -0.33039999
5.3563805 -32.749874 -0.48879999
7.6509304 -32.49485 0.2176
7.6009464 -32.496048 0.1296
7.5509605 -32.497246 0.1112
7.5009747 -32.498444 0.052000001
7.4509907 -32.499641 -0.1464
7.4010029 -32.500839 -0.1816
7.351017 -32.502037 -0.236
7.3010292 -32.503235 -0.1752
7.2510452 -32.504429 -0.0416
7.2010612 -32.505627 -0.4016
7.1510735 -32.506824 -0.40720001
7.1010895 -32.508022 -0.23280001
7.0511017 -32.50922 -0.0416
7.0011177 -32.510418 0.28400001
6.9511337 -32.511616 0.25839999
6.9011459 -32.512814 0.2888
6.851162 -32.514008 0.27200001
6.8011742 -32.515205 0.25440001
6.7511902 -32.516403 0.16
6.7012024 -32.517601 0.1384
6.6512184 -32.518799 0.152
6.6012306 -32.519997 0.152
6.5512466 -32.521194 0.1568
6.5012589 -32.522392 0.1504
6.4512749 -32.52359 0.1256
6.4012871 -32.524788 0.74879998
6.3513031 -32.525982 0.82319999
6.3013153 -32.52718 0.89120001
6.2513313 -32.528378 0.89600003
6.2013474 -32.529575 0.89279997
6.1513634 -32.530773 0.82319999
6.1013718 -32.531971 0.79119998
6.0513878 -32.533169 0.73280001
6.0014038 -32.534367 0.67439997
5.9514198 -32.535561 0.61680001
5.901432 -32.536758 0.54720002
5.8514442 -32.537956 0.48879999
5.8014603 -32.539154 0.42399999
5.7514763 -32.540352 0.34079999
5.7014885 -32.54155 0.2832
5.6515045 -32.542747 0.1952
5.6015167 -32.543945 0.099200003
5.5515327 -32.545143 0.021600001
5.501545 -32.546337 -0.090400003
5.451561 -32.547535 -0.1848
5.401577 -32.548733 -0.33680001
7.8460846 -32.290119 -0.22400001
7.7960968 -32.291317 -0.252
7.7461128 -32.292515 -0.1464
7.6961288 -32.293709 -0.152
7.6461411 -32.294907 -0.1816
7.5961571 -32.296104 -0.164
7.5461693 -32.297302 -0.3416
7.4961853 -32.2985 -0.43200001
7.4462013 -32.299698 -0.46399999
7.3962135 -32.300896 -0.4752
7.3462296 -32.302094 -0.50480002
7.2962418 -32.303291 -0.55599999
7.2462578 -32.304485 -0.80000001
7.19627 -32.305683 -0.62159997
7.146286 -32.306881 -0.68879998
7.0962982 -32.308079 -0.676
7.0463142 -32.309277 -0.51679999
6.9963264 -32.310474 0.0744
6.9463425 -32.311672 0.053599998
6.8963547 -32.31287 0.062399998
6.8463707 -32.314064 0.069600001
6.7963829 -32.315262 0.069600001
6.7463989 -32.31646 0.077600002
6.6964149 -32.317657 0.094400004
6.6464272 -32.318855 0.1288
6.5964432 -32.320053 0.152
6.5464554 -32.321251 0.15279999
6.4964714 -32.322449 0.148
6.4464874 -32.323647 0.1256
6.3964996 -32.324844 0.7392
6.3465157 -32.326038 0.81120002
